# .PCD v0.7 - Point Cloud Data file format
VERSION 0.7
FIELDS x y z label normal_x normal_y normal_z curvature
SIZE 4 4 4 4 4 4 4 4
TYPE F F F U F F F F
COUNT 1 1 1 1 1 1 1 1
WIDTH 1171
HEIGHT 1
VIEWPOINT 0 0 0 1 0 0 0
POINTS 1171
DATA ascii
31.06411 -42.96949 29.934671 0 0 0 0 0
-3.6559262 -8.8675146 59.713341 0 0 0 0 0
-21.95476 9.2774067 56.214046 0 0 0 0 0
-20.493629 8.4117336 13.818942 0 0 0 0 0
0.35024738 -13.025183 14.1531 0 0 0 0 0
24.739971 -37.231499 28.763165 0 0 0 0 0
-29.680958 17.878719 -0.42029676 0 0 0 0 0
40.477737 -52.92289 28.938866 0 0 0 0 0
-27.26499 15.184858 0.60051429 0 0 0 0 0
20.650124 -32.874859 -0.31046149 0 0 0 0 0
25.118412 -37.568523 39.113247 0 0 0 0 0
-31.473709 19.310637 8.0720043 0 0 0 0 0
4.8853798 -17.329151 55.669647 0 0 0 0 0
-13.820137 1.9821658 17.341272 0 0 0 0 0
-12.502184 0.17532921 19.031792 0 0 0 0 0
-31.30043 20.150394 17.638832 0 0 0 0 0
29.878384 -42.211636 30.747507 0 0 0 0 0
22.349115 -34.314823 24.324522 0 0 0 0 0
9.7171106 -20.97023 14.226327 0 0 0 0 0
28.763561 -40.977299 36.629246 0 0 0 0 0
26.293266 -38.698292 30.298502 0 0 0 0 0
1.3828564 -13.905057 12.7084 0 0 0 0 0
-34.275719 22.769156 3.4767368 0 0 0 0 0
40.256783 -51.02079 39.149014 0 0 0 0 0
-7.8857412 -2.9908993 26.476757 0 0 0 0 0
25.432825 -37.326607 40.270519 0 0 0 0 0
26.010921 -38.030621 3.2348044 0 0 0 0 0
-21.952007 10.097466 13.895725 0 0 0 0 0
-25.083359 13.452618 54.005527 0 0 0 0 0
-2.0645771 -10.006914 28.26413 0 0 0 0 0
10.380523 -19.683571 14.261915 0 0 0 0 0
-27.704771 16.088522 -0.28258017 0 0 0 0 0
3.0983052 -15.346096 11.07908 0 0 0 0 0
-37.34499 25.80225 22.204817 0 0 0 0 0
27.545584 -39.493393 29.398003 0 0 0 0 0
45.562828 -56.702995 30.588049 0 0 0 0 0
-30.028332 18.733963 47.871922 0 0 0 0 0
27.176542 -39.520794 36.606731 0 0 0 0 0
23.633863 -35.721436 5.6640644 0 0 0 0 0
-37.331509 25.507076 19.560413 0 0 0 0 0
18.115509 -29.134777 0.59548426 0 0 0 0 0
25.159897 -37.298901 4.4352818 0 0 0 0 0
-32.043594 20.269945 0.82364064 0 0 0 0 0
30.135246 -41.982895 37.436565 0 0 0 0 0
42.307301 -54.677578 37.676773 0 0 0 0 0
39.880459 -51.276302 44.472729 0 0 0 0 0
-31.547985 19.861855 11.167191 0 0 0 0 0
38.381859 -49.752388 27.844967 0 0 0 0 0
-16.013325 4.6052399 15.443682 0 0 0 0 0
15.985914 -27.964472 9.295311 0 0 0 0 0
-32.40509 20.710068 42.074017 0 0 0 0 0
0.45647621 -12.101572 21.916704 0 0 0 0 0
16.80868 -27.823828 1.0900033 0 0 0 0 0
23.640955 -34.657482 44.466923 0 0 0 0 0
-6.5670042 -5.5005274 60.656399 0 0 0 0 0
-28.472242 17.095324 5.9104934 0 0 0 0 0
26.111908 -37.54731 0.56573623 0 0 0 0 0
27.757584 -39.253258 38.357044 0 0 0 0 0
-36.165466 24.87998 12.634697 0 0 0 0 0
21.537521 -32.189552 -0.39609823 0 0 0 0 0
33.251106 -44.763012 38.354439 0 0 0 0 0
15.853521 -27.35808 47.93924 0 0 0 0 0
-17.488512 6.0995178 14.581254 0 0 0 0 0
-10.015469 -1.4072628 21.819963 0 0 0 0 0
37.422142 -47.941643 42.865276 0 0 0 0 0
12.457204 -24.050903 14.600714 0 0 0 0 0
42.507614 -53.048676 43.313866 0 0 0 0 0
10.080482 -21.57551 5.6378517 0 0 0 0 0
43.762909 -55.576744 37.637508 0 0 0 0 0
-36.322052 24.540751 25.865538 0 0 0 0 0
41.857586 -53.177776 39.121399 0 0 0 0 0
-33.293728 21.562284 34.708229 0 0 0 0 0
-4.581152 -7.6693993 30.300535 0 0 0 0 0
-30.138454 19.472393 7.4704256 0 0 0 0 0
-0.2540679 -11.485203 17.578146 0 0 0 0 0
-31.971802 20.198231 15.164787 0 0 0 0 0
-8.9428616 -2.9611859 60.849998 0 0 0 0 0
40.507187 -50.895828 38.528713 0 0 0 0 0
-6.2922201 -5.2935467 29.622751 0 0 0 0 0
-33.011185 22.501909 33.639168 0 0 0 0 0
-14.503796 2.6287413 60.1413 0 0 0 0 0
-11.587893 -0.28150558 60.623901 0 0 0 0 0
12.781326 -24.388271 16.0958 0 0 0 0 0
10.413349 -21.062937 53.699814 0 0 0 0 0
0.10413885 -11.672049 59.340454 0 0 0 0 0
45.696957 -56.596699 35.169365 0 0 0 0 0
13.45577 -24.885206 2.9481113 0 0 0 0 0
41.648647 -51.390614 41.035515 0 0 0 0 0
13.145496 -24.352459 50.827847 0 0 0 0 0
-31.336636 21.030804 1.0288049 0 0 0 0 0
40.89978 -52.259979 38.433781 0 0 0 0 0
-29.746216 19.189707 25.821613 0 0 0 0 0
-17.187054 5.4310751 59.452999 0 0 0 0 0
-7.6788139 -3.8089268 28.636013 0 0 0 0 0
-32.347561 20.484489 25.734285 0 0 0 0 0
26.210899 -37.814224 27.788294 0 0 0 0 0
24.718285 -35.355389 5.8997464 0 0 0 0 0
21.78606 -32.063713 6.5912046 0 0 0 0 0
-36.726959 25.539053 25.235771 0 0 0 0 0
24.790945 -36.218735 42.559441 0 0 0 0 0
0.47525454 -11.884455 15.415053 0 0 0 0 0
-30.085934 19.186176 17.447998 0 0 0 0 0
26.72578 -37.650421 3.5547113 0 0 0 0 0
-19.415714 8.6023149 58.914036 0 0 0 0 0
25.03804 -36.26329 -0.40055504 0 0 0 0 0
-0.2799983 -10.385372 25.922228 0 0 0 0 0
-6.5945997 -4.7177868 29.812803 0 0 0 0 0
-37.123779 26.013519 19.102873 0 0 0 0 0
34.399338 -45.261677 27.81785 0 0 0 0 0
1.2423959 -12.747663 13.7349 0 0 0 0 0
-22.013088 10.4562 56.873619 0 0 0 0 0
-31.512928 20.610626 17.190273 0 0 0 0 0
-26.601345 15.5965 2.2536259 0 0 0 0 0
10.56783 -20.519806 15.453697 0 0 0 0 0
44.938213 -55.155262 27.862722 0 0 0 0 0
0.71524334 -11.298874 22.66118 0 0 0 0 0
2.2728629 -13.627178 12.4921 0 0 0 0 0
20.957787 -31.650379 46.370396 0 0 0 0 0
18.820278 -30.869705 0.23146771 0 0 0 0 0
35.708084 -45.669868 40.972618 0 0 0 0 0
21.194782 -30.721397 -0.07453832 0 0 0 0 0
27.820667 -38.887875 27.752241 0 0 0 0 0
-32.788727 22.159004 39.696869 0 0 0 0 0
-31.013729 20.48975 28.607141 0 0 0 0 0
-27.028385 15.895542 3.6991234 0 0 0 0 0
17.734703 -28.558945 8.5234928 0 0 0 0 0
20.639647 -31.315008 7.0276413 0 0 0 0 0
41.813858 -52.784988 27.480978 0 0 0 0 0
11.532361 -20.748997 15.553132 0 0 0 0 0
3.7395592 -14.86861 11.255937 0 0 0 0 0
25.831034 -36.576233 25.735113 0 0 0 0 0
-34.826874 24.742266 8.3167458 0 0 0 0 0
34.014618 -44.816582 39.240677 0 0 0 0 0
-23.367771 12.639023 14.538327 0 0 0 0 0
-31.290096 20.952095 16.044147 0 0 0 0 0
15.401208 -25.950123 17.155533 0 0 0 0 0
-32.479507 21.851423 2.0901465 0 0 0 0 0
18.208235 -28.867125 47.459438 0 0 0 0 0
-35.614418 24.688686 25.63147 0 0 0 0 0
0.077805042 -11.079849 18.772177 0 0 0 0 0
13.036248 -22.038422 14.939156 0 0 0 0 0
27.455275 -37.539043 2.3115253 0 0 0 0 0
30.614151 -41.198708 39.003418 0 0 0 0 0
-27.230848 16.773783 -0.088793807 0 0 0 0 0
-26.626083 15.786053 1.1107053 0 0 0 0 0
16.442272 -27.393566 9.4519444 0 0 0 0 0
5.9006219 -16.927197 56.805599 0 0 0 0 0
-31.951912 21.769814 44.462502 0 0 0 0 0
42.480927 -52.338104 45.477325 0 0 0 0 0
-34.296471 24.303764 5.3541503 0 0 0 0 0
5.950439 -17.365427 9.6110382 0 0 0 0 0
-28.16708 17.160561 50.736443 0 0 0 0 0
45.668713 -56.448544 47.613796 0 0 0 0 0
-37.022984 26.377216 21.805655 0 0 0 0 0
28.981186 -39.603584 39.191319 0 0 0 0 0
20.614365 -30.699043 19.664488 0 0 0 0 0
26.077579 -36.666756 4.8425002 0 0 0 0 0
-3.5226798 -6.9365144 61.374516 0 0 0 0 0
3.2608728 -13.555543 59.114376 0 0 0 0 0
-11.252924 1.0575995 19.592688 0 0 0 0 0
27.525412 -37.01133 0.88452858 0 0 0 0 0
-31.547649 20.232096 45.013405 0 0 0 0 0
40.728012 -50.464798 26.036173 0 0 0 0 0
-0.018012285 -8.7069016 25.07962 0 0 0 0 0
-18.708668 8.4101067 14.209992 0 0 0 0 0
-30.695675 21.06916 14.613844 0 0 0 0 0
-6.5989971 -3.4754729 27.913122 0 0 0 0 0
-30.529968 20.182278 25.696665 0 0 0 0 0
28.396687 -38.447758 40.399769 0 0 0 0 0
30.711277 -41.123287 27.61326 0 0 0 0 0
-31.49519 21.218578 25.365963 0 0 0 0 0
-3.0574689 -8.4352331 28.923727 0 0 0 0 0
38.841461 -48.606491 43.862156 0 0 0 0 0
47.996674 -57.27314 33.877113 0 0 0 0 0
-31.17403 23.831841 2.7038169 0 0 0 0 0
14.083629 -23.436703 15.5531 0 0 0 0 0
-29.527725 20.600962 8.2826681 0 0 0 0 0
0.58612013 -10.646618 23.778419 0 0 0 0 0
-20.078138 9.8794231 14.069124 0 0 0 0 0
-3.6935148 -6.3410645 28.031998 0 0 0 0 0
-26.845032 17.065697 5.4943733 0 0 0 0 0
-25.807156 15.901421 2.4282994 0 0 0 0 0
1.5661612 -11.923067 14.872127 0 0 0 0 0
-26.936935 16.05864 16.090752 0 0 0 0 0
-14.708042 4.6621103 16.155918 0 0 0 0 0
1.3389778 -11.355145 60.180676 0 0 0 0 0
-28.409237 18.206802 -0.34700158 0 0 0 0 0
-5.9036818 -4.6123729 61.698299 0 0 0 0 0
-21.453484 11.512927 14.276184 0 0 0 0 0
42.310177 -52.278049 42.225883 0 0 0 0 0
18.504471 -27.92992 17.688009 0 0 0 0 0
-32.79364 23.222605 37.885422 0 0 0 0 0
-30.320156 20.850124 11.651107 0 0 0 0 0
25.138334 -35.101494 5.8203311 0 0 0 0 0
2.633368 -13.037075 13.106091 0 0 0 0 0
41.183899 -51.16375 39.9645 0 0 0 0 0
27.528368 -37.514042 41.360676 0 0 0 0 0
46.965649 -56.14777 28.166851 0 0 0 0 0
24.969601 -35.205666 24.069784 0 0 0 0 0
-32.471504 23.470858 32.953545 0 0 0 0 0
-7.4621964 -1.9617877 25.071348 0 0 0 0 0
25.968176 -35.706089 43.956783 0 0 0 0 0
42.985722 -53.326694 39.602005 0 0 0 0 0
26.512962 -35.818779 -0.46450105 0 0 0 0 0
44.342152 -54.755672 39.399708 0 0 0 0 0
-27.408558 17.895504 6.2465615 0 0 0 0 0
-35.501087 25.573757 12.827399 0 0 0 0 0
38.787296 -48.82394 26.406103 0 0 0 0 0
1.0477967 -11.283936 21.203991 0 0 0 0 0
-36.369495 26.407246 24.382023 0 0 0 0 0
-8.3634796 -1.9100089 61.879902 0 0 0 0 0
4.5566978 -14.849384 11.452203 0 0 0 0 0
-36.55444 26.603926 19.203712 0 0 0 0 0
14.576096 -24.47467 3.3050797 0 0 0 0 0
-32.49379 23.021338 42.26643 0 0 0 0 0
-4.8208599 -3.6272926 27.907894 0 0 0 0 0
-11.098334 0.9158802 61.6465 0 0 0 0 0
10.189862 -18.937927 14.616539 0 0 0 0 0
10.570539 -20.556452 6.6656513 0 0 0 0 0
-14.033316 3.8643098 61.117199 0 0 0 0 0
6.5539775 -16.392218 10.63472 0 0 0 0 0
-16.835155 6.6800098 60.297401 0 0 0 0 0
-21.212458 11.108591 58.036098 0 0 0 0 0
-25.462173 16.371281 1.0984828 0 0 0 0 0
0.716712 -10.790202 18.3918 0 0 0 0 0
13.138151 -23.203409 14.502627 0 0 0 0 0
28.002176 -37.746231 25.880438 0 0 0 0 0
-23.760372 13.728718 56.054241 0 0 0 0 0
-28.553528 19.594597 17.689281 0 0 0 0 0
-4.8735604 -4.5952258 27.676529 0 0 0 0 0
-30.040195 21.012857 17.838064 0 0 0 0 0
24.94273 -34.545906 45.077461 0 0 0 0 0
34.196766 -43.866383 26.590694 0 0 0 0 0
-26.040096 16.441753 4.073884 0 0 0 0 0
-12.792309 3.4903359 17.781584 0 0 0 0 0
17.63361 -27.07423 49.185951 0 0 0 0 0
34.014908 -43.376236 40.149944 0 0 0 0 0
44.955029 -53.179691 45.782104 0 0 0 0 0
23.103458 -32.560429 -0.68508005 0 0 0 0 0
31.192104 -40.199062 40.346088 0 0 0 0 0
26.41457 -35.572239 4.9341936 0 0 0 0 0
-26.912527 17.156549 52.917988 0 0 0 0 0
-16.81251 6.8682218 14.89581 0 0 0 0 0
42.698364 -51.891548 25.813271 0 0 0 0 0
45.88871 -53.612579 44.602573 0 0 0 0 0
23.123425 -32.207279 20.631693 0 0 0 0 0
15.030862 -23.910248 52.258194 0 0 0 0 0
-28.670488 20.556131 24.917217 0 0 0 0 0
-28.958891 19.005713 -0.10841507 0 0 0 0 0
42.226891 -51.307945 39.016361 0 0 0 0 0
-30.591675 21.879065 16.874994 0 0 0 0 0
-34.817272 25.274815 24.787264 0 0 0 0 0
18.480635 -27.274019 8.0408783 0 0 0 0 0
43.849648 -53.109886 40.263474 0 0 0 0 0
25.544939 -34.387432 -0.39075774 0 0 0 0 0
7.964601 -17.6446 56.839584 0 0 0 0 0
-3.5223069 -3.5065589 26.60268 0 0 0 0 0
-7.8493443 -1.1639404 23.909311 0 0 0 0 0
-35.914913 26.812267 22.317379 0 0 0 0 0
6.1096821 -15.067333 58.798077 0 0 0 0 0
27.54195 -36.421246 3.4203737 0 0 0 0 0
-29.775593 21.032557 0.64856672 0 0 0 0 0
-29.331881 19.68926 49.791145 0 0 0 0 0
1.6194048 -10.826773 17.536125 0 0 0 0 0
-28.707869 19.333944 7.1877427 0 0 0 0 0
3.1133547 -12.667419 13.934623 0 0 0 0 0
-33.742565 24.102549 4.2819209 0 0 0 0 0
45.769127 -55.24794 39.411022 0 0 0 0 0
10.856277 -18.735872 14.995686 0 0 0 0 0
27.870123 -36.653297 2.2096477 0 0 0 0 0
-31.827652 23.096193 31.458281 0 0 0 0 0
41.550011 -50.322533 44.813236 0 0 0 0 0
4.6607637 -14.208583 12.395899 0 0 0 0 0
-30.390694 21.936306 48.380421 0 0 0 0 0
37.5005 -46.283817 25.37019 0 0 0 0 0
45.38974 -53.00119 44.103203 0 0 0 0 0
23.625816 -33.483334 -0.61365706 0 0 0 0 0
-23.137207 13.818385 15.081347 0 0 0 0 0
12.792864 -19.857338 14.360841 0 0 0 0 0
9.6590385 -18.742321 8.7170572 0 0 0 0 0
15.912258 -24.71767 16.139343 0 0 0 0 0
30.478043 -38.999046 25.38484 0 0 0 0 0
-27.776356 20.061138 0.077194721 0 0 0 0 0
47.895874 -54.487297 43.727661 0 0 0 0 0
44.780689 -53.270962 25.917995 0 0 0 0 0
47.545784 -54.659309 45.041302 0 0 0 0 0
-31.317913 22.381699 1.9006851 0 0 0 0 0
-28.646103 20.227741 25.812645 0 0 0 0 0
23.256098 -31.523706 47.14341 0 0 0 0 0
20.895914 -29.4349 6.7844377 0 0 0 0 0
20.527706 -28.612965 48.473057 0 0 0 0 0
26.047359 -35.12244 23.556089 0 0 0 0 0
28.520901 -36.985073 42.482586 0 0 0 0 0
-26.929483 18.665598 -0.68347222 0 0 0 0 0
-6.2654657 -2.4348519 26.6416 0 0 0 0 0
-30.300674 22.467525 28.770748 0 0 0 0 0
1.7129335 -10.831773 20.415701 0 0 0 0 0
-30.697884 21.682827 24.635761 0 0 0 0 0
17.133007 -26.614265 9.2183676 0 0 0 0 0
-35.259209 26.421944 23.516088 0 0 0 0 0
29.969032 -38.193565 41.549366 0 0 0 0 0
-32.565891 24.25 37.075848 0 0 0 0 0
-26.137051 17.147137 -0.20870791 0 0 0 0 0
-35.202122 26.763636 19.2785 0 0 0 0 0
12.611631 -20.692463 15.266818 0 0 0 0 0
-8.7939854 0.76270103 22.210175 0 0 0 0 0
44.760216 -52.413033 42.484158 0 0 0 0 0
19.225054 -27.241365 49.344372 0 0 0 0 0
35.636089 -43.481449 24.971117 0 0 0 0 0
42.514801 -51.087334 40.073444 0 0 0 0 0
27.597836 -36.232651 0.76843929 0 0 0 0 0
17.999939 -26.642212 2.0553503 0 0 0 0 0
-32.633545 24.394659 39.80508 0 0 0 0 0
-25.548878 17.415909 4.1598234 0 0 0 0 0
-34.158028 25.612869 11.073848 0 0 0 0 0
-34.86277 26.172504 15.52415 0 0 0 0 0
-4.8494225 -3.6265888 62.730328 0 0 0 0 0
47.884907 -56.940746 30.007761 0 0 0 0 0
25.105587 -33.406277 5.1859899 0 0 0 0 0
41.109131 -48.348541 44.742115 0 0 0 0 0
-26.441868 17.891655 5.4510279 0 0 0 0 0
1.5354471 -10.111346 21.913046 0 0 0 0 0
-18.096819 9.2743931 14.818538 0 0 0 0 0
-19.678141 11.377359 15.005778 0 0 0 0 0
29.205112 -37.370083 24.578646 0 0 0 0 0
44.411888 -52.20121 41.774612 0 0 0 0 0
-26.931049 19.126953 17.618662 0 0 0 0 0
2.1985798 -9.9997225 61.450268 0 0 0 0 0
-15.641758 7.0633364 15.710472 0 0 0 0 0
-0.2782836 -7.43574 25.474585 0 0 0 0 0
-21.825708 13.618364 15.378857 0 0 0 0 0
20.256647 -29.798193 0.57088727 0 0 0 0 0
6.7632451 -15.283756 12.487059 0 0 0 0 0
4.4566698 -13.172685 14.068318 0 0 0 0 0
23.955359 -30.897936 -0.2801891 0 0 0 0 0
25.702179 -33.688297 45.923634 0 0 0 0 0
42.935223 -51.070827 41.182583 0 0 0 0 0
-33.80801 25.39963 23.686954 0 0 0 0 0
-30.143848 21.99873 1.0087141 0 0 0 0 0
-25.012144 17.143839 2.4028535 0 0 0 0 0
40.43969 -47.726761 24.199791 0 0 0 0 0
-25.057037 17.266796 1.1273127 0 0 0 0 0
-25.20652 16.648109 55.060013 0 0 0 0 0
2.388216 -10.150613 20.68918 0 0 0 0 0
-21.638584 13.053571 58.12677 0 0 0 0 0
21.093567 -28.628254 17.533369 0 0 0 0 0
-32.676235 24.833239 4.5825195 0 0 0 0 0
3.3656821 -11.799297 15.77623 0 0 0 0 0
15.145632 -23.528776 4.419054 0 0 0 0 0
49.370739 -57.134594 32.790985 0 0 0 0 0
27.435997 -34.903297 45.035652 0 0 0 0 0
27.199492 -35.248035 0.90058184 0 0 0 0 0
-29.968464 22.589977 15.060922 0 0 0 0 0
-10.640015 2.847693 19.82402 0 0 0 0 0
-18.887716 10.446371 59.854401 0 0 0 0 0
-30.418018 22.292208 23.788912 0 0 0 0 0
-28.190519 19.735384 51.687698 0 0 0 0 0
-7.5905056 -0.81739426 62.7719 0 0 0 0 0
46.698513 -56.302845 37.069141 0 0 0 0 0
14.615168 -21.939268 15.009855 0 0 0 0 0
-27.745859 20.603659 25.19158 0 0 0 0 0
-16.383923 8.0390253 61.0131 0 0 0 0 0
49.663021 -56.964191 35.547565 0 0 0 0 0
45.615562 -53.29464 41.759548 0 0 0 0 0
36.294834 -44.401501 41.87289 0 0 0 0 0
-3.1424904 -4.2713223 26.458868 0 0 0 0 0
19.949316 -27.442354 2.0011466 0 0 0 0 0
-13.471151 5.202877 61.922298 0 0 0 0 0
-25.643625 17.875284 -0.027900949 0 0 0 0 0
-10.467369 2.2109609 62.520199 0 0 0 0 0
-6.3519268 -0.73831367 24.805105 0 0 0 0 0
-13.348291 5.8864875 17.321402 0 0 0 0 0
-33.08918 26.091911 20.764139 0 0 0 0 0
-27.270479 19.654013 6.2170873 0 0 0 0 0
47.104908 -55.74831 38.480774 0 0 0 0 0
-32.281544 25.287178 5.3577271 0 0 0 0 0
24.015337 -32.537952 5.7392879 0 0 0 0 0
34.610092 -42.237823 41.203243 0 0 0 0 0
30.313034 -36.230591 43.547371 0 0 0 0 0
11.006747 -18.583809 56.700134 0 0 0 0 0
2.5561376 -10.719677 19.79958 0 0 0 0 0
-1.8853006 -5.5812988 62.852299 0 0 0 0 0
17.390924 -25.499586 8.9709949 0 0 0 0 0
-32.153526 26.623013 43.944786 0 0 0 0 0
50.145702 -56.450642 30.436462 0 0 0 0 0
9.2450657 -16.749758 58.098091 0 0 0 0 0
27.56216 -35.334896 2.7280097 0 0 0 0 0
27.382795 -34.404949 22.288401 0 0 0 0 0
-4.8515501 -2.8595273 27.394171 0 0 0 0 0
49.466049 -56.739151 32.549583 0 0 0 0 0
-33.016987 25.360634 8.0295897 0 0 0 0 0
-29.454681 22.471073 12.120478 0 0 0 0 0
25.881521 -33.195114 21.408253 0 0 0 0 0
12.180828 -19.432447 15.231234 0 0 0 0 0
44.241081 -51.163033 45.054863 0 0 0 0 0
13.237423 -21.214111 14.823428 0 0 0 0 0
-1.7658782 -7.1676011 26.956947 0 0 0 0 0
48.029652 -54.541225 25.555649 0 0 0 0 0
-30.131096 21.996363 17.937757 0 0 0 0 0
3.2154222 -11.16021 16.8876 0 0 0 0 0
-8.95047 2.4882507 21.703941 0 0 0 0 0
49.148819 -55.553932 26.391649 0 0 0 0 0
37.836414 -44.855 24.182369 0 0 0 0 0
5.4179578 -12.516485 60.632977 0 0 0 0 0
38.866066 -46.509918 43.976177 0 0 0 0 0
16.90089 -24.40884 3.9900477 0 0 0 0 0
-31.337662 23.743374 46.410152 0 0 0 0 0
1.4202893 -8.6482477 22.769112 0 0 0 0 0
-17.005898 9.2015762 15.573854 0 0 0 0 0
31.630611 -39.580425 25.067806 0 0 0 0 0
26.03034 -33.181599 -0.57135642 0 0 0 0 0
50.861282 -57.127899 33.87978 0 0 0 0 0
22.052139 -29.68119 6.0169983 0 0 0 0 0
-26.354193 19.136637 4.9016762 0 0 0 0 0
25.837389 -32.538605 4.9646568 0 0 0 0 0
-29.388023 23.057163 19.087234 0 0 0 0 0
47.2673 -53.751743 41.822922 0 0 0 0 0
-33.620823 26.019184 15.921771 0 0 0 0 0
6.6794248 -13.733397 15.424629 0 0 0 0 0
-28.931614 21.652596 0.75035673 0 0 0 0 0
9.9376965 -17.093191 11.680488 0 0 0 0 0
21.751661 -28.680387 1.4026237 0 0 0 0 0
31.656689 -38.167347 42.279812 0 0 0 0 0
-32.18298 25.335844 36.470478 0 0 0 0 0
19.845055 -25.449306 15.64104 0 0 0 0 0
46.334099 -52.573265 44.930653 0 0 0 0 0
-28.264023 21.143204 23.638962 0 0 0 0 0
28.103075 -35.028 2.1623962 0 0 0 0 0
-32.451797 26.046406 42.020531 0 0 0 0 0
-14.826233 7.4683466 16.452347 0 0 0 0 0
-26.00786 18.942152 0.50766385 0 0 0 0 0
4.9155211 -12.296492 16.003983 0 0 0 0 0
-32.082748 25.387192 21.338512 0 0 0 0 0
20.191902 -27.185272 6.1981049 0 0 0 0 0
-31.504131 24.834204 32.362122 0 0 0 0 0
-30.227695 23.319958 16.839142 0 0 0 0 0
18.413628 -25.744236 7.5591583 0 0 0 0 0
46.261871 -53.074669 42.843018 0 0 0 0 0
-28.401274 21.744043 7.6662178 0 0 0 0 0
23.093075 -30.568684 18.953825 0 0 0 0 0
12.70624 -19.623451 8.9539423 0 0 0 0 0
2.6587958 -8.6196136 21.31731 0 0 0 0 0
-29.319715 22.495398 22.116262 0 0 0 0 0
33.950531 -40.318577 41.781628 0 0 0 0 0
27.654057 -34.340984 0.461018 0 0 0 0 0
48.982975 -55.269817 38.902832 0 0 0 0 0
-30.079258 23.200916 18.476948 0 0 0 0 0
-7.4192047 0.81957865 23.310772 0 0 0 0 0
26.762297 -33.703964 4.2585163 0 0 0 0 0
49.71669 -56.304161 31.125711 0 0 0 0 0
16.130709 -23.349081 10.384186 0 0 0 0 0
-18.886436 12.288123 16.429024 0 0 0 0 0
-27.399544 20.532963 24.593376 0 0 0 0 0
17.081755 -23.492193 53.080631 0 0 0 0 0
-31.989925 25.280344 9.7204332 0 0 0 0 0
51.685539 -55.847923 28.848137 0 0 0 0 0
3.6101384 -10.769213 19.065546 0 0 0 0 0
-25.149363 18.354712 2.0152366 0 0 0 0 0
12.91403 -19.928286 15.181116 0 0 0 0 0
17.506275 -24.24876 4.723639 0 0 0 0 0
-4.7665329 -0.60403872 25.601612 0 0 0 0 0
-26.277617 19.250017 54.016125 0 0 0 0 0
46.756279 -52.29705 24.006723 0 0 0 0 0
-22.993879 15.9648 57.199745 0 0 0 0 0
-17.367567 10.404863 16.073759 0 0 0 0 0
-4.7190771 -1.7643671 26.534559 0 0 0 0 0
-22.807262 16.251572 17.482363 0 0 0 0 0
27.171139 -33.507351 46.000366 0 0 0 0 0
21.09824 -27.256939 16.50272 0 0 0 0 0
0.91083193 -7.1564965 23.799978 0 0 0 0 0
22.614504 -29.389902 1.3195239 0 0 0 0 0
-29.141212 23.233562 1.5667439 0 0 0 0 0
-27.036001 20.787992 22.754122 0 0 0 0 0
-29.081125 22.144152 50.495125 0 0 0 0 0
40.380268 -45.571575 44.700222 0 0 0 0 0
35.176636 -41.170563 41.968399 0 0 0 0 0
-1.9142523 -4.3141527 25.948889 0 0 0 0 0
23.625397 -30.378349 5.1582608 0 0 0 0 0
48.926296 -55.332516 32.109245 0 0 0 0 0
21.502998 -27.586075 2.8768764 0 0 0 0 0
49.058159 -55.422089 32.998535 0 0 0 0 0
19.365303 -25.823383 3.8732407 0 0 0 0 0
4.2075753 -9.8001518 19.545425 0 0 0 0 0
30.074928 -36.285213 23.152441 0 0 0 0 0
50.288727 -56.14328 28.3465 0 0 0 0 0
16.121025 -22.310787 15.135324 0 0 0 0 0
-32.075466 25.385857 16.553156 0 0 0 0 0
4.8497019 -11.685463 16.6014 0 0 0 0 0
12.889547 -20.026464 55.572102 0 0 0 0 0
-20.111938 14.163644 59.394814 0 0 0 0 0
18.20998 -24.913342 7.1893792 0 0 0 0 0
43.110577 -50.566235 24.545696 0 0 0 0 0
47.512844 -53.719616 43.027081 0 0 0 0 0
28.269342 -34.152821 1.4926461 0 0 0 0 0
-0.66817331 -5.2250466 25.623354 0 0 0 0 0
-27.194597 22.10227 0.55914849 0 0 0 0 0
-26.117483 20.003672 5.5099778 0 0 0 0 0
48.238548 -53.656876 24.495993 0 0 0 0 0
50.973843 -56.716908 35.774269 0 0 0 0 0
15.839843 -20.111971 14.841688 0 0 0 0 0
13.797406 -20.100136 9.4343176 0 0 0 0 0
50.633648 -56.54681 32.970531 0 0 0 0 0
-18.102566 12.245116 60.608639 0 0 0 0 0
25.410824 -31.085102 47.418018 0 0 0 0 0
-30.393787 24.525654 48.228245 0 0 0 0 0
-30.383255 23.76535 17.111839 0 0 0 0 0
-25.684669 19.05965 18.226757 0 0 0 0 0
23.486748 -29.782845 4.4218078 0 0 0 0 0
43.675056 -49.317032 45.033363 0 0 0 0 0
-15.227695 8.8663445 16.73632 0 0 0 0 0
8.6017151 -14.601437 15.476004 0 0 0 0 0
14.733126 -21.19964 11.734385 0 0 0 0 0
-30.907372 24.789265 10.59935 0 0 0 0 0
-28.874779 22.881435 27.529406 0 0 0 0 0
-25.199862 19.344252 3.795583 0 0 0 0 0
18.997944 -25.3885 5.6680279 0 0 0 0 0
-15.519308 9.9644318 61.849377 0 0 0 0 0
22.15106 -27.694883 49.309845 0 0 0 0 0
40.697769 -46.469582 23.37377 0 0 0 0 0
0.31180286 -5.858077 25.065561 0 0 0 0 0
27.907141 -34.024033 2.8505702 0 0 0 0 0
-26.172409 20.399452 24.065866 0 0 0 0 0
-29.39291 23.226994 10.677378 0 0 0 0 0
-30.856995 24.461508 17.103521 0 0 0 0 0
22.596334 -28.601221 1.8435355 0 0 0 0 0
6.6422744 -12.963039 16.610718 0 0 0 0 0
-32.397697 25.982639 39.084301 0 0 0 0 0
-10.996787 4.5921354 19.5646 0 0 0 0 0
26.32419 -31.745775 -0.0060389498 0 0 0 0 0
-6.279459 -0.10139179 63.578098 0 0 0 0 0
26.231718 -31.921991 4.1194906 0 0 0 0 0
-28.375065 22.690384 7.4335027 0 0 0 0 0
48.276016 -53.631729 42.107456 0 0 0 0 0
-30.474243 24.361544 19.822727 0 0 0 0 0
8.9354591 -14.27976 60.044415 0 0 0 0 0
-25.255486 19.151749 0.73902571 0 0 0 0 0
13.070992 -19.351887 14.387467 0 0 0 0 0
-12.46789 7.083631 62.85437 0 0 0 0 0
17.585144 -23.919876 5.9629889 0 0 0 0 0
15.575691 -21.80143 9.4682751 0 0 0 0 0
14.682804 -20.834377 9.4982252 0 0 0 0 0
-2.2486429 -1.9126372 26.215357 0 0 0 0 0
27.602985 -33.265205 0.24426149 0 0 0 0 0
10.781137 -16.825979 14.694571 0 0 0 0 0
-29.989902 23.99596 11.29412 0 0 0 0 0
-9.379612 4.1100121 63.54792 0 0 0 0 0
-28.346523 22.279484 20.747524 0 0 0 0 0
48.985954 -53.605042 41.303543 0 0 0 0 0
48.895615 -53.330597 42.629223 0 0 0 0 0
12.3349 -18.565619 14.8927 0 0 0 0 0
50.565178 -55.764206 26.148806 0 0 0 0 0
3.6350021 -9.077013 20.202759 0 0 0 0 0
36.045494 -41.703445 23.802681 0 0 0 0 0
20.947172 -25.853701 50.675995 0 0 0 0 0
37.83461 -42.895943 43.239822 0 0 0 0 0
22.925587 -28.643749 2.4453897 0 0 0 0 0
49.590824 -55.164913 31.0403 0 0 0 0 0
31.58136 -37.428398 23.499666 0 0 0 0 0
6.068615 -11.112759 17.731846 0 0 0 0 0
4.2386699 -9.5436821 62.184967 0 0 0 0 0
33.719429 -38.739174 42.622955 0 0 0 0 0
49.612595 -55.304832 33.432785 0 0 0 0 0
23.107479 -28.777504 17.472488 0 0 0 0 0
23.46789 -29.592585 1.7298048 0 0 0 0 0
1.7686338 -6.9477949 63.031788 0 0 0 0 0
-25.774012 20.399035 5.2471981 0 0 0 0 0
13.057325 -18.854097 13.499948 0 0 0 0 0
-25.636923 20.345224 0.18594988 0 0 0 0 0
-30.744373 25.205101 5.1583657 0 0 0 0 0
-26.723089 20.768953 19.544893 0 0 0 0 0
27.186819 -32.828613 3.5886736 0 0 0 0 0
-26.326818 20.593931 21.304306 0 0 0 0 0
-31.802811 26.327702 36.270569 0 0 0 0 0
-19.019634 13.492363 17.673878 0 0 0 0 0
-2.8439698 -1.4174918 26.417324 0 0 0 0 0
-3.397511 -2.5347657 63.730801 0 0 0 0 0
10.410252 -16.226421 14.154473 0 0 0 0 0
23.716404 -29.604366 2.5812969 0 0 0 0 0
-9.6775837 4.4766388 21.089655 0 0 0 0 0
-0.60751462 -4.4237347 63.731113 0 0 0 0 0
26.484196 -31.183647 19.676352 0 0 0 0 0
-29.809711 24.19063 3.1905837 0 0 0 0 0
-24.089649 18.612095 20.200937 0 0 0 0 0
-24.712381 18.932562 1.6420698 0 0 0 0 0
-26.175537 20.936237 24.716026 0 0 0 0 0
-13.803131 7.9625096 17.58 0 0 0 0 0
-29.789978 24.261702 8.7947779 0 0 0 0 0
50.347038 -54.975121 23.896955 0 0 0 0 0
12.520082 -17.654736 14.528573 0 0 0 0 0
38.174614 -43.04084 23.199732 0 0 0 0 0
12.098542 -17.613976 13.480978 0 0 0 0 0
-24.690418 19.509579 1.2174269 0 0 0 0 0
-15.995481 10.546531 17.200632 0 0 0 0 0
26.374826 -31.562555 2.2190189 0 0 0 0 0
8.2711735 -13.641211 16.418783 0 0 0 0 0
6.4509802 -12.091292 17.01 0 0 0 0 0
-27.442314 21.276627 0.11593822 0 0 0 0 0
-28.555246 23.415449 6.9553642 0 0 0 0 0
48.656944 -52.93251 43.270405 0 0 0 0 0
39.093632 -42.047176 43.950172 0 0 0 0 0
43.489834 -48.29726 23.238955 0 0 0 0 0
-30.161674 25.799076 31.554947 0 0 0 0 0
-28.318672 23.392223 1.8606902 0 0 0 0 0
-24.711199 19.497107 22.277391 0 0 0 0 0
27.736824 -32.923241 1.3436439 0 0 0 0 0
-22.198195 17.330614 20.579155 0 0 0 0 0
-25.784815 20.427248 54.356308 0 0 0 0 0
-32.66864 27.777679 42.081074 0 0 0 0 0
10.071315 -15.037976 15.290623 0 0 0 0 0
-1.7253218 -2.5359788 25.352346 0 0 0 0 0
-32.57877 27.411673 40.555016 0 0 0 0 0
13.625772 -18.089989 57.507046 0 0 0 0 0
-29.321594 24.481312 6.2958593 0 0 0 0 0
53.094463 -55.909924 32.812397 0 0 0 0 0
-22.616541 17.266199 57.452133 0 0 0 0 0
46.226002 -49.987347 22.977898 0 0 0 0 0
-28.563372 23.907625 50.777485 0 0 0 0 0
50.700325 -54.70266 33.650627 0 0 0 0 0
52.293701 -55.807297 23.70159 0 0 0 0 0
-12.049532 7.2956791 19.206209 0 0 0 0 0
46.642899 -51.538734 44.549255 0 0 0 0 0
33.281532 -39.258644 23.873062 0 0 0 0 0
7.6496205 -12.567249 17.101324 0 0 0 0 0
-25.896816 22.512665 25.495005 0 0 0 0 0
49.980442 -55.011349 30.773705 0 0 0 0 0
53.267479 -56.232643 34.761299 0 0 0 0 0
30.465641 -33.757648 45.184341 0 0 0 0 0
32.044243 -36.227638 43.754105 0 0 0 0 0
11.031195 -16.249037 14.7871 0 0 0 0 0
52.505825 -55.856861 27.731955 0 0 0 0 0
-32.283283 27.181757 38.503399 0 0 0 0 0
18.892284 -22.768097 14.889667 0 0 0 0 0
-27.409391 22.801104 26.45578 0 0 0 0 0
-24.256485 19.545757 23.374184 0 0 0 0 0
-25.809757 21.349297 0.50405097 0 0 0 0 0
2.3976424 -6.7450294 22.254948 0 0 0 0 0
43.587086 -47.674427 45.243866 0 0 0 0 0
-24.891735 20.325657 2.9603772 0 0 0 0 0
51.624554 -55.159763 37.900604 0 0 0 0 0
-15.981335 11.763393 18.241272 0 0 0 0 0
-10.241295 5.8680034 20.896914 0 0 0 0 0
-7.3902807 2.9468277 22.71726 0 0 0 0 0
12.103062 -16.055052 59.080276 0 0 0 0 0
6.1265745 -10.170464 18.526085 0 0 0 0 0
-25.606947 21.133371 4.2094989 0 0 0 0 0
-3.2495012 0.63099217 25.765244 0 0 0 0 0
-31.267181 26.960562 35.491516 0 0 0 0 0
9.0761251 -13.22461 16.308212 0 0 0 0 0
28.280869 -32.38438 20.636866 0 0 0 0 0
-13.352262 9.8332863 19.220413 0 0 0 0 0
-32.708733 28.132627 43.113277 0 0 0 0 0
1.3108218 -5.2185526 24.377678 0 0 0 0 0
49.387241 -53.076427 23.845947 0 0 0 0 0
-3.0619454 -0.47085047 26.159353 0 0 0 0 0
-20.11902 15.780294 20.14756 0 0 0 0 0
-26.641886 22.470808 1.2048659 0 0 0 0 0
36.620136 -39.369785 43.239723 0 0 0 0 0
42.05571 -45.092041 22.361021 0 0 0 0 0
-28.992004 24.280891 4.3253431 0 0 0 0 0
45.975159 -49.471001 44.879906 0 0 0 0 0
50.340759 -54.821503 30.604975 0 0 0 0 0
-33.266697 28.708973 40.390636 0 0 0 0 0
-31.743065 27.5812 45.131531 0 0 0 0 0
10.017393 -14.421347 15.39117 0 0 0 0 0
-27.453907 23.154999 3.8165712 0 0 0 0 0
3.7815654 -7.484004 20.8027 0 0 0 0 0
-32.878887 28.663334 39.143982 0 0 0 0 0
7.3935118 -11.838191 61.376598 0 0 0 0 0
22.88357 -26.685205 16.183168 0 0 0 0 0
34.440079 -37.931873 22.828299 0 0 0 0 0
1.9950252 -5.3200283 23.318523 0 0 0 0 0
-34.767059 30.462748 41.619564 0 0 0 0 0
17.882128 -22.329336 54.046459 0 0 0 0 0
-22.191685 18.201481 22.564856 0 0 0 0 0
31.735685 -35.396271 22.233616 0 0 0 0 0
31.17638 -34.603676 44.655003 0 0 0 0 0
-5.5371284 2.0733953 64.409676 0 0 0 0 0
-2.513555 -0.82944107 64.497955 0 0 0 0 0
-16.553894 13.42184 19.679689 0 0 0 0 0
7.7999153 -10.844841 17.6542 0 0 0 0 0
53.124973 -56.321484 24.3442 0 0 0 0 0
52.45084 -55.935986 36.186836 0 0 0 0 0
-23.123388 19.649771 23.6063 0 0 0 0 0
-24.99316 20.800987 1.5186669 0 0 0 0 0
28.19952 -31.743572 46.697552 0 0 0 0 0
-27.427837 23.708515 27.115105 0 0 0 0 0
50.018692 -53.678673 23.197613 0 0 0 0 0
-36.600605 32.87714 39.272915 0 0 0 0 0
0.63544595 -4.1826096 24.943888 0 0 0 0 0
-32.554214 28.970285 44.287811 0 0 0 0 0
50.668312 -54.578773 30.512201 0 0 0 0 0
53.904888 -55.95277 33.703053 0 0 0 0 0
-0.59699631 -2.8896065 25.238337 0 0 0 0 0
52.023605 -55.388916 30.007969 0 0 0 0 0
-31.954243 28.155798 37.499393 0 0 0 0 0
4.8956723 -8.2967472 19.779686 0 0 0 0 0
52.090847 -55.882488 32.763954 0 0 0 0 0
12.15381 -14.738318 15.364488 0 0 0 0 0
7.6120491 -11.486715 17.1315 0 0 0 0 0
13.405574 -16.602236 14.904391 0 0 0 0 0
52.241318 -55.230621 23.034845 0 0 0 0 0
37.841518 -40.360081 22.697332 0 0 0 0 0
-34.691971 30.981697 42.586098 0 0 0 0 0
14.802253 -17.491108 14.945776 0 0 0 0 0
-24.164989 21.650009 24.547003 0 0 0 0 0
-37.171787 33.863651 37.752953 0 0 0 0 0
-11.01338 7.9800129 21.035585 0 0 0 0 0
-26.578325 22.867388 52.998692 0 0 0 0 0
-24.260323 21.382355 55.348976 0 0 0 0 0
-30.685917 27.51362 35.02739 0 0 0 0 0
51.434444 -54.16991 33.242737 0 0 0 0 0
21.146717 -24.050289 15.093376 0 0 0 0 0
42.390278 -44.569988 45.198265 0 0 0 0 0
-22.670715 19.748699 56.940586 0 0 0 0 0
37.902973 -39.82658 43.673244 0 0 0 0 0
-36.024067 32.452053 41.262901 0 0 0 0 0
10.410973 -13.235518 16.059536 0 0 0 0 0
53.771965 -56.391029 25.235622 0 0 0 0 0
49.101868 -51.255005 22.309093 0 0 0 0 0
-26.111977 22.641132 23.040962 0 0 0 0 0
49.742203 -52.783592 41.786755 0 0 0 0 0
-20.43825 17.434069 22.445791 0 0 0 0 0
-20.896402 18.070692 58.464203 0 0 0 0 0
-33.106857 29.653641 38.017406 0 0 0 0 0
-27.724237 26.737028 30.297108 0 0 0 0 0
50.164742 -52.386726 22.617937 0 0 0 0 0
51.318314 -54.101028 30.556911 0 0 0 0 0
51.708149 -54.04517 22.631245 0 0 0 0 0
24.271446 -26.572254 49.823696 0 0 0 0 0
27.719437 -29.585968 47.781326 0 0 0 0 0
-30.511772 28.158026 46.844574 0 0 0 0 0
39.389854 -42.447739 22.478325 0 0 0 0 0
-19.020498 16.345167 59.851925 0 0 0 0 0
-37.395374 34.175327 40.626541 0 0 0 0 0
28.178093 -30.023224 19.19577 0 0 0 0 0
47.856857 -50.10096 44.309727 0 0 0 0 0
49.807159 -52.262283 24.902277 0 0 0 0 0
-41.214989 38.294167 38.764767 0 0 0 0 0
35.632168 -37.406971 43.737484 0 0 0 0 0
19.573086 -22.516731 53.657074 0 0 0 0 0
-16.850634 14.321227 61.194836 0 0 0 0 0
51.852573 -53.297459 23.145115 0 0 0 0 0
50.458843 -52.608021 24.222057 0 0 0 0 0
45.820778 -47.281754 22.254362 0 0 0 0 0
20.755629 -21.654921 14.680494 0 0 0 0 0
49.163181 -51.269215 43.330158 0 0 0 0 0
9.8875809 -12.402775 16.244528 0 0 0 0 0
-25.281837 22.292973 22.276896 0 0 0 0 0
-41.832008 39.215569 40.21487 0 0 0 0 0
49.884789 -52.617432 25.463787 0 0 0 0 0
50.268147 -53.127895 25.205477 0 0 0 0 0
-27.27659 25.47497 28.671785 0 0 0 0 0
-31.547401 28.821358 36.854218 0 0 0 0 0
-14.161015 11.883434 62.489395 0 0 0 0 0
-40.032284 37.356785 37.615005 0 0 0 0 0
16.505245 -18.642172 56.976467 0 0 0 0 0
-47.434303 44.760017 39.64135 0 0 0 0 0
50.267483 -52.932468 24.341297 0 0 0 0 0
-35.071091 32.587517 42.937851 0 0 0 0 0
-19.223389 16.888691 22.348242 0 0 0 0 0
9.0412807 -11.085281 61.851002 0 0 0 0 0
11.625828 -13.573248 60.621529 0 0 0 0 0
6.3608322 -8.4007759 62.892326 0 0 0 0 0
3.8014193 -5.8534822 63.698856 0 0 0 0 0
14.072398 -16.242645 58.971664 0 0 0 0 0
-11.071333 8.9769402 63.53524 0 0 0 0 0
1.4529102 -2.8422813 64.56263 0 0 0 0 0
53.497749 -54.203941 37.740005 0 0 0 0 0
-11.968172 9.9295044 21.057055 0 0 0 0 0
-51.924896 49.354836 41.501774 0 0 0 0 0
-14.096241 11.55877 19.740601 0 0 0 0 0
52.755001 -55.071568 32.064011 0 0 0 0 0
-7.9387779 5.9552975 64.282555 0 0 0 0 0
-33.268173 30.7686 37.069729 0 0 0 0 0
52.723438 -54.452076 30.755697 0 0 0 0 0
-56.011677 53.580067 44.125519 0 0 0 0 0
-23.455929 21.201023 20.991858 0 0 0 0 0
-47.138191 44.700554 40.939297 0 0 0 0 0
50.920826 -52.2859 24.775661 0 0 0 0 0
-42.46946 40.075615 37.484215 0 0 0 0 0
-29.888969 28.123787 34.627014 0 0 0 0 0
-31.247269 29.661997 45.900692 0 0 0 0 0
-50.703445 48.407761 42.208668 0 0 0 0 0
-36.436962 33.814503 36.643837 0 0 0 0 0
54.181023 -55.804771 23.338755 0 0 0 0 0
-59.763443 57.503464 47.666725 0 0 0 0 0
-47.208832 44.96225 38.388721 0 0 0 0 0
49.954319 -51.786922 26.405436 0 0 0 0 0
33.014587 -34.807674 44.583344 0 0 0 0 0
52.037788 -53.375641 22.774193 0 0 0 0 0
51.761593 -53.906384 32.736542 0 0 0 0 0
-37.107555 34.919292 41.885231 0 0 0 0 0
-5.8059635 5.2222819 23.97702 0 0 0 0 0
54.131367 -55.259769 28.83218 0 0 0 0 0
-55.335125 53.129215 45.021152 0 0 0 0 0
-51.867329 49.68195 40.372433 0 0 0 0 0
-3.9718542 2.877496 25.03249 0 0 0 0 0
35.940029 -37.320576 22.219391 0 0 0 0 0
10.222509 -12.036097 16.548485 0 0 0 0 0
-15.431988 13.297808 19.893299 0 0 0 0 0
-63.795303 61.677517 50.215179 0 0 0 0 0
30.136702 -31.730127 20.32062 0 0 0 0 0
-55.939976 53.891491 42.97541 0 0 0 0 0
-59.531494 57.46843 48.877468 0 0 0 0 0
-22.199654 20.193539 23.735081 0 0 0 0 0
40.801575 -40.64225 44.437355 0 0 0 0 0
-19.037214 16.988508 19.905701 0 0 0 0 0
-68.04454 66.106491 51.828201 0 0 0 0 0
-1.8707008 0.38530064 26.174799 0 0 0 0 0
-25.942753 24.323143 25.258339 0 0 0 0 0
-17.081244 15.074343 19.936001 0 0 0 0 0
-39.648529 38.00045 36.440002 0 0 0 0 0
33.128754 -34.465187 21.625492 0 0 0 0 0
50.812176 -51.695225 26.281599 0 0 0 0 0
-21.316927 19.401945 20.233629 0 0 0 0 0
51.971874 -53.78796 32.186275 0 0 0 0 0
14.435989 -15.627258 15.305567 0 0 0 0 0
-59.762955 57.9524 46.632961 0 0 0 0 0
-63.542862 61.635822 51.339741 0 0 0 0 0
55.238476 -56.104771 24.488523 0 0 0 0 0
54.209717 -55.118507 31.793776 0 0 0 0 0
-37.02639 35.708977 35.790462 0 0 0 0 0
-29.525242 28.152716 47.943939 0 0 0 0 0
52.886314 -52.900444 39.666145 0 0 0 0 0
-78.878166 77.15403 53.606945 0 0 0 0 0
23.42173 -23.823254 51.75008 0 0 0 0 0
-25.463871 24.345688 53.299011 0 0 0 0 0
49.829937 -50.984768 25.774277 0 0 0 0 0
-13.153363 11.899528 21.147453 0 0 0 0 0
12.070313 -13.188485 16.043404 0 0 0 0 0
6.0328522 -6.385581 20.227423 0 0 0 0 0
-41.789246 40.073189 41.473927 0 0 0 0 0
-67.647797 65.910568 52.876305 0 0 0 0 0
-63.851906 62.165691 49.255711 0 0 0 0 0
-22.694452 23.633108 23.375311 0 0 0 0 0
48.654625 -49.936325 25.066488 0 0 0 0 0
53.382702 -54.594944 30.440655 0 0 0 0 0
52.074387 -53.938797 31.05863 0 0 0 0 0
-30.123901 29.028372 35.44714 0 0 0 0 0
-79.04071 77.518723 54.680061 0 0 0 0 0
-46.31797 44.748711 42.032112 0 0 0 0 0
53.379757 -53.752697 23.311474 0 0 0 0 0
48.667343 -49.65773 24.724529 0 0 0 0 0
-30.723644 29.717623 35.95686 0 0 0 0 0
-67.908737 66.377441 50.846786 0 0 0 0 0
-32.555519 30.940096 36.53363 0 0 0 0 0
49.936337 -51.994015 42.42807 0 0 0 0 0
-34.264393 33.288776 43.996563 0 0 0 0 0
51.667465 -52.65184 25.04998 0 0 0 0 0
24.784681 -25.827845 16.195829 0 0 0 0 0
53.223804 -52.655437 21.112562 0 0 0 0 0
-83.171219 81.944534 54.378971 0 0 0 0 0
54.231792 -54.888332 22.510498 0 0 0 0 0
-50.267033 48.845783 43.419098 0 0 0 0 0
-78.409866 77.056992 52.618332 0 0 0 0 0
20.154453 -18.451927 14.741436 0 0 0 0 0
-17.293999 16.249229 20.649902 0 0 0 0 0
-42.628582 41.280666 36.536846 0 0 0 0 0
-7.6663427 7.1410551 23.137199 0 0 0 0 0
-54.480095 53.154739 46.003555 0 0 0 0 0
7.5609956 -8.3591318 18.717955 0 0 0 0 0
41.037212 -40.337841 21.659952 0 0 0 0 0
-58.379627 57.143902 49.666672 0 0 0 0 0
39.518555 -38.810081 22.130833 0 0 0 0 0
-83.066307 81.977257 55.240433 0 0 0 0 0
-46.829418 45.562855 37.439129 0 0 0 0 0
-19.695328 18.744644 20.584509 0 0 0 0 0
-35.224701 34.262253 35.687866 0 0 0 0 0
-51.562729 50.364243 39.510105 0 0 0 0 0
45.20219 -42.697033 45.495491 0 0 0 0 0
-55.83186 54.761799 42.220627 0 0 0 0 0
-62.899948 61.797348 52.386032 0 0 0 0 0
-83.011162 82.111656 53.606602 0 0 0 0 0
53.43858 -53.891399 22.305214 0 0 0 0 0
22.904314 -23.47275 15.196613 0 0 0 0 0
52.820873 -52.665455 23.40871 0 0 0 0 0
-67.053169 66.107552 53.912457 0 0 0 0 0
-0.94009972 0.44048917 64.995781 0 0 0 0 0
11.082843 -11.652524 16.624464 0 0 0 0 0
-4.0009441 3.4634943 64.919441 0 0 0 0 0
54.65913 -54.961277 30.552961 0 0 0 0 0
-59.820908 58.955101 46.133713 0 0 0 0 0
-78.606956 77.831139 55.654984 0 0 0 0 0
52.813503 -51.627758 20.710426 0 0 0 0 0
-36.480568 35.736069 42.901688 0 0 0 0 0
-64.332718 63.584888 48.881008 0 0 0 0 0
14.950185 -14.144923 59.928883 0 0 0 0 0
55.258392 -55.892517 26.452162 0 0 0 0 0
41.463512 -42.552929 21.84704 0 0 0 0 0
-21.212061 22.228041 22.284716 0 0 0 0 0
54.564342 -53.072041 23.369272 0 0 0 0 0
3.5685992 -1.0666987 24.304136 0 0 0 0 0
2.8760765 -0.39713886 24.412262 0 0 0 0 0
47.005035 -46.423454 21.724108 0 0 0 0 0
4.3820133 -1.8606303 23.82645 0 0 0 0 0
2.4060738 0.092182271 24.645699 0 0 0 0 0
-19.225962 20.56761 21.708878 0 0 0 0 0
-67.916344 67.283455 50.16468 0 0 0 0 0
51.201717 -51.302631 24.48403 0 0 0 0 0
4.6853571 -2.2779264 23.110033 0 0 0 0 0
-82.401978 81.885269 56.056881 0 0 0 0 0
-10.989366 10.998385 22.402775 0 0 0 0 0
1.7238028 0.77353603 24.821211 0 0 0 0 0
-1.2058349 3.5893354 26.179199 0 0 0 0 0
35.654812 -34.782589 44.747215 0 0 0 0 0
55.94722 -55.662949 25.426373 0 0 0 0 0
1.0004203 0.4857958 25.286863 0 0 0 0 0
-77.755882 77.254204 51.838383 0 0 0 0 0
49.73344 -49.759022 25.559238 0 0 0 0 0
-0.82583618 -0.22699487 26.05052 0 0 0 0 0
25.08021 -24.081701 51.071384 0 0 0 0 0
-41.235043 40.839527 42.449585 0 0 0 0 0
16.700367 -16.080755 58.528584 0 0 0 0 0
-24.185415 24.644823 24.792458 0 0 0 0 0
52.637325 -52.577679 25.549028 0 0 0 0 0
26.693495 -24.196512 50.479694 0 0 0 0 0
39.030163 -37.594402 44.347099 0 0 0 0 0
18.455421 -17.502857 57.24535 0 0 0 0 0
-31.766811 31.271364 36.074734 0 0 0 0 0
49.388027 -49.362835 27.348242 0 0 0 0 0
-82.48111 82.266693 52.946304 0 0 0 0 0
-38.973572 38.643745 35.659401 0 0 0 0 0
-45.957405 45.6875 43.081169 0 0 0 0 0
-83.591164 83.374916 55.049828 0 0 0 0 0
-27.741583 28.464334 32.665173 0 0 0 0 0
-49.571049 49.413929 44.383175 0 0 0 0 0
-32.602089 33.06588 45.088085 0 0 0 0 0
50.373211 -50.571033 27.376844 0 0 0 0 0
31.352613 -31.090395 46.061272 0 0 0 0 0
-41.947262 41.9249 35.767868 0 0 0 0 0
-28.125652 26.996033 49.88047 0 0 0 0 0
-53.732193 53.645882 46.95665 0 0 0 0 0
-25.674578 25.64039 26.851271 0 0 0 0 0
47.971333 -45.465549 45.60466 0 0 0 0 0
49.987926 -49.513645 26.230467 0 0 0 0 0
55.965733 -54.180233 31.969061 0 0 0 0 0
-22.52107 23.253698 55.741875 0 0 0 0 0
49.07547 -46.663261 45.208015 0 0 0 0 0
-57.327942 57.265633 50.312847 0 0 0 0 0
33.097256 -32.370804 45.304329 0 0 0 0 0
-20.48103 22.089256 57.375214 0 0 0 0 0
-36.633766 36.554253 35.333675 0 0 0 0 0
-18.67235 20.402857 58.886757 0 0 0 0 0
-83.329597 84.052361 53.634678 0 0 0 0 0
-16.813082 16.292177 21.036146 0 0 0 0 0
54.661255 -53.333061 22.2444 0 0 0 0 0
47.039894 -46.978836 27.077162 0 0 0 0 0
-29.297476 30.042509 47.453487 0 0 0 0 0
-46.366619 46.307186 36.823971 0 0 0 0 0
-62.193489 62.244118 53.279236 0 0 0 0 0
51.363167 -50.45536 24.714565 0 0 0 0 0
-51.77375 51.857368 39.233845 0 0 0 0 0
-16.743254 18.590864 60.28772 0 0 0 0 0
48.306198 -48.162102 27.980829 0 0 0 0 0
36.656445 -35.717297 21.80382 0 0 0 0 0
-66.422295 66.586281 54.743446 0 0 0 0 0
-30.712883 31.601732 46.247299 0 0 0 0 0
29.826946 -28.901287 19.002979 0 0 0 0 0
-15.172253 15.908122 61.546776 0 0 0 0 0
42.540031 -39.899605 44.693081 0 0 0 0 0
-55.829666 56.008591 42.073292 0 0 0 0 0
56.223629 -53.719135 34.727779 0 0 0 0 0
53.085381 -52.033455 23.225292 0 0 0 0 0
50.313255 -49.875626 25.464127 0 0 0 0 0
54.696442 -53.546394 23.036243 0 0 0 0 0
50.726341 -48.189423 44.237297 0 0 0 0 0
-78.151558 78.43174 56.442165 0 0 0 0 0
48.558144 -48.257469 27.437458 0 0 0 0 0
-58.744404 59.039005 44.997326 0 0 0 0 0
-11.614556 14.113708 62.952362 0 0 0 0 0
34.067978 -32.860836 21.074095 0 0 0 0 0
18.169563 -15.696963 14.944659 0 0 0 0 0
31.688671 -30.26231 19.915213 0 0 0 0 0
-60.663658 60.988441 46.50494 0 0 0 0 0
10.708538 -9.8397579 62.142887 0 0 0 0 0
7.628129 -6.6316051 63.342651 0 0 0 0 0
-81.553185 82.479561 57.007397 0 0 0 0 0
51.586395 -51.194305 27.258879 0 0 0 0 0
56.858494 -55.770588 25.364223 0 0 0 0 0
22.577499 -20.292801 14.863879 0 0 0 0 0
-8.5818558 11.082533 63.986877 0 0 0 0 0
13.092176 -11.994112 61.114029 0 0 0 0 0
-64.306236 64.703636 48.580578 0 0 0 0 0
-6.2908068 7.359828 64.630989 0 0 0 0 0
-83.478165 84.349106 54.607502 0 0 0 0 0
16.174788 -13.905144 15.246807 0 0 0 0 0
-67.657097 68.120918 49.699238 0 0 0 0 0
-83.138939 84.664497 55.982365 0 0 0 0 0
-15.368496 16.72398 21.857582 0 0 0 0 0
-74.560272 75.107437 50.843849 0 0 0 0 0
-82.880821 83.256691 56.441345 0 0 0 0 0
-80.986984 81.574829 52.193726 0 0 0 0 0
-17.17115 18.594063 21.570591 0 0 0 0 0
-12.360428 14.127386 22.838758 0 0 0 0 0
37.46405 -36.236717 44.374779 0 0 0 0 0
56.355927 -54.990341 23.394005 0 0 0 0 0
56.511894 -54.651253 29.20845 0 0 0 0 0
49.424667 -48.195877 26.533079 0 0 0 0 0
54.137169 -52.811485 24.378654 0 0 0 0 0
56.833103 -55.125179 24.634382 0 0 0 0 0
30.141626 -26.626158 48.133095 0 0 0 0 0
42.708435 -41.437447 21.48959 0 0 0 0 0
53.199059 -52.34977 23.644714 0 0 0 0 0
-82.544243 83.969551 52.851696 0 0 0 0 0
-34.839642 35.661793 43.849346 0 0 0 0 0
55.031677 -52.059097 38.781445 0 0 0 0 0
56.749222 -56.06945 25.798344 0 0 0 0 0
-36.798191 37.658276 43.342293 0 0 0 0 0
48.138371 -46.645184 27.876307 0 0 0 0 0
-4.7240372 5.5900764 24.547495 0 0 0 0 0
48.353546 -46.519653 25.732643 0 0 0 0 0
48.685307 -47.661472 28.35429 0 0 0 0 0
56.283257 -54.912247 25.897053 0 0 0 0 0
52.339714 -50.633118 23.996229 0 0 0 0 0
0.0038156509 2.7880769 26.426636 0 0 0 0 0
-30.043015 31.691925 35.647434 0 0 0 0 0
-41.042206 42.087097 43.064899 0 0 0 0 0
-32.960785 34.675034 35.354439 0 0 0 0 0
52.195187 -49.689976 42.736874 0 0 0 0 0
-28.762598 30.654074 35.182545 0 0 0 0 0
7.9608841 -5.5414467 19.580072 0 0 0 0 0
-6.7860384 7.9935904 23.82477 0 0 0 0 0
53.982574 -52.490143 20.9797 0 0 0 0 0
-45.87788 46.973003 43.775822 0 0 0 0 0
52.199089 -50.78331 25.205593 0 0 0 0 0
-49.726765 50.871952 45.367279 0 0 0 0 0
-41.743946 43.020237 35.385578 0 0 0 0 0
51.463989 -49.672508 27.97691 0 0 0 0 0
-36.168865 37.263126 35.13868 0 0 0 0 0
55.428856 -53.455498 22.463034 0 0 0 0 0
-52.981289 54.178059 47.53083 0 0 0 0 0
49.938171 -48.728607 27.86994 0 0 0 0 0
-56.440445 57.64917 50.739014 0 0 0 0 0
56.391319 -53.895844 33.486607 0 0 0 0 0
51.001312 -50.126335 25.915285 0 0 0 0 0
-60.991825 62.259068 53.567089 0 0 0 0 0
-47.11776 48.423569 36.906113 0 0 0 0 0
27.718939 -25.216997 16.811003 0 0 0 0 0
-27.86672 29.935877 48.455967 0 0 0 0 0
-23.923256 25.343033 53.798603 0 0 0 0 0
-65.666992 66.977798 55.241817 0 0 0 0 0
-24.001883 26.319326 26.647909 0 0 0 0 0
-52.029953 53.395035 39.377388 0 0 0 0 0
47.5355 -45.920998 26.331377 0 0 0 0 0
-27.496475 29.916027 33.887199 0 0 0 0 0
-69.296097 70.655807 55.721546 0 0 0 0 0
54.419727 -52.83176 23.036573 0 0 0 0 0
-55.117584 56.909569 41.686798 0 0 0 0 0
-77.391899 78.780037 56.880787 0 0 0 0 0
24.996967 -22.515598 15.488182 0 0 0 0 0
-9.1151514 11.057748 23.479902 0 0 0 0 0
-59.16341 60.58395 45.519539 0 0 0 0 0
-25.692776 27.800259 29.83836 0 0 0 0 0
57.432961 -55.618652 26.272303 0 0 0 0 0
-63.339203 64.820969 48.092628 0 0 0 0 0
-22.549862 25.202812 24.793736 0 0 0 0 0
3.8950698 -0.74904323 64.835236 0 0 0 0 0
11.509013 -8.7486925 17.241905 0 0 0 0 0
0.98985755 2.0353739 65.204971 0 0 0 0 0
-66.961578 68.456223 49.400295 0 0 0 0 0
-2.0593514 5.0013461 65.154823 0 0 0 0 0
47.636696 -45.768692 21.607111 0 0 0 0 0
50.107048 -48.0914 26.342804 0 0 0 0 0
-76.501617 78.055206 51.047501 0 0 0 0 0
57.205208 -55.0839 24.770729 0 0 0 0 0
-82.741089 84.200745 56.699333 0 0 0 0 0
54.604179 -52.101318 23.041298 0 0 0 0 0
14.208383 -11.759562 15.842282 0 0 0 0 0
49.443356 -49.25906 21.577997 0 0 0 0 0
53.515114 -50.688812 41.178219 0 0 0 0 0
50.95718 -47.469563 21.412378 0 0 0 0 0
55.782173 -52.489403 22.213593 0 0 0 0 0
53.003468 -50.500629 24.201317 0 0 0 0 0
-19.022091 21.797501 22.328587 0 0 0 0 0
-10.024105 12.424465 23.590252 0 0 0 0 0
54.750107 -52.246971 22.704248 0 0 0 0 0
-21.281471 23.733303 23.381962 0 0 0 0 0
58.179508 -55.218075 25.698742 0 0 0 0 0
55.861526 -53.271576 22.648331 0 0 0 0 0
52.33683 -49.738487 24.529848 0 0 0 0 0
56.744446 -54.327377 23.384937 0 0 0 0 0
-6.9150906 9.8520565 23.829868 0 0 0 0 0
6.1374636 -3.3380249 21.77808 0 0 0 0 0
27.577343 -20.943939 15.656898 0 0 0 0 0
31.112444 -27.851595 19.009298 0 0 0 0 0
35.279488 -31.606977 21.028147 0 0 0 0 0
2.6522336 3.7014649 26.171671 0 0 0 0 0
-4.4716668 6.9731956 24.437407 0 0 0 0 0
-5.0617852 8.4369717 64.685768 0 0 0 0 0
-13.750763 17.281597 61.607124 0 0 0 0 0
-28.71138 31.659737 47.173431 0 0 0 0 0
-30.696754 33.698944 45.698174 0 0 0 0 0
-33.842834 36.343018 44.122074 0 0 0 0 0
-35.480373 37.980373 35.068035 0 0 0 0 0
-36.149487 38.649487 43.526569 0 0 0 0 0
-41.272091 43.772091 35.275101 0 0 0 0 0
-40.552082 43.052082 43.2603 0 0 0 0 0
-46.345398 48.845398 36.729176 0 0 0 0 0
-45.69455 48.19455 44.113678 0 0 0 0 0
-49.423203 51.923203 45.780792 0 0 0 0 0
-51.393379 53.893379 39.207432 0 0 0 0 0
-52.181381 54.681381 47.621807 0 0 0 0 0
-55.402363 57.902363 50.606083 0 0 0 0 0
-57.451225 60.486031 44.582745 0 0 0 0 0
-58.502003 61.002003 52.746944 0 0 0 0 0
-59.128178 62.203876 45.977634 0 0 0 0 0
-62.97673 65.47673 48.080879 0 0 0 0 0
-62.368446 64.868446 54.585587 0 0 0 0 0
-66.541664 69.041664 49.337944 0 0 0 0 0
-65.805817 68.305817 55.558357 0 0 0 0 0
-68.657104 71.157104 55.868069 0 0 0 0 0
-73.039459 75.539459 50.397884 0 0 0 0 0
-76.582649 79.082649 56.997395 0 0 0 0 0
-81.181648 83.34211 52.19286 0 0 0 0 0
-81.063942 83.563942 57.266594 0 0 0 0 0
-81.845718 85.149567 56.749462 0 0 0 0 0
-81.898254 85.459229 53.315693 0 0 0 0 0
-82.804688 85.304688 54.436832 0 0 0 0 0
38.231121 -34.148968 21.794027 0 0 0 0 0
12.327294 -8.3338327 62.133282 0 0 0 0 0
40.317944 -37.812817 22.222006 0 0 0 0 0
42.522804 -39.023392 21.634781 0 0 0 0 0
43.968731 -40.144176 21.491148 0 0 0 0 0
19.064619 -14.918478 58.095734 0 0 0 0 0
52.430771 -50.138336 20.709282 0 0 0 0 0
24.72991 -21.348478 52.61908 0 0 0 0 0
48.299919 -45.118835 26.266844 0 0 0 0 0
49.015285 -45.824856 25.742664 0 0 0 0 0
54.782181 -51.950653 20.952307 0 0 0 0 0
48.620255 -45.133362 27.080292 0 0 0 0 0
24.420437 -22.269814 52.339146 0 0 0 0 0
52.574936 -48.48175 25.930141 0 0 0 0 0
49.379116 -46.876095 28.460815 0 0 0 0 0
55.389893 -52.013229 23.005293 0 0 0 0 0
55.552994 -52.404305 23.169216 0 0 0 0 0
50.995575 -47.673721 27.979528 0 0 0 0 0
34.413681 -28.647493 45.791695 0 0 0 0 0
34.556156 -30.896364 45.304684 0 0 0 0 0
52.307529 -50.450321 27.639212 0 0 0 0 0
36.689766 -33.851105 44.827065 0 0 0 0 0
39.38652 -36.224854 44.382645 0 0 0 0 0
40.097691 -37.384663 44.546711 0 0 0 0 0
-14.996172 17.888647 21.85017 0 0 0 0 0
-10.100481 13.160139 23.700388 0 0 0 0 0
-16.473465 19.785496 21.708084 0 0 0 0 0
57.492928 -53.852242 23.392942 0 0 0 0 0
54.299519 -50.862713 23.145035 0 0 0 0 0
56.628147 -52.640186 22.45125 0 0 0 0 0
57.499943 -54.540653 24.844635 0 0 0 0 0
55.939785 -53.114697 23.206791 0 0 0 0 0
57.073093 -53.593555 29.998308 0 0 0 0 0
52.983532 -49.613407 25.366539 0 0 0 0 0
50.799477 -47.402748 26.460394 0 0 0 0 0
-7.6617928 10.944918 24.070639 0 0 0 0 0
54.613171 -52.01524 25.02137 0 0 0 0 0
53.896111 -50.497246 20.601694 0 0 0 0 0
57.415913 -53.779537 25.896845 0 0 0 0 0
55.134647 -51.219028 21.05682 0 0 0 0 0
55.38316 -51.233608 23.181206 0 0 0 0 0
-80.431984 84.53083 52.500641 0 0 0 0 0
-19.514437 23.182318 22.999765 0 0 0 0 0
17.005178 -10.730249 15.625853 0 0 0 0 0
55.615696 -52.885395 37.176563 0 0 0 0 0
-79.516724 82.959106 51.950085 0 0 0 0 0
56.834553 -53.24535 32.017334 0 0 0 0 0
41.301697 -37.024948 22.12649 0 0 0 0 0
-81.80603 85.790085 55.869392 0 0 0 0 0
58.570461 -54.26643 25.750401 0 0 0 0 0
-73.191391 76.635818 50.60384 0 0 0 0 0
-65.956223 69.461578 49.400295 0 0 0 0 0
16.523218 -12.63286 59.910927 0 0 0 0 0
