# .PCD v0.7 - Point Cloud Data file format
VERSION 0.7
FIELDS x y z
SIZE 4 4 4
TYPE F F F
COUNT 1 1 1
WIDTH 1711
HEIGHT 1
VIEWPOINT 0 0 0 1 0 0 0
POINTS 1711
DATA ascii
0.20225 -0.38624999 -1.493
0.20225 -0.23175 -1.493
0.40450001 -0.30899999 -1.368
0.20225 0.23175 -1.493
0.20225 0.38624999 -1.493
0.40450001 0.30899999 -1.368
1.13625 0.27950001 -0.91575003
1.26125 0.32725 -0.83850002
1.3385 0.20225 -0.79075003
0.32725 0.58850002 -1.41575
0.45225 0.63625002 -1.3385
0.52950001 0.51125002 -1.29075
0.82725 0.77950001 -1.10675
0.95225 0.82725 -1.0295
1.0295 0.70225 -0.98175001
-0.10675 1.54075 -0.125
-0.059 1.4635 -0.25
-0.26124999 1.54075 -0.125
0.51125002 1.54075 -0.125
0.55900002 1.4635 -0.25
0.35675001 1.54075 -0.125
0.70225 1.23175 -0.625
0.75 1.1545 -0.75
0.54775 1.23175 -0.625
-0.13625 1.3385 -0.45225
-0.26124999 1.29075 -0.52950001
-0.33849999 1.41575 -0.32725
0.67275 1.0295 -0.95225
0.54775 0.98175001 -1.0295
0.47049999 1.10675 -0.82725
0.17275 0.83850002 -1.26125
0.04775 0.79075003 -1.3385
-0.0295 0.91575003 -1.13625
-0.51125002 1.29075 -0.52950001
-0.63625002 1.3385 -0.45225
-0.58850002 1.41575 -0.32725
-0.20225 0.79075003 -1.3385
-0.32725 0.83850002 -1.26125
-0.27950001 0.91575003 -1.13625
-0.70225 0.98175001 -1.0295
-0.82725 1.0295 -0.95225
-0.77950001 1.10675 -0.82725
1.23175 0.625 0.70225
1.23175 0.625 0.54775
1.1545 0.75 0.75
1.54075 0.125 0.51125002
1.54075 0.125 0.35675001
1.4635 0.25 0.55900002
1.54075 0.125 -0.10675
1.54075 0.125 -0.26124999
1.4635 0.25 -0.059
1.1545 0.75 0.34549999
1.07725 0.875 0.29775
1.07725 0.875 0.54775
1.4635 0.25 -0.46349999
1.38625 0.375 -0.51125002
1.38625 0.375 -0.26124999
1.1545 0.75 -0.65450001
1.07725 0.875 -0.70225
1.07725 0.875 -0.45225
0.95225 1.07725 0.375
0.90450001 1.1545 0.5
0.95225 1.07725 0.625
0.95225 1.07725 -0.625
0.90450001 1.1545 -0.5
0.95225 1.07725 -0.375
0.76125002 1.38625 -0.125
0.71350002 1.4635 0
0.76125002 1.38625 0.125
0.32725 0.83850002 1.26125
0.27950001 0.91575003 1.13625
0.20225 0.79075003 1.3385
0.82725 1.0295 0.95225
0.77950001 1.10675 0.82725
0.70225 0.98175001 1.0295
0.63625002 1.3385 0.45225
0.58850002 1.41575 0.32725
0.51125002 1.29075 0.52950001
0.077249996 0.99299997 1.01125
-0.077249996 0.99299997 1.01125
0 0.86799997 1.2135
0.38624999 1.493 0.20225
0.23175 1.493 0.20225
0.30899999 1.368 0.40450001
-0.23175 1.493 0.20225
-0.38624999 1.493 0.20225
-0.30899999 1.368 0.40450001
-0.27950001 0.91575003 1.13625
-0.32725 0.83850002 1.26125
-0.20225 0.79075003 1.3385
-0.58850002 1.41575 0.32725
-0.63625002 1.3385 0.45225
-0.51125002 1.29075 0.52950001
-0.77950001 1.10675 0.82725
-0.82725 1.0295 0.95225
-0.70225 0.98175001 1.0295
-0.34549999 -1.309 0.5
-0.14325 -1.38625 0.375
-0.65450001 -1.309 0.5
-0.60675001 -1.38625 0.375
-0.20225 -1.54075 0.125
-0.04775 -1.54075 0.125
0.10675 -1.04075 0.93400002
0.184 -1.16575 0.73175001
-0.29775 -0.88625002 1.184
-0.42275 -0.93400002 1.10675
-0.26824999 -1.184 0.70225
-0.066 -1.26125 0.57725
0.73175001 -1.184 0.70225
0.68400002 -1.26125 0.57725
0.57725 -0.93400002 1.10675
0.45225 -0.88625002 1.184
0.35675001 -1.04075 0.93400002
0.43399999 -1.16575 0.73175001
-1.54075 -0.125 -0.20225
-1.54075 -0.125 -0.04775
-1.38625 -0.375 -0.60675001
-1.309 -0.5 -0.65450001
-1.309 -0.5 -0.34549999
-1.38625 -0.375 -0.14325
-1.184 -0.70225 -0.26824999
-1.26125 -0.57725 -0.066
-0.93400002 -1.10675 -0.42275
-0.88625002 -1.184 -0.29775
-1.04075 -0.93400002 0.10675
-1.16575 -0.73175001 0.184
-1.04075 -0.93400002 0.35675001
-1.16575 -0.73175001 0.43399999
-0.88625002 -1.184 0.45225
-0.93400002 -1.10675 0.57725
-1.184 -0.70225 0.73175001
-1.26125 -0.57725 0.68400002
-0.70225 0.73175001 1.184
-0.57725 0.68400002 1.26125
-1.10675 0.57725 0.93400002
-1.184 0.45225 0.88625002
-0.93400002 0.35675001 1.04075
-0.73175001 0.43399999 1.16575
-0.93400002 0.10675 1.04075
-0.73175001 0.184 1.16575
-1.184 -0.29775 0.88625002
-1.10675 -0.42275 0.93400002
-0.70225 -0.26824999 1.184
-0.57725 -0.066 1.26125
-0.5 -0.34549999 1.309
-0.375 -0.14325 1.38625
-0.5 -0.65450001 1.309
-0.375 -0.60675001 1.38625
-0.125 -0.20225 1.54075
-0.125 -0.04775 1.54075
1.10675 0.57725 0.93400002
1.184 0.45225 0.88625002
0.70225 0.73175001 1.184
0.57725 0.68400002 1.26125
0.73175001 0.43399999 1.16575
0.93400002 0.35675001 1.04075
0.60675001 0.23175 1.243
0.80900002 0.15449999 1.118
0.20225 0.077249996 1.493
0.20225 -0.077249996 1.493
0.60675001 -0.23175 1.243
0.80900002 -0.15449999 1.118
0.73175001 -0.43399999 1.16575
0.93400002 -0.35675001 1.04075
0.57725 -0.68400002 1.26125
0.70225 -0.73175001 1.184
1.10675 -0.57725 0.93400002
1.184 -0.45225 0.88625002
0.80900002 -1.309 0.25
0.85675001 -1.23175 0.375
0.80900002 -1.309 -0.25
0.85675001 -1.23175 -0.375
0.95225 -1.07725 -0.125
0.95225 -1.07725 0.125
1.07725 -0.875 -0.20225
1.07725 -0.875 0.04775
1.23175 -0.625 -0.60675001
1.309 -0.5 -0.55900002
1.309 -0.5 -0.059
1.23175 -0.625 0.14325
1.38625 -0.375 0.14325
1.309 -0.5 0.34549999
1.54075 -0.125 0.04775
1.54075 -0.125 0.20225
1.38625 -0.375 0.60675001
1.309 -0.5 0.65450001
-0.20225 -1.54075 -0.125
-0.04775 -1.54075 -0.125
-0.60675001 -1.38625 -0.375
-0.65450001 -1.309 -0.5
-0.34549999 -1.309 -0.5
-0.14325 -1.38625 -0.375
-0.26824999 -1.184 -0.70225
-0.066 -1.26125 -0.57725
-0.42275 -0.93400002 -1.10675
-0.29775 -0.88625002 -1.184
0.10675 -1.04075 -0.93400002
0.184 -1.16575 -0.73175001
0.35675001 -1.04075 -0.93400002
0.43399999 -1.16575 -0.73175001
0.45225 -0.88625002 -1.184
0.57725 -0.93400002 -1.10675
0.73175001 -1.184 -0.70225
0.68400002 -1.26125 -0.57725
-1.10675 0.57725 -0.93400002
-1.184 0.45225 -0.88625002
-0.70225 0.73175001 -1.184
-0.57725 0.68400002 -1.26125
-0.73175001 0.43399999 -1.16575
-0.93400002 0.35675001 -1.04075
-0.60675001 0.23175 -1.243
-0.80900002 0.15449999 -1.118
-0.20225 0.077249996 -1.493
-0.20225 -0.077249996 -1.493
-0.60675001 -0.23175 -1.243
-0.80900002 -0.15449999 -1.118
-0.73175001 -0.43399999 -1.16575
-0.93400002 -0.35675001 -1.04075
-0.57725 -0.68400002 -1.26125
-0.70225 -0.73175001 -1.184
-1.10675 -0.57725 -0.93400002
-1.184 -0.45225 -0.88625002
-0.80900002 1.309 0.25
-0.85675001 1.23175 0.375
-0.80900002 1.309 -0.25
-0.85675001 1.23175 -0.375
-0.95225 1.07725 -0.125
-0.95225 1.07725 0.125
-1.07725 0.875 -0.20225
-1.07725 0.875 0.04775
-1.23175 0.625 -0.60675001
-1.309 0.5 -0.55900002
-1.309 0.5 -0.059
-1.23175 0.625 0.14325
-1.38625 0.375 0.14325
-1.309 0.5 0.34549999
-1.54075 0.125 0.04775
-1.54075 0.125 0.20225
-1.38625 0.375 0.60675001
-1.309 0.5 0.65450001
1.10675 -0.57725 -0.93400002
1.184 -0.45225 -0.88625002
0.70225 -0.73175001 -1.184
0.57725 -0.68400002 -1.26125
0.73175001 -0.43399999 -1.16575
0.93400002 -0.35675001 -1.04075
0.60675001 -0.23175 -1.243
0.80900002 -0.15449999 -1.118
0.20225 -0.077249996 -1.493
0.20225 0.077249996 -1.493
0.60675001 0.23175 -1.243
0.80900002 0.15449999 -1.118
0.73175001 0.43399999 -1.16575
0.93400002 0.35675001 -1.04075
0.57725 0.68400002 -1.26125
0.70225 0.73175001 -1.184
1.10675 0.57725 -0.93400002
1.184 0.45225 -0.88625002
0.20225 1.54075 -0.125
0.04775 1.54075 -0.125
0.60675001 1.38625 -0.375
0.65450001 1.309 -0.5
0.34549999 1.309 -0.5
0.14325 1.38625 -0.375
0.26824999 1.184 -0.70225
0.066 1.26125 -0.57725
0.42275 0.93400002 -1.10675
0.29775 0.88625002 -1.184
-0.10675 1.04075 -0.93400002
-0.184 1.16575 -0.73175001
-0.35675001 1.04075 -0.93400002
-0.43399999 1.16575 -0.73175001
-0.45225 0.88625002 -1.184
-0.57725 0.93400002 -1.10675
-0.73175001 1.184 -0.70225
-0.68400002 1.26125 -0.57725
1.38625 0.375 0.60675001
1.309 0.5 0.65450001
1.54075 0.125 0.20225
1.54075 0.125 0.04775
1.38625 0.375 0.14325
1.309 0.5 0.34549999
1.309 0.5 -0.059
1.23175 0.625 0.14325
1.309 0.5 -0.55900002
1.23175 0.625 -0.60675001
1.07725 0.875 -0.20225
1.07725 0.875 0.04775
0.95225 1.07725 -0.125
0.95225 1.07725 0.125
0.85675001 1.23175 -0.375
0.80900002 1.309 -0.25
0.80900002 1.309 0.25
0.85675001 1.23175 0.375
0.57725 0.93400002 1.10675
0.45225 0.88625002 1.184
0.73175001 1.184 0.70225
0.68400002 1.26125 0.57725
0.43399999 1.16575 0.73175001
0.35675001 1.04075 0.93400002
0.23175 1.243 0.60675001
0.15449999 1.118 0.80900002
0.077249996 1.493 0.20225
-0.077249996 1.493 0.20225
-0.23175 1.243 0.60675001
-0.15449999 1.118 0.80900002
-0.43399999 1.16575 0.73175001
-0.35675001 1.04075 0.93400002
-0.68400002 1.26125 0.57725
-0.73175001 1.184 0.70225
-0.57725 0.93400002 1.10675
-0.45225 0.88625002 1.184
0.41575 -1.54075 0.125
0.46349999 -1.618 0
0.01125 -1.38625 0.375
0.15449999 -1.618 0
-0.39324999 -1.23175 0.625
-0.79775 -1.07725 0.875
-0.95225 -1.07725 0.875
-0.85675001 -1.23175 0.625
-0.15449999 -1.618 0
-0.76125002 -1.38625 0.375
-0.66575003 -1.54075 0.125
-0.46349999 -1.618 0
0.54075003 -1.493 0.20225
0.38624999 -1.243 0.60675001
0.23175 -0.99299997 1.01125
0.077249996 -0.74299997 1.41575
-0.125 -0.66575003 1.54075
-0.375 -0.76125002 1.38625
-0.625 -0.85675001 1.23175
-0.875 -0.95225 1.07725
0.66575003 -1.54075 0.125
0.76125002 -1.38625 0.375
0.85675001 -1.23175 0.625
0.95225 -1.07725 0.875
0.875 -0.95225 1.07725
0.625 -0.85675001 1.23175
0.375 -0.76125002 1.38625
0.125 -0.66575003 1.54075
-1.618 0 0.46349999
-1.54075 -0.125 0.41575
-1.618 0 0.15449999
-1.38625 -0.375 0.01125
-1.618 0 -0.15449999
-1.618 0 -0.46349999
-1.54075 -0.125 -0.66575003
-1.38625 -0.375 -0.76125002
-1.23175 -0.625 -0.39324999
-1.23175 -0.625 -0.85675001
-1.07725 -0.875 -0.95225
-1.07725 -0.875 -0.79775
-1.493 -0.20225 0.54075003
-1.243 -0.60675001 0.38624999
-0.95225 -1.07725 -0.875
-0.85675001 -1.23175 -0.625
-0.99299997 -1.01125 0.23175
-0.76125002 -1.38625 -0.375
-0.66575003 -1.54075 -0.125
-0.74299997 -1.41575 0.077249996
-1.54075 -0.125 0.66575003
-1.38625 -0.375 0.76125002
-1.23175 -0.625 0.85675001
-1.07725 -0.875 0.95225
-0.125 0.66575003 1.54075
-0.20225 0.54075003 1.493
-0.375 0.76125002 1.38625
-0.60675001 0.38624999 1.243
-0.625 0.85675001 1.23175
-0.875 0.95225 1.07725
-1.07725 0.875 0.95225
-1.23175 0.625 0.85675001
-1.01125 0.23175 0.99299997
-1.38625 0.375 0.76125002
-1.54075 0.125 0.66575003
-1.41575 0.077249996 0.74299997
-0.125 0.41575 1.54075
-0.375 0.01125 1.38625
-0.625 -0.39324999 1.23175
-0.875 -0.79775 1.07725
0 0.46349999 1.618
0 0.15449999 1.618
0 -0.15449999 1.618
0 -0.46349999 1.618
1.54075 0.125 0.66575003
1.41575 0.077249996 0.74299997
1.38625 0.375 0.76125002
1.01125 0.23175 0.99299997
1.23175 0.625 0.85675001
1.07725 0.875 0.95225
0.875 0.95225 1.07725
0.625 0.85675001 1.23175
0.60675001 0.38624999 1.243
0.375 0.76125002 1.38625
0.125 0.66575003 1.54075
0.20225 0.54075003 1.493
1.41575 -0.077249996 0.74299997
1.01125 -0.23175 0.99299997
0.60675001 -0.38624999 1.243
0.20225 -0.54075003 1.493
1.54075 -0.125 0.66575003
1.38625 -0.375 0.76125002
1.23175 -0.625 0.85675001
1.07725 -0.875 0.95225
1 -1 0.75
1 -1 0.25
0.66575003 -1.54075 -0.125
0.76125002 -1.38625 -0.375
1 -1 -0.25
0.85675001 -1.23175 -0.625
0.95225 -1.07725 -0.875
1 -1 -0.75
1.07725 -0.875 0.79775
1.23175 -0.625 0.39324999
1.07725 -0.875 -0.95225
1.23175 -0.625 -0.85675001
1.38625 -0.375 -0.01125
1.38625 -0.375 -0.76125002
1.54075 -0.125 -0.66575003
1.54075 -0.125 -0.41575
1.618 0 -0.46349999
1.618 0 -0.15449999
1.618 0 0.15449999
1.618 0 0.46349999
0.41575 -1.54075 -0.125
0.01125 -1.38625 -0.375
-0.39324999 -1.23175 -0.625
-0.79775 -1.07725 -0.875
0.54075003 -1.493 -0.20225
0.38624999 -1.243 -0.60675001
-0.875 -0.95225 -1.07725
-0.625 -0.85675001 -1.23175
0.23175 -0.99299997 -1.01125
-0.375 -0.76125002 -1.38625
-0.125 -0.66575003 -1.54075
0.077249996 -0.74299997 -1.41575
0.125 -0.66575003 -1.54075
0.375 -0.76125002 -1.38625
0.625 -0.85675001 -1.23175
0.875 -0.95225 -1.07725
-1.54075 0.125 -0.66575003
-1.41575 0.077249996 -0.74299997
-1.38625 0.375 -0.76125002
-1.01125 0.23175 -0.99299997
-1.23175 0.625 -0.85675001
-1.07725 0.875 -0.95225
-0.875 0.95225 -1.07725
-0.625 0.85675001 -1.23175
-0.60675001 0.38624999 -1.243
-0.375 0.76125002 -1.38625
-0.125 0.66575003 -1.54075
-0.20225 0.54075003 -1.493
-1.41575 -0.077249996 -0.74299997
-1.01125 -0.23175 -0.99299997
0 0.46349999 -1.618
0 0.15449999 -1.618
-0.60675001 -0.38624999 -1.243
0 -0.15449999 -1.618
0 -0.46349999 -1.618
-0.20225 -0.54075003 -1.493
-0.95225 1.07725 0.875
-1 1 0.75
-0.85675001 1.23175 0.625
-1 1 0.25
-0.76125002 1.38625 0.375
-0.66575003 1.54075 0.125
-0.66575003 1.54075 -0.125
-0.76125002 1.38625 -0.375
-1 1 -0.25
-0.85675001 1.23175 -0.625
-0.95225 1.07725 -0.875
-1 1 -0.75
-1.07725 0.875 0.79775
-1.23175 0.625 0.39324999
-1.38625 0.375 -0.01125
-1.54075 0.125 -0.41575
1.41575 -0.077249996 -0.74299997
1.01125 -0.23175 -0.99299997
0.60675001 -0.38624999 -1.243
0.20225 -0.54075003 -1.493
1.41575 0.077249996 -0.74299997
1.01125 0.23175 -0.99299997
0.60675001 0.38624999 -1.243
0.20225 0.54075003 -1.493
1.54075 0.125 -0.66575003
1.38625 0.375 -0.76125002
0.125 0.66575003 -1.54075
0.375 0.76125002 -1.38625
1.23175 0.625 -0.85675001
0.625 0.85675001 -1.23175
0.875 0.95225 -1.07725
1.07725 0.875 -0.95225
-0.46349999 1.618 0
-0.41575 1.54075 -0.125
-0.15449999 1.618 0
-0.01125 1.38625 -0.375
0.15449999 1.618 0
0.46349999 1.618 0
0.66575003 1.54075 -0.125
0.76125002 1.38625 -0.375
0.39324999 1.23175 -0.625
0.85675001 1.23175 -0.625
0.95225 1.07725 -0.875
0.79775 1.07725 -0.875
-0.54075003 1.493 -0.20225
-0.38624999 1.243 -0.60675001
-0.23175 0.99299997 -1.01125
-0.077249996 0.74299997 -1.41575
1.07725 0.875 0.79775
1.23175 0.625 0.39324999
1.38625 0.375 -0.01125
1.54075 0.125 -0.41575
1 1 0.75
1 1 0.25
1 1 -0.25
1 1 -0.75
0.95225 1.07725 0.875
0.85675001 1.23175 0.625
0.76125002 1.38625 0.375
0.66575003 1.54075 0.125
0.077249996 0.74299997 1.41575
0.23175 0.99299997 1.01125
0.38624999 1.243 0.60675001
0.54075003 1.493 0.20225
-0.077249996 0.74299997 1.41575
-0.23175 0.99299997 1.01125
-0.38624999 1.243 0.60675001
-0.54075003 1.493 0.20225
-0.351125 -1.424875 0.3125
-0.273875 -1.424875 0.3125
-0.375 -1.38625 0.375
-0.18187501 -1.07375 0.88062501
-0.080750003 -1.112375 0.81812501
-0.119375 -1.049875 0.91925001
0.50562501 -1.049875 0.91925001
0.54425001 -1.112375 0.81812501
0.56812501 -1.07375 0.88062501
-1.38625 -0.375 -0.375
-1.424875 -0.3125 -0.273875
-1.424875 -0.3125 -0.351125
-1.049875 -0.91925001 -0.119375
-1.112375 -0.81812501 -0.080750003
-1.07375 -0.88062501 -0.18187501
-1.07375 -0.88062501 0.56812501
-1.112375 -0.81812501 0.54425001
-1.049875 -0.91925001 0.50562501
-0.91925001 0.50562501 1.049875
-0.81812501 0.54425001 1.112375
-0.88062501 0.56812501 1.07375
-0.88062501 -0.18187501 1.07375
-0.81812501 -0.080750003 1.112375
-0.91925001 -0.119375 1.049875
-0.3125 -0.351125 1.424875
-0.3125 -0.273875 1.424875
-0.375 -0.375 1.38625
0.81812501 0.54425001 1.112375
0.91925001 0.50562501 1.049875
0.88062501 0.56812501 1.07375
0.50562501 -0.038624998 1.3055
0.60675001 0 1.243
0.50562501 0.038624998 1.3055
0.88062501 -0.56812501 1.07375
0.91925001 -0.50562501 1.049875
0.81812501 -0.54425001 1.112375
0.88062501 -1.193125 -0.0625
0.88062501 -1.193125 0.0625
0.85675001 -1.23175 0
1.23175 -0.625 -0.23175
1.193125 -0.6875 -0.13062499
1.193125 -0.6875 -0.25562501
1.424875 -0.3125 0.351125
1.38625 -0.375 0.375
1.424875 -0.3125 0.273875
-0.375 -1.38625 -0.375
-0.273875 -1.424875 -0.3125
-0.351125 -1.424875 -0.3125
-0.119375 -1.049875 -0.91925001
-0.080750003 -1.112375 -0.81812501
-0.18187501 -1.07375 -0.88062501
0.56812501 -1.07375 -0.88062501
0.54425001 -1.112375 -0.81812501
0.50562501 -1.049875 -0.91925001
-0.81812501 0.54425001 -1.112375
-0.91925001 0.50562501 -1.049875
-0.88062501 0.56812501 -1.07375
-0.50562501 -0.038624998 -1.3055
-0.60675001 0 -1.243
-0.50562501 0.038624998 -1.3055
-0.88062501 -0.56812501 -1.07375
-0.91925001 -0.50562501 -1.049875
-0.81812501 -0.54425001 -1.112375
-0.88062501 1.193125 -0.0625
-0.88062501 1.193125 0.0625
-0.85675001 1.23175 0
-1.23175 0.625 -0.23175
-1.193125 0.6875 -0.13062499
-1.193125 0.6875 -0.25562501
-1.424875 0.3125 0.351125
-1.38625 0.375 0.375
-1.424875 0.3125 0.273875
0.81812501 -0.54425001 -1.112375
0.91925001 -0.50562501 -1.049875
0.88062501 -0.56812501 -1.07375
0.50562501 0.038624998 -1.3055
0.60675001 0 -1.243
0.50562501 -0.038624998 -1.3055
0.88062501 0.56812501 -1.07375
0.91925001 0.50562501 -1.049875
0.81812501 0.54425001 -1.112375
0.375 1.38625 -0.375
0.273875 1.424875 -0.3125
0.351125 1.424875 -0.3125
0.119375 1.049875 -0.91925001
0.080750003 1.112375 -0.81812501
0.18187501 1.07375 -0.88062501
-0.56812501 1.07375 -0.88062501
-0.54425001 1.112375 -0.81812501
-0.50562501 1.049875 -0.91925001
1.424875 0.3125 0.273875
1.38625 0.375 0.375
1.424875 0.3125 0.351125
1.193125 0.6875 -0.25562501
1.193125 0.6875 -0.13062499
1.23175 0.625 -0.23175
0.85675001 1.23175 0
0.88062501 1.193125 0.0625
0.88062501 1.193125 -0.0625
0.54425001 1.112375 0.81812501
0.50562501 1.049875 0.91925001
0.56812501 1.07375 0.88062501
-0.038624998 1.3055 0.50562501
0 1.243 0.60675001
0.038624998 1.3055 0.50562501
-0.56812501 1.07375 0.88062501
-0.50562501 1.049875 0.91925001
-0.54425001 1.112375 0.81812501
0.082874998 -1.502125 0.1875
0.184 -1.54075 0.125
0.160125 -1.502125 0.1875
-0.726125 -1.193125 0.6875
-0.625 -1.23175 0.625
-0.648875 -1.193125 0.6875
-0.53512502 -1.502125 0.1875
-0.43399999 -1.54075 0.125
-0.45787501 -1.502125 0.1875
0.19875 -1.314625 0.49087501
0.23737501 -1.377125 0.38975
0.29987499 -1.35325 0.42837501
-0.11025 -0.81462502 1.299875
-0.071625002 -0.87712502 1.19875
-0.0091249999 -0.85325003 1.237375
-0.61025 -1.005625 0.99087501
-0.57162499 -1.068125 0.88975
-0.50912499 -1.04425 0.92837501
0.57375002 -1.314625 0.49087501
0.54987502 -1.35325 0.42837501
0.61237502 -1.377125 0.38975
0.76475 -1.005625 0.99087501
0.74087501 -1.04425 0.92837501
0.80337501 -1.068125 0.88975
0.26475 -0.81462502 1.299875
0.24087501 -0.85325003 1.237375
0.30337501 -0.87712502 1.19875
-1.502125 -0.1875 0.082874998
-1.502125 -0.1875 0.160125
-1.54075 -0.125 0.184
-1.502125 -0.1875 -0.53512502
-1.502125 -0.1875 -0.45787501
-1.54075 -0.125 -0.43399999
-1.193125 -0.6875 -0.726125
-1.193125 -0.6875 -0.648875
-1.23175 -0.625 -0.625
-1.314625 -0.49087501 0.19875
-1.35325 -0.42837501 0.29987499
-1.377125 -0.38975 0.23737501
-1.005625 -0.99087501 -0.61025
-1.04425 -0.92837501 -0.50912499
-1.068125 -0.88975 -0.57162499
-0.81462502 -1.299875 -0.11025
-0.85325003 -1.237375 -0.0091249999
-0.87712502 -1.19875 -0.071625002
-1.314625 -0.49087501 0.57375002
-1.377125 -0.38975 0.61237502
-1.35325 -0.42837501 0.54987502
-0.81462502 -1.299875 0.26475
-0.87712502 -1.19875 0.30337501
-0.85325003 -1.237375 0.24087501
-1.005625 -0.99087501 0.76475
-1.068125 -0.88975 0.80337501
-1.04425 -0.92837501 0.74087501
-0.49087501 0.57375002 1.314625
-0.42837501 0.54987502 1.35325
-0.38975 0.61237502 1.377125
-0.99087501 0.76475 1.005625
-0.92837501 0.74087501 1.04425
-0.88975 0.80337501 1.068125
-1.299875 0.26475 0.81462502
-1.237375 0.24087501 0.85325003
-1.19875 0.30337501 0.87712502
-0.49087501 0.19875 1.314625
-0.38975 0.23737501 1.377125
-0.42837501 0.29987499 1.35325
-1.299875 -0.11025 0.81462502
-1.19875 -0.071625002 0.87712502
-1.237375 -0.0091249999 0.85325003
-0.99087501 -0.61025 1.005625
-0.88975 -0.57162499 1.068125
-0.92837501 -0.50912499 1.04425
-0.1875 0.082874998 1.502125
-0.125 0.184 1.54075
-0.1875 0.160125 1.502125
-0.6875 -0.726125 1.193125
-0.625 -0.625 1.23175
-0.6875 -0.648875 1.193125
-0.1875 -0.53512502 1.502125
-0.125 -0.43399999 1.54075
-0.1875 -0.45787501 1.502125
1.19875 0.30337501 0.87712502
1.237375 0.24087501 0.85325003
1.299875 0.26475 0.81462502
0.88975 0.80337501 1.068125
0.92837501 0.74087501 1.04425
0.99087501 0.76475 1.005625
0.38975 0.61237502 1.377125
0.42837501 0.54987502 1.35325
0.49087501 0.57375002 1.314625
1.01125 0 0.99299997
1.112375 -0.038624998 0.93049997
1.112375 0.038624998 0.93049997
0.20225 0.30899999 1.493
0.30337501 0.27037501 1.4305
0.30337501 0.34762499 1.4305
0.20225 -0.30899999 1.493
0.30337501 -0.34762499 1.4305
0.30337501 -0.27037501 1.4305
1.19875 -0.30337501 0.87712502
1.299875 -0.26475 0.81462502
1.237375 -0.24087501 0.85325003
0.38975 -0.61237502 1.377125
0.49087501 -0.57375002 1.314625
0.42837501 -0.54987502 1.35325
0.88975 -0.80337501 1.068125
0.99087501 -0.76475 1.005625
0.92837501 -0.74087501 1.04425
0.92837501 -1.115875 0.4375
0.95225 -1.07725 0.5
0.92837501 -1.115875 0.5625
0.73737502 -1.424875 -0.0625
0.76125002 -1.38625 0
0.73737502 -1.424875 0.0625
0.92837501 -1.115875 -0.5625
0.95225 -1.07725 -0.5
0.92837501 -1.115875 -0.4375
1.115875 -0.8125 0.32162499
1.115875 -0.8125 0.44662499
1.07725 -0.875 0.42275
1.115875 -0.8125 -0.67837501
1.115875 -0.8125 -0.55337501
1.07725 -0.875 -0.57725
1.424875 -0.3125 -0.48737499
1.424875 -0.3125 -0.36237499
1.38625 -0.375 -0.38624999
1.23175 -0.625 0.625
1.193125 -0.6875 0.726125
1.193125 -0.6875 0.648875
1.54075 -0.125 -0.184
1.502125 -0.1875 -0.082874998
1.502125 -0.1875 -0.160125
1.54075 -0.125 0.43399999
1.502125 -0.1875 0.53512502
1.502125 -0.1875 0.45787501
0.082874998 -1.502125 -0.1875
0.160125 -1.502125 -0.1875
0.184 -1.54075 -0.125
-0.53512502 -1.502125 -0.1875
-0.45787501 -1.502125 -0.1875
-0.43399999 -1.54075 -0.125
-0.726125 -1.193125 -0.6875
-0.648875 -1.193125 -0.6875
-0.625 -1.23175 -0.625
0.19875 -1.314625 -0.49087501
0.29987499 -1.35325 -0.42837501
0.23737501 -1.377125 -0.38975
-0.61025 -1.005625 -0.99087501
-0.50912499 -1.04425 -0.92837501
-0.57162499 -1.068125 -0.88975
-0.11025 -0.81462502 -1.299875
-0.0091249999 -0.85325003 -1.237375
-0.071625002 -0.87712502 -1.19875
0.57375002 -1.314625 -0.49087501
0.61237502 -1.377125 -0.38975
0.54987502 -1.35325 -0.42837501
0.26475 -0.81462502 -1.299875
0.30337501 -0.87712502 -1.19875
0.24087501 -0.85325003 -1.237375
0.76475 -1.005625 -0.99087501
0.80337501 -1.068125 -0.88975
0.74087501 -1.04425 -0.92837501
-1.19875 0.30337501 -0.87712502
-1.237375 0.24087501 -0.85325003
-1.299875 0.26475 -0.81462502
-0.88975 0.80337501 -1.068125
-0.92837501 0.74087501 -1.04425
-0.99087501 0.76475 -1.005625
-0.38975 0.61237502 -1.377125
-0.42837501 0.54987502 -1.35325
-0.49087501 0.57375002 -1.314625
-1.01125 0 -0.99299997
-1.112375 -0.038624998 -0.93049997
-1.112375 0.038624998 -0.93049997
-0.20225 0.30899999 -1.493
-0.30337501 0.27037501 -1.4305
-0.30337501 0.34762499 -1.4305
-0.20225 -0.30899999 -1.493
-0.30337501 -0.34762499 -1.4305
-0.30337501 -0.27037501 -1.4305
-1.19875 -0.30337501 -0.87712502
-1.299875 -0.26475 -0.81462502
-1.237375 -0.24087501 -0.85325003
-0.38975 -0.61237502 -1.377125
-0.49087501 -0.57375002 -1.314625
-0.42837501 -0.54987502 -1.35325
-0.88975 -0.80337501 -1.068125
-0.99087501 -0.76475 -1.005625
-0.92837501 -0.74087501 -1.04425
-0.92837501 1.115875 0.4375
-0.95225 1.07725 0.5
-0.92837501 1.115875 0.5625
-0.73737502 1.424875 -0.0625
-0.76125002 1.38625 0
-0.73737502 1.424875 0.0625
-0.92837501 1.115875 -0.5625
-0.95225 1.07725 -0.5
-0.92837501 1.115875 -0.4375
-1.115875 0.8125 0.32162499
-1.115875 0.8125 0.44662499
-1.07725 0.875 0.42275
-1.115875 0.8125 -0.67837501
-1.115875 0.8125 -0.55337501
-1.07725 0.875 -0.57725
-1.424875 0.3125 -0.48737499
-1.424875 0.3125 -0.36237499
-1.38625 0.375 -0.38624999
-1.23175 0.625 0.625
-1.193125 0.6875 0.726125
-1.193125 0.6875 0.648875
-1.54075 0.125 -0.184
-1.502125 0.1875 -0.082874998
-1.502125 0.1875 -0.160125
-1.54075 0.125 0.43399999
-1.502125 0.1875 0.53512502
-1.502125 0.1875 0.45787501
1.19875 -0.30337501 -0.87712502
1.237375 -0.24087501 -0.85325003
1.299875 -0.26475 -0.81462502
0.88975 -0.80337501 -1.068125
0.92837501 -0.74087501 -1.04425
0.99087501 -0.76475 -1.005625
0.38975 -0.61237502 -1.377125
0.42837501 -0.54987502 -1.35325
0.49087501 -0.57375002 -1.314625
1.01125 0 -0.99299997
1.112375 0.038624998 -0.93049997
1.112375 -0.038624998 -0.93049997
0.20225 -0.30899999 -1.493
0.30337501 -0.27037501 -1.4305
0.30337501 -0.34762499 -1.4305
0.20225 0.30899999 -1.493
0.30337501 0.34762499 -1.4305
0.30337501 0.27037501 -1.4305
1.19875 0.30337501 -0.87712502
1.299875 0.26475 -0.81462502
1.237375 0.24087501 -0.85325003
0.38975 0.61237502 -1.377125
0.49087501 0.57375002 -1.314625
0.42837501 0.54987502 -1.35325
0.88975 0.80337501 -1.068125
0.99087501 0.76475 -1.005625
0.92837501 0.74087501 -1.04425
-0.082874998 1.502125 -0.1875
-0.160125 1.502125 -0.1875
-0.184 1.54075 -0.125
0.53512502 1.502125 -0.1875
0.45787501 1.502125 -0.1875
0.43399999 1.54075 -0.125
0.726125 1.193125 -0.6875
0.648875 1.193125 -0.6875
0.625 1.23175 -0.625
-0.19875 1.314625 -0.49087501
-0.29987499 1.35325 -0.42837501
-0.23737501 1.377125 -0.38975
0.61025 1.005625 -0.99087501
0.50912499 1.04425 -0.92837501
0.57162499 1.068125 -0.88975
0.11025 0.81462502 -1.299875
0.0091249999 0.85325003 -1.237375
0.071625002 0.87712502 -1.19875
-0.57375002 1.314625 -0.49087501
-0.61237502 1.377125 -0.38975
-0.54987502 1.35325 -0.42837501
-0.26475 0.81462502 -1.299875
-0.30337501 0.87712502 -1.19875
-0.24087501 0.85325003 -1.237375
-0.76475 1.005625 -0.99087501
-0.80337501 1.068125 -0.88975
-0.74087501 1.04425 -0.92837501
1.23175 0.625 0.625
1.193125 0.6875 0.648875
1.193125 0.6875 0.726125
1.54075 0.125 0.43399999
1.502125 0.1875 0.45787501
1.502125 0.1875 0.53512502
1.54075 0.125 -0.184
1.502125 0.1875 -0.160125
1.502125 0.1875 -0.082874998
1.115875 0.8125 0.32162499
1.07725 0.875 0.42275
1.115875 0.8125 0.44662499
1.424875 0.3125 -0.48737499
1.38625 0.375 -0.38624999
1.424875 0.3125 -0.36237499
1.115875 0.8125 -0.67837501
1.07725 0.875 -0.57725
1.115875 0.8125 -0.55337501
0.92837501 1.115875 0.4375
0.92837501 1.115875 0.5625
0.95225 1.07725 0.5
0.92837501 1.115875 -0.5625
0.92837501 1.115875 -0.4375
0.95225 1.07725 -0.5
0.73737502 1.424875 -0.0625
0.73737502 1.424875 0.0625
0.76125002 1.38625 0
0.30337501 0.87712502 1.19875
0.24087501 0.85325003 1.237375
0.26475 0.81462502 1.299875
0.80337501 1.068125 0.88975
0.74087501 1.04425 0.92837501
0.76475 1.005625 0.99087501
0.61237502 1.377125 0.38975
0.54987502 1.35325 0.42837501
0.57375002 1.314625 0.49087501
0 0.99299997 1.01125
-0.038624998 0.93049997 1.112375
0.038624998 0.93049997 1.112375
0.30899999 1.493 0.20225
0.27037501 1.4305 0.30337501
0.34762499 1.4305 0.30337501
-0.30899999 1.493 0.20225
-0.34762499 1.4305 0.30337501
-0.27037501 1.4305 0.30337501
-0.30337501 0.87712502 1.19875
-0.26475 0.81462502 1.299875
-0.24087501 0.85325003 1.237375
-0.61237502 1.377125 0.38975
-0.57375002 1.314625 0.49087501
-0.54987502 1.35325 0.42837501
-0.80337501 1.068125 0.88975
-0.76475 1.005625 0.99087501
-0.74087501 1.04425 0.92837501
-0.32162499 -1.347625 0.4375
-0.22050001 -1.38625 0.375
-0.24437501 -1.347625 0.4375
-0.63062501 -1.347625 0.4375
-0.52950001 -1.38625 0.375
-0.55337501 -1.347625 0.4375
-0.226125 -1.502125 0.1875
-0.125 -1.54075 0.125
-0.148875 -1.502125 0.1875
0.04425 -1.064625 0.89537501
0.082874998 -1.127125 0.79425001
0.145375 -1.10325 0.83287501
-0.36025 -0.91012502 1.145375
-0.32162499 -0.97262502 1.04425
-0.25912499 -0.94875002 1.082875
-0.20575 -1.160125 0.74087501
-0.167125 -1.222625 0.63975
-0.104625 -1.19875 0.67837501
0.66925001 -1.160125 0.74087501
0.64537501 -1.19875 0.67837501
0.70787501 -1.222625 0.63975
0.51475 -0.91012502 1.145375
0.49087501 -0.94875002 1.082875
0.55337501 -0.97262502 1.04425
0.41925001 -1.064625 0.89537501
0.39537501 -1.10325 0.83287501
0.45787501 -1.127125 0.79425001
-1.502125 -0.1875 -0.226125
-1.502125 -0.1875 -0.148875
-1.54075 -0.125 -0.125
-1.347625 -0.4375 -0.63062501
-1.347625 -0.4375 -0.55337501
-1.38625 -0.375 -0.52950001
-1.347625 -0.4375 -0.32162499
-1.347625 -0.4375 -0.24437501
-1.38625 -0.375 -0.22050001
-1.160125 -0.74087501 -0.20575
-1.19875 -0.67837501 -0.104625
-1.222625 -0.63975 -0.167125
-0.91012502 -1.145375 -0.36025
-0.94875002 -1.082875 -0.25912499
-0.97262502 -1.04425 -0.32162499
-1.064625 -0.89537501 0.04425
-1.10325 -0.83287501 0.145375
-1.127125 -0.79425001 0.082874998
-1.064625 -0.89537501 0.41925001
-1.127125 -0.79425001 0.45787501
-1.10325 -0.83287501 0.39537501
-0.91012502 -1.145375 0.51475
-0.97262502 -1.04425 0.55337501
-0.94875002 -1.082875 0.49087501
-1.160125 -0.74087501 0.66925001
-1.222625 -0.63975 0.70787501
-1.19875 -0.67837501 0.64537501
-0.74087501 0.66925001 1.160125
-0.67837501 0.64537501 1.19875
-0.63975 0.70787501 1.222625
-1.145375 0.51475 0.91012502
-1.082875 0.49087501 0.94875002
-1.04425 0.55337501 0.97262502
-0.89537501 0.41925001 1.064625
-0.83287501 0.39537501 1.10325
-0.79425001 0.45787501 1.127125
-0.89537501 0.04425 1.064625
-0.79425001 0.082874998 1.127125
-0.83287501 0.145375 1.10325
-1.145375 -0.36025 0.91012502
-1.04425 -0.32162499 0.97262502
-1.082875 -0.25912499 0.94875002
-0.74087501 -0.20575 1.160125
-0.63975 -0.167125 1.222625
-0.67837501 -0.104625 1.19875
-0.4375 -0.32162499 1.347625
-0.375 -0.22050001 1.38625
-0.4375 -0.24437501 1.347625
-0.4375 -0.63062501 1.347625
-0.375 -0.52950001 1.38625
-0.4375 -0.55337501 1.347625
-0.1875 -0.226125 1.502125
-0.125 -0.125 1.54075
-0.1875 -0.148875 1.502125
1.04425 0.55337501 0.97262502
1.082875 0.49087501 0.94875002
1.145375 0.51475 0.91012502
0.63975 0.70787501 1.222625
0.67837501 0.64537501 1.19875
0.74087501 0.66925001 1.160125
0.79425001 0.45787501 1.127125
0.83287501 0.39537501 1.10325
0.89537501 0.41925001 1.064625
0.60675001 0.15449999 1.243
0.70787501 0.115875 1.1805
0.70787501 0.19312499 1.1805
0.20225 0 1.493
0.30337501 -0.038624998 1.4305
0.30337501 0.038624998 1.4305
0.60675001 -0.15449999 1.243
0.70787501 -0.19312499 1.1805
0.70787501 -0.115875 1.1805
0.79425001 -0.45787501 1.127125
0.89537501 -0.41925001 1.064625
0.83287501 -0.39537501 1.10325
0.63975 -0.70787501 1.222625
0.74087501 -0.66925001 1.160125
0.67837501 -0.64537501 1.19875
1.04425 -0.55337501 0.97262502
1.145375 -0.51475 0.91012502
1.082875 -0.49087501 0.94875002
0.83287501 -1.270375 0.1875
0.85675001 -1.23175 0.25
0.83287501 -1.270375 0.3125
0.83287501 -1.270375 -0.3125
0.85675001 -1.23175 -0.25
0.83287501 -1.270375 -0.1875
0.92837501 -1.115875 -0.0625
0.95225 -1.07725 0
0.92837501 -1.115875 0.0625
1.115875 -0.8125 -0.17837501
1.115875 -0.8125 -0.053374998
1.07725 -0.875 -0.077249996
1.270375 -0.5625 -0.58287501
1.270375 -0.5625 -0.45787501
1.23175 -0.625 -0.48175001
1.270375 -0.5625 -0.082874998
1.270375 -0.5625 0.042125002
1.23175 -0.625 0.01825
1.38625 -0.375 0.22050001
1.347625 -0.4375 0.32162499
1.347625 -0.4375 0.24437501
1.54075 -0.125 0.125
1.502125 -0.1875 0.226125
1.502125 -0.1875 0.148875
1.38625 -0.375 0.52950001
1.347625 -0.4375 0.63062501
1.347625 -0.4375 0.55337501
-0.226125 -1.502125 -0.1875
-0.148875 -1.502125 -0.1875
-0.125 -1.54075 -0.125
-0.63062501 -1.347625 -0.4375
-0.55337501 -1.347625 -0.4375
-0.52950001 -1.38625 -0.375
-0.32162499 -1.347625 -0.4375
-0.24437501 -1.347625 -0.4375
-0.22050001 -1.38625 -0.375
-0.20575 -1.160125 -0.74087501
-0.104625 -1.19875 -0.67837501
-0.167125 -1.222625 -0.63975
-0.36025 -0.91012502 -1.145375
-0.25912499 -0.94875002 -1.082875
-0.32162499 -0.97262502 -1.04425
0.04425 -1.064625 -0.89537501
0.145375 -1.10325 -0.83287501
0.082874998 -1.127125 -0.79425001
0.41925001 -1.064625 -0.89537501
0.45787501 -1.127125 -0.79425001
0.39537501 -1.10325 -0.83287501
0.51475 -0.91012502 -1.145375
0.55337501 -0.97262502 -1.04425
0.49087501 -0.94875002 -1.082875
0.66925001 -1.160125 -0.74087501
0.70787501 -1.222625 -0.63975
0.64537501 -1.19875 -0.67837501
-1.04425 0.55337501 -0.97262502
-1.082875 0.49087501 -0.94875002
-1.145375 0.51475 -0.91012502
-0.63975 0.70787501 -1.222625
-0.67837501 0.64537501 -1.19875
-0.74087501 0.66925001 -1.160125
-0.79425001 0.45787501 -1.127125
-0.83287501 0.39537501 -1.10325
-0.89537501 0.41925001 -1.064625
-0.60675001 0.15449999 -1.243
-0.70787501 0.115875 -1.1805
-0.70787501 0.19312499 -1.1805
-0.20225 0 -1.493
-0.30337501 -0.038624998 -1.4305
-0.30337501 0.038624998 -1.4305
-0.60675001 -0.15449999 -1.243
-0.70787501 -0.19312499 -1.1805
-0.70787501 -0.115875 -1.1805
-0.79425001 -0.45787501 -1.127125
-0.89537501 -0.41925001 -1.064625
-0.83287501 -0.39537501 -1.10325
-0.63975 -0.70787501 -1.222625
-0.74087501 -0.66925001 -1.160125
-0.67837501 -0.64537501 -1.19875
-1.04425 -0.55337501 -0.97262502
-1.145375 -0.51475 -0.91012502
-1.082875 -0.49087501 -0.94875002
-0.83287501 1.270375 0.1875
-0.85675001 1.23175 0.25
-0.83287501 1.270375 0.3125
-0.83287501 1.270375 -0.3125
-0.85675001 1.23175 -0.25
-0.83287501 1.270375 -0.1875
-0.92837501 1.115875 -0.0625
-0.95225 1.07725 0
-0.92837501 1.115875 0.0625
-1.115875 0.8125 -0.17837501
-1.115875 0.8125 -0.053374998
-1.07725 0.875 -0.077249996
-1.270375 0.5625 -0.58287501
-1.270375 0.5625 -0.45787501
-1.23175 0.625 -0.48175001
-1.270375 0.5625 -0.082874998
-1.270375 0.5625 0.042125002
-1.23175 0.625 0.01825
-1.38625 0.375 0.22050001
-1.347625 0.4375 0.32162499
-1.347625 0.4375 0.24437501
-1.54075 0.125 0.125
-1.502125 0.1875 0.226125
-1.502125 0.1875 0.148875
-1.38625 0.375 0.52950001
-1.347625 0.4375 0.63062501
-1.347625 0.4375 0.55337501
1.04425 -0.55337501 -0.97262502
1.082875 -0.49087501 -0.94875002
1.145375 -0.51475 -0.91012502
0.63975 -0.70787501 -1.222625
0.67837501 -0.64537501 -1.19875
0.74087501 -0.66925001 -1.160125
0.79425001 -0.45787501 -1.127125
0.83287501 -0.39537501 -1.10325
0.89537501 -0.41925001 -1.064625
0.60675001 -0.15449999 -1.243
0.70787501 -0.115875 -1.1805
0.70787501 -0.19312499 -1.1805
0.20225 0 -1.493
0.30337501 0.038624998 -1.4305
0.30337501 -0.038624998 -1.4305
0.60675001 0.15449999 -1.243
0.70787501 0.19312499 -1.1805
0.70787501 0.115875 -1.1805
0.79425001 0.45787501 -1.127125
0.89537501 0.41925001 -1.064625
0.83287501 0.39537501 -1.10325
0.63975 0.70787501 -1.222625
0.74087501 0.66925001 -1.160125
0.67837501 0.64537501 -1.19875
1.04425 0.55337501 -0.97262502
1.145375 0.51475 -0.91012502
1.082875 0.49087501 -0.94875002
0.226125 1.502125 -0.1875
0.148875 1.502125 -0.1875
0.125 1.54075 -0.125
0.63062501 1.347625 -0.4375
0.55337501 1.347625 -0.4375
0.52950001 1.38625 -0.375
0.32162499 1.347625 -0.4375
0.24437501 1.347625 -0.4375
0.22050001 1.38625 -0.375
0.20575 1.160125 -0.74087501
0.104625 1.19875 -0.67837501
0.167125 1.222625 -0.63975
0.36025 0.91012502 -1.145375
0.25912499 0.94875002 -1.082875
0.32162499 0.97262502 -1.04425
-0.04425 1.064625 -0.89537501
-0.145375 1.10325 -0.83287501
-0.082874998 1.127125 -0.79425001
-0.41925001 1.064625 -0.89537501
-0.45787501 1.127125 -0.79425001
-0.39537501 1.10325 -0.83287501
-0.51475 0.91012502 -1.145375
-0.55337501 0.97262502 -1.04425
-0.49087501 0.94875002 -1.082875
-0.66925001 1.160125 -0.74087501
-0.70787501 1.222625 -0.63975
-0.64537501 1.19875 -0.67837501
1.38625 0.375 0.52950001
1.347625 0.4375 0.55337501
1.347625 0.4375 0.63062501
1.54075 0.125 0.125
1.502125 0.1875 0.148875
1.502125 0.1875 0.226125
1.38625 0.375 0.22050001
1.347625 0.4375 0.24437501
1.347625 0.4375 0.32162499
1.270375 0.5625 -0.082874998
1.23175 0.625 0.01825
1.270375 0.5625 0.042125002
1.270375 0.5625 -0.58287501
1.23175 0.625 -0.48175001
1.270375 0.5625 -0.45787501
1.115875 0.8125 -0.17837501
1.07725 0.875 -0.077249996
1.115875 0.8125 -0.053374998
0.92837501 1.115875 -0.0625
0.92837501 1.115875 0.0625
0.95225 1.07725 0
0.83287501 1.270375 -0.3125
0.83287501 1.270375 -0.1875
0.85675001 1.23175 -0.25
0.83287501 1.270375 0.1875
0.83287501 1.270375 0.3125
0.85675001 1.23175 0.25
0.55337501 0.97262502 1.04425
0.49087501 0.94875002 1.082875
0.51475 0.91012502 1.145375
0.70787501 1.222625 0.63975
0.64537501 1.19875 0.67837501
0.66925001 1.160125 0.74087501
0.45787501 1.127125 0.79425001
0.39537501 1.10325 0.83287501
0.41925001 1.064625 0.89537501
0.15449999 1.243 0.60675001
0.115875 1.1805 0.70787501
0.19312499 1.1805 0.70787501
0 1.493 0.20225
-0.038624998 1.4305 0.30337501
0.038624998 1.4305 0.30337501
-0.15449999 1.243 0.60675001
-0.19312499 1.1805 0.70787501
-0.115875 1.1805 0.70787501
-0.45787501 1.127125 0.79425001
-0.41925001 1.064625 0.89537501
-0.39537501 1.10325 0.83287501
-0.70787501 1.222625 0.63975
-0.66925001 1.160125 0.74087501
-0.64537501 1.19875 0.67837501
-0.55337501 0.97262502 1.04425
-0.51475 0.91012502 1.145375
-0.49087501 0.94875002 1.082875
0.33849999 -1.54075 0.125
0.36237499 -1.579375 0.0625
0.43962499 -1.579375 0.0625
-0.066 -1.38625 0.375
-0.042125002 -1.424875 0.3125
0.035124999 -1.424875 0.3125
0.0295 -1.54075 0.125
0.053374998 -1.579375 0.0625
0.13062499 -1.579375 0.0625
-0.47049999 -1.23175 0.625
-0.44662499 -1.270375 0.5625
-0.36937499 -1.270375 0.5625
-0.875 -1.07725 0.875
-0.851125 -1.115875 0.8125
-0.773875 -1.115875 0.8125
-0.77950001 -1.23175 0.625
-0.75562501 -1.270375 0.5625
-0.67837501 -1.270375 0.5625
-0.27950001 -1.54075 0.125
-0.25562501 -1.579375 0.0625
-0.17837501 -1.579375 0.0625
-0.68400002 -1.38625 0.375
-0.66012502 -1.424875 0.3125
-0.58287501 -1.424875 0.3125
-0.58850002 -1.54075 0.125
-0.56462502 -1.579375 0.0625
-0.48737499 -1.579375 0.0625
0.43962499 -1.454375 0.26475
0.37712499 -1.47825 0.226125
0.47825 -1.516875 0.163625
0.28512499 -1.204375 0.66925001
0.222625 -1.22825 0.63062501
0.32374999 -1.266875 0.56812501
0.035124999 -1.299875 0.51475
-0.027375 -1.32375 0.476125
0.073749997 -1.362375 0.413625
0.13062499 -0.95437503 1.07375
0.068125002 -0.97825003 1.035125
0.16925 -1.016875 0.97262502
-0.023875 -0.70437503 1.47825
-0.086374998 -0.72825003 1.439625
0.01475 -0.76687503 1.377125
-0.273875 -0.79987502 1.32375
-0.336375 -0.82375002 1.285125
-0.23525 -0.86237502 1.222625
-0.36937499 -1.145375 0.76475
-0.43187499 -1.16925 0.726125
-0.33074999 -1.207875 0.663625
-0.523875 -0.89537501 1.16925
-0.586375 -0.91925001 1.130625
-0.48525 -0.95787501 1.068125
-0.773875 -0.99087501 1.01475
-0.836375 -1.01475 0.976125
-0.73525 -1.053375 0.913625
0.62712502 -1.47825 0.226125
0.56462502 -1.454375 0.26475
0.60325003 -1.516875 0.163625
0.72262502 -1.32375 0.476125
0.66012502 -1.299875 0.51475
0.69875002 -1.362375 0.413625
0.47262499 -1.22825 0.63062501
0.41012499 -1.204375 0.66925001
0.44874999 -1.266875 0.56812501
0.81812501 -1.16925 0.726125
0.75562501 -1.145375 0.76475
0.79425001 -1.207875 0.663625
0.913625 -1.01475 0.976125
0.851125 -0.99087501 1.01475
0.88975 -1.053375 0.913625
0.663625 -0.91925001 1.130625
0.601125 -0.89537501 1.16925
0.63975 -0.95787501 1.068125
0.31812501 -0.97825003 1.035125
0.25562501 -0.95437503 1.07375
0.29425001 -1.016875 0.97262502
0.413625 -0.82375002 1.285125
0.351125 -0.79987502 1.32375
0.38975 -0.86237502 1.222625
0.163625 -0.72825003 1.439625
0.101125 -0.70437503 1.47825
0.13975 -0.76687503 1.377125
-1.579375 -0.0625 0.36237499
-1.54075 -0.125 0.33849999
-1.579375 -0.0625 0.43962499
-1.579375 -0.0625 0.053374998
-1.54075 -0.125 0.0295
-1.579375 -0.0625 0.13062499
-1.424875 -0.3125 -0.042125002
-1.38625 -0.375 -0.066
-1.424875 -0.3125 0.035124999
-1.579375 -0.0625 -0.25562501
-1.54075 -0.125 -0.27950001
-1.579375 -0.0625 -0.17837501
-1.579375 -0.0625 -0.56462502
-1.54075 -0.125 -0.58850002
-1.579375 -0.0625 -0.48737499
-1.424875 -0.3125 -0.66012502
-1.38625 -0.375 -0.68400002
-1.424875 -0.3125 -0.58287501
-1.270375 -0.5625 -0.44662499
-1.23175 -0.625 -0.47049999
-1.270375 -0.5625 -0.36937499
-1.270375 -0.5625 -0.75562501
-1.23175 -0.625 -0.77950001
-1.270375 -0.5625 -0.67837501
-1.115875 -0.8125 -0.851125
-1.07725 -0.875 -0.875
-1.115875 -0.8125 -0.773875
-1.47825 -0.226125 0.37712499
-1.454375 -0.26475 0.43962499
-1.516875 -0.163625 0.47825
-1.32375 -0.476125 -0.027375
-1.299875 -0.51475 0.035124999
-1.362375 -0.413625 0.073749997
-1.22825 -0.63062501 0.222625
-1.204375 -0.66925001 0.28512499
-1.266875 -0.56812501 0.32374999
-1.16925 -0.726125 -0.43187499
-1.145375 -0.76475 -0.36937499
-1.207875 -0.663625 -0.33074999
-1.01475 -0.976125 -0.836375
-0.99087501 -1.01475 -0.773875
-1.053375 -0.913625 -0.73525
-0.91925001 -1.130625 -0.586375
-0.89537501 -1.16925 -0.523875
-0.95787501 -1.068125 -0.48525
-0.97825003 -1.035125 0.068125002
-0.95437503 -1.07375 0.13062499
-1.016875 -0.97262502 0.16925
-0.82375002 -1.285125 -0.336375
-0.79987502 -1.32375 -0.273875
-0.86237502 -1.222625 -0.23525
-0.72825003 -1.439625 -0.086374998
-0.70437503 -1.47825 -0.023875
-0.76687503 -1.377125 0.01475
-1.454375 -0.26475 0.56462502
-1.47825 -0.226125 0.62712502
-1.516875 -0.163625 0.60325003
-1.204375 -0.66925001 0.41012499
-1.22825 -0.63062501 0.47262499
-1.266875 -0.56812501 0.44874999
-1.299875 -0.51475 0.66012502
-1.32375 -0.476125 0.72262502
-1.362375 -0.413625 0.69875002
-0.95437503 -1.07375 0.25562501
-0.97825003 -1.035125 0.31812501
-1.016875 -0.97262502 0.29425001
-0.70437503 -1.47825 0.101125
-0.72825003 -1.439625 0.163625
-0.76687503 -1.377125 0.13975
-0.79987502 -1.32375 0.351125
-0.82375002 -1.285125 0.413625
-0.86237502 -1.222625 0.38975
-1.145375 -0.76475 0.75562501
-1.16925 -0.726125 0.81812501
-1.207875 -0.663625 0.79425001
-0.89537501 -1.16925 0.601125
-0.91925001 -1.130625 0.663625
-0.95787501 -1.068125 0.63975
-0.99087501 -1.01475 0.851125
-1.01475 -0.976125 0.913625
-1.053375 -0.913625 0.88975
-0.226125 0.62712502 1.47825
-0.26475 0.56462502 1.454375
-0.163625 0.60325003 1.516875
-0.476125 0.72262502 1.32375
-0.51475 0.66012502 1.299875
-0.413625 0.69875002 1.362375
-0.63062501 0.47262499 1.22825
-0.66925001 0.41012499 1.204375
-0.56812501 0.44874999 1.266875
-0.726125 0.81812501 1.16925
-0.76475 0.75562501 1.145375
-0.663625 0.79425001 1.207875
-0.976125 0.913625 1.01475
-1.01475 0.851125 0.99087501
-0.913625 0.88975 1.053375
-1.130625 0.663625 0.91925001
-1.16925 0.601125 0.89537501
-1.068125 0.63975 0.95787501
-1.035125 0.31812501 0.97825003
-1.07375 0.25562501 0.95437503
-0.97262502 0.29425001 1.016875
-1.285125 0.413625 0.82375002
-1.32375 0.351125 0.79987502
-1.222625 0.38975 0.86237502
-1.439625 0.163625 0.72825003
-1.47825 0.101125 0.70437503
-1.377125 0.13975 0.76687503
-0.26475 0.43962499 1.454375
-0.226125 0.37712499 1.47825
-0.163625 0.47825 1.516875
-0.66925001 0.28512499 1.204375
-0.63062501 0.222625 1.22825
-0.56812501 0.32374999 1.266875
-0.51475 0.035124999 1.299875
-0.476125 -0.027375 1.32375
-0.413625 0.073749997 1.362375
-1.07375 0.13062499 0.95437503
-1.035125 0.068125002 0.97825003
-0.97262502 0.16925 1.016875
-1.47825 -0.023875 0.70437503
-1.439625 -0.086374998 0.72825003
-1.377125 0.01475 0.76687503
-1.32375 -0.273875 0.79987502
-1.285125 -0.336375 0.82375002
-1.222625 -0.23525 0.86237502
-0.76475 -0.36937499 1.145375
-0.726125 -0.43187499 1.16925
-0.663625 -0.33074999 1.207875
-1.16925 -0.523875 0.89537501
-1.130625 -0.586375 0.91925001
-1.068125 -0.48525 0.95787501
-1.01475 -0.773875 0.99087501
-0.976125 -0.836375 1.01475
-0.913625 -0.73525 1.053375
-0.125 0.33849999 1.54075
-0.0625 0.36237499 1.579375
-0.0625 0.43962499 1.579375
-0.375 -0.066 1.38625
-0.3125 -0.042125002 1.424875
-0.3125 0.035124999 1.424875
-0.125 0.0295 1.54075
-0.0625 0.053374998 1.579375
-0.0625 0.13062499 1.579375
-0.625 -0.47049999 1.23175
-0.5625 -0.44662499 1.270375
-0.5625 -0.36937499 1.270375
-0.875 -0.875 1.07725
-0.8125 -0.851125 1.115875
-0.8125 -0.773875 1.115875
-0.625 -0.77950001 1.23175
-0.5625 -0.75562501 1.270375
-0.5625 -0.67837501 1.270375
-0.125 -0.27950001 1.54075
-0.0625 -0.25562501 1.579375
-0.0625 -0.17837501 1.579375
-0.375 -0.68400002 1.38625
-0.3125 -0.66012502 1.424875
-0.3125 -0.58287501 1.424875
-0.125 -0.58850002 1.54075
-0.0625 -0.56462502 1.579375
-0.0625 -0.48737499 1.579375
1.439625 0.163625 0.72825003
1.377125 0.13975 0.76687503
1.47825 0.101125 0.70437503
1.285125 0.413625 0.82375002
1.222625 0.38975 0.86237502
1.32375 0.351125 0.79987502
1.035125 0.31812501 0.97825003
0.97262502 0.29425001 1.016875
1.07375 0.25562501 0.95437503
1.130625 0.663625 0.91925001
1.068125 0.63975 0.95787501
1.16925 0.601125 0.89537501
0.976125 0.913625 1.01475
0.913625 0.88975 1.053375
1.01475 0.851125 0.99087501
0.726125 0.81812501 1.16925
0.663625 0.79425001 1.207875
0.76475 0.75562501 1.145375
0.63062501 0.47262499 1.22825
0.56812501 0.44874999 1.266875
0.66925001 0.41012499 1.204375
0.476125 0.72262502 1.32375
0.413625 0.69875002 1.362375
0.51475 0.66012502 1.299875
0.226125 0.62712502 1.47825
0.163625 0.60325003 1.516875
0.26475 0.56462502 1.454375
1.314625 0.038624998 0.80549997
1.314625 -0.038624998 0.80549997
1.41575 0 0.74299997
0.91012502 0.19312499 1.0555
0.91012502 0.115875 1.0555
1.01125 0.15449999 0.99299997
0.91012502 -0.115875 1.0555
0.91012502 -0.19312499 1.0555
1.01125 -0.15449999 0.99299997
0.50562501 0.34762499 1.3055
0.50562501 0.27037501 1.3055
0.60675001 0.30899999 1.243
0.101125 0.50212502 1.5555
0.101125 0.42487499 1.5555
0.20225 0.46349999 1.493
0.101125 0.19312499 1.5555
0.101125 0.115875 1.5555
0.20225 0.15449999 1.493
0.50562501 -0.27037501 1.3055
0.50562501 -0.34762499 1.3055
0.60675001 -0.30899999 1.243
0.101125 -0.115875 1.5555
0.101125 -0.19312499 1.5555
0.20225 -0.15449999 1.493
0.101125 -0.42487499 1.5555
0.101125 -0.50212502 1.5555
0.20225 -0.46349999 1.493
1.377125 -0.13975 0.76687503
1.439625 -0.163625 0.72825003
1.47825 -0.101125 0.70437503
0.97262502 -0.29425001 1.016875
1.035125 -0.31812501 0.97825003
1.07375 -0.25562501 0.95437503
1.222625 -0.38975 0.86237502
1.285125 -0.413625 0.82375002
1.32375 -0.351125 0.79987502
0.56812501 -0.44874999 1.266875
0.63062501 -0.47262499 1.22825
0.66925001 -0.41012499 1.204375
0.163625 -0.60325003 1.516875
0.226125 -0.62712502 1.47825
0.26475 -0.56462502 1.454375
0.413625 -0.69875002 1.362375
0.476125 -0.72262502 1.32375
0.51475 -0.66012502 1.299875
1.068125 -0.63975 0.95787501
1.130625 -0.663625 0.91925001
1.16925 -0.601125 0.89537501
0.663625 -0.79425001 1.207875
0.726125 -0.81812501 1.16925
0.76475 -0.75562501 1.145375
0.913625 -0.88975 1.053375
0.976125 -0.913625 1.01475
1.01475 -0.851125 0.99087501
0.95225 -1.07725 0.75
0.976125 -1.038625 0.6875
0.976125 -1.038625 0.8125
0.85675001 -1.23175 0.5
0.88062501 -1.193125 0.4375
0.88062501 -1.193125 0.5625
0.95225 -1.07725 0.25
0.976125 -1.038625 0.1875
0.976125 -1.038625 0.3125
0.76125002 -1.38625 0.25
0.78512502 -1.347625 0.1875
0.78512502 -1.347625 0.3125
0.66575003 -1.54075 0
0.68962502 -1.502125 -0.0625
0.68962502 -1.502125 0.0625
0.76125002 -1.38625 -0.25
0.78512502 -1.347625 -0.3125
0.78512502 -1.347625 -0.1875
0.95225 -1.07725 -0.25
0.976125 -1.038625 -0.3125
0.976125 -1.038625 -0.1875
0.85675001 -1.23175 -0.5
0.88062501 -1.193125 -0.5625
0.88062501 -1.193125 -0.4375
0.95225 -1.07725 -0.75
0.976125 -1.038625 -0.8125
0.976125 -1.038625 -0.6875
1.038625 -0.9375 0.648875
1.07725 -0.875 0.67275
1.038625 -0.9375 0.773875
1.038625 -0.9375 0.148875
1.07725 -0.875 0.17275
1.038625 -0.9375 0.273875
1.193125 -0.6875 0.24437501
1.23175 -0.625 0.26824999
1.193125 -0.6875 0.36937499
1.038625 -0.9375 -0.351125
1.07725 -0.875 -0.32725
1.038625 -0.9375 -0.226125
1.038625 -0.9375 -0.851125
1.07725 -0.875 -0.82725
1.038625 -0.9375 -0.726125
1.193125 -0.6875 -0.75562501
1.23175 -0.625 -0.73175001
1.193125 -0.6875 -0.63062501
1.347625 -0.4375 -0.160125
1.38625 -0.375 -0.13625
1.347625 -0.4375 -0.035124999
1.347625 -0.4375 -0.66012502
1.38625 -0.375 -0.63625002
1.347625 -0.4375 -0.53512502
1.502125 -0.1875 -0.56462502
1.54075 -0.125 -0.54075003
1.502125 -0.1875 -0.43962499
1.115875 -0.8125 0.773875
1.115875 -0.8125 0.851125
1.07725 -0.875 0.875
1.270375 -0.5625 0.36937499
1.270375 -0.5625 0.44662499
1.23175 -0.625 0.47049999
1.270375 -0.5625 0.67837501
1.270375 -0.5625 0.75562501
1.23175 -0.625 0.77950001
1.424875 -0.3125 -0.035124999
1.424875 -0.3125 0.042125002
1.38625 -0.375 0.066
1.579375 -0.0625 -0.43962499
1.579375 -0.0625 -0.36237499
1.54075 -0.125 -0.33849999
1.579375 -0.0625 -0.13062499
1.579375 -0.0625 -0.053374998
1.54075 -0.125 -0.0295
1.424875 -0.3125 0.58287501
1.424875 -0.3125 0.66012502
1.38625 -0.375 0.68400002
1.579375 -0.0625 0.17837501
1.579375 -0.0625 0.25562501
1.54075 -0.125 0.27950001
1.579375 -0.0625 0.48737499
1.579375 -0.0625 0.56462502
1.54075 -0.125 0.58850002
0.36237499 -1.579375 -0.0625
0.33849999 -1.54075 -0.125
0.43962499 -1.579375 -0.0625
0.053374998 -1.579375 -0.0625
0.0295 -1.54075 -0.125
0.13062499 -1.579375 -0.0625
-0.042125002 -1.424875 -0.3125
-0.066 -1.38625 -0.375
0.035124999 -1.424875 -0.3125
-0.25562501 -1.579375 -0.0625
-0.27950001 -1.54075 -0.125
-0.17837501 -1.579375 -0.0625
-0.56462502 -1.579375 -0.0625
-0.58850002 -1.54075 -0.125
-0.48737499 -1.579375 -0.0625
-0.66012502 -1.424875 -0.3125
-0.68400002 -1.38625 -0.375
-0.58287501 -1.424875 -0.3125
-0.44662499 -1.270375 -0.5625
-0.47049999 -1.23175 -0.625
-0.36937499 -1.270375 -0.5625
-0.75562501 -1.270375 -0.5625
