# .PCD v0.7 - Point Cloud Data file format
VERSION 0.7
FIELDS x y z
SIZE 4 4 4
TYPE F F F
COUNT 1 1 1
WIDTH 1550
HEIGHT 1
VIEWPOINT 0 0 0 1 0 0 0
POINTS 1550
DATA ascii
0.56976902 2.4562802 -4.2529736
0.60241282 2.4298456 -4.1881418
0.57083154 2.4674067 -4.1284766
0.70034409 2.3505416 -3.9936464
0.73298776 2.3241072 -3.9288146
0.70140648 2.3616683 -3.8691494
0.95158994 2.0889144 -4.0887585
0.95265245 2.1000409 -3.9642615
0.90048516 2.1496887 -3.9922228
1.1560094 1.8458164 -4.4749017
1.1570718 1.8569429 -4.3504047
1.1049045 1.9065909 -4.378366
1.1602591 1.8903229 -3.9769142
1.1613215 1.9014496 -3.8524172
1.1091542 1.9510974 -3.8803782
1.3187239 1.7619995 -3.6621969
1.2676189 1.8227739 -3.565661
1.2669647 1.8159006 -3.6426058
1.5257605 1.5463949 -3.7405612
1.4746556 1.6071695 -3.6440253
1.4740014 1.600296 -3.7209702
1.321341 1.7894928 -3.354418
1.2702363 1.8502674 -3.2578821
1.269582 1.843394 -3.3348269
1.7496356 3.0038209 -2.4900382
1.8248237 2.9861007 -2.4890985
1.862731 3.0446405 -2.455868
1.2972538 2.840543 -2.626719
1.372442 2.8228226 -2.6257794
1.4103492 2.8813627 -2.5925488
1.5980065 2.7696612 -2.6229601
1.6731946 2.7519407 -2.6220205
1.711102 2.8104806 -2.5887899
1.6395622 2.4323378 -2.781425
1.7526577 2.4731574 -2.7472548
1.7008984 2.5270584 -2.7276635
1.3942173 2.0534554 -2.9964702
1.5073127 2.0942748 -2.9623001
1.4555535 2.148176 -2.942709
1.846599 2.2167332 -2.8597894
1.9596944 2.2575526 -2.8256192
1.9079351 2.3114538 -2.8060279
2.2115667 2.1307259 -2.8552098
2.272903 2.2254465 -2.8014488
2.2030063 2.2002144 -2.8225663
2.2458086 1.8527714 -2.985785
2.3071449 1.947492 -2.9320235
2.2372482 1.92226 -2.9531412
2.4911535 2.2316539 -2.7707398
2.5524898 2.3263745 -2.7169783
2.4825931 2.3011425 -2.738096
3.2890155 3.4485345 -3.307225
3.3205967 3.4109733 -3.36689
3.3578498 3.4626398 -3.4106042
3.0136781 3.3921132 -2.8937078
3.0452595 3.3545518 -2.9533727
3.0825126 3.4062185 -2.997087
3.1400037 3.241868 -3.1323681
3.1715851 3.2043066 -3.1920333
3.208838 3.2559733 -3.2357473
3.0539262 2.8784022 -3.0991569
3.1227603 2.8925076 -3.2025361
3.1141999 2.9619963 -3.1698923
2.8128309 2.5440264 -2.8162146
2.8816652 2.5581317 -2.9195938
2.8731046 2.6276205 -2.88695
3.0881681 2.6004479 -3.2297318
3.1570024 2.6145532 -3.333111
3.1484418 2.6840417 -3.3004673
3.2414827 2.4181244 -3.5193391
3.3017564 2.5017183 -3.5900745
3.259212 2.4930043 -3.5261827
3.1705649 2.1186051 -3.4919651
3.2308388 2.202199 -3.5627005
3.1882944 2.1934848 -3.4988084
3.4116602 2.452981 -3.7749074
3.4719341 2.5365748 -3.8456428
3.4293897 2.5278606 -3.7817509
2.9692044 2.0192823 -4.6644735
3.0128112 2.0391231 -4.6038685
3.0220261 1.9765078 -4.5595675
2.7579181 2.1903801 -5.0840969
2.8015251 2.2102208 -5.0234919
2.8107398 2.1476057 -4.9791908
2.9323454 2.2697432 -4.8416772
2.9759521 2.2895842 -4.7810726
2.985167 2.2269688 -4.7367716
3.0184231 2.633209 -4.8748884
3.0712445 2.5904346 -4.7699828
3.0333371 2.5318947 -4.8032136
2.9587655 3.0384669 -5.1615896
3.0115871 2.9956925 -5.056684
2.97368 2.9371524 -5.0899143
3.1700521 2.8673689 -4.7419667
3.2228737 2.8245945 -4.6370611
3.1849663 2.7660546 -4.6702914
3.381705 2.963685 -4.4477801
3.3966193 2.8623705 -4.3761048
3.3639755 2.8888052 -4.4409366
3.4526229 3.2632043 -4.4751539
3.4675369 3.16189 -4.4034786
3.4348931 3.1883245 -4.4683104
3.51228 2.8579464 -4.1884527
3.5271945 2.7566321 -4.1167774
3.4945507 2.7830667 -4.1816096
1.8838201 1.6515484 -4.7147369
1.9533087 1.6725271 -4.7411714
2.005476 1.622879 -4.7132101
1.3971964 1.7662247 -4.7208424
1.4666851 1.7872034 -4.7472773
1.5188524 1.7375556 -4.719316
1.6751509 1.8501396 -4.826581
1.7446395 1.8711183 -4.8530159
1.7968068 1.8214705 -4.8250546
1.6304079 2.154083 -5.0416069
1.7520639 2.1254139 -5.0400805
1.7148108 2.0737474 -4.9963665
1.2927963 2.4754262 -5.2225695
1.4144521 2.4467568 -5.2210431
1.3771992 2.3950903 -5.1773291
1.7794198 2.3607497 -5.216464
1.9010757 2.3320804 -5.2149372
1.8638227 2.2804139 -5.1712232
2.1167431 2.4625878 -5.3447876
2.2011461 2.3822522 -5.2995467
2.125958 2.3999727 -5.3004866
2.0798841 2.7130489 -5.5219908
2.1642871 2.6327133 -5.4767504
2.0890989 2.6504338 -5.4776902
2.4174957 2.391706 -5.3410282
2.5018988 2.3113701 -5.2957878
2.4267106 2.3290908 -5.2967272
0.58833969 3.547019 -4.2250929
0.57061028 3.4721394 -4.2182493
0.52806592 3.4634252 -4.154357
0.82943511 3.8813949 -4.5080347
0.81170559 3.8065152 -4.5011916
0.76916111 3.797801 -4.4372993
0.75851727 3.5818756 -4.4806609
0.74078786 3.5069957 -4.4738173
0.6982435 3.4982817 -4.4099255
0.91183186 3.3995521 -4.7702684
0.85155809 3.3159583 -4.6995325
0.84299755 3.3854468 -4.6668892
1.1871692 3.4559736 -5.1837854
1.1268954 3.3723795 -5.11305
1.1183349 3.4418683 -5.0804062
0.94607377 3.1215978 -4.9008431
0.88580012 3.0380037 -4.8301077
0.87723958 3.1074924 -4.7974639
0.85999632 2.758132 -4.8676319
0.79116213 2.7440267 -4.7642527
0.82841504 2.7956934 -4.8079667
0.98632181 2.6078868 -5.1062922
0.91748738 2.5937815 -5.002913
0.95474041 2.6454482 -5.046627
0.71098447 2.5514655 -4.6927748
0.64215016 2.5373602 -4.5893955
0.67940319 2.5890267 -4.63311
1.1892602 3.8523943 -3.0208092
1.198475 3.7897792 -2.9765081
1.2420819 3.8096199 -2.9159033
0.97797394 4.0234923 -3.4404323
0.9871887 3.9608769 -3.3961313
1.0307955 3.9807177 -3.3355265
1.014833 3.7730312 -3.2632284
1.0240479 3.7104158 -3.2189274
1.0676546 3.7302568 -3.1583228
0.83082426 3.4888694 -3.4245124
0.88364577 3.446095 -3.3196068
0.90137529 3.5209746 -3.3264501
0.54862022 3.3604479 -3.8167615
0.60144186 3.3176734 -3.7118556
0.61917126 3.3925533 -3.7186992
0.75990665 3.1893501 -3.3971384
0.81272829 3.1465755 -3.2922325
0.83045769 3.2214553 -3.2990761
0.80464959 2.8854065 -3.1821125
0.87520051 2.9175119 -3.0840502
0.84255683 2.9439466 -3.1488819
0.6530205 2.6512465 -3.3150344
0.72357154 2.683352 -3.2169721
0.69092786 2.7097867 -3.2818038
0.93522453 2.7796681 -2.9227853
1.0057756 2.8117733 -2.824723
0.97313178 2.838208 -2.8895547
2.5896506 3.1186373 -5.4074512
2.627558 3.1771774 -5.3742208
2.7027462 3.159457 -5.373281
2.137269 2.9553595 -5.5441322
2.1751761 3.0138993 -5.5109015
2.2503645 2.9961791 -5.5099621
2.288898 3.1895194 -5.4112101
2.3268054 3.2480593 -5.3779793
2.4019935 3.2303388 -5.3770399
2.0376523 3.4511468 -5.3160982
2.1507478 3.4919662 -5.2819276
2.1593082 3.4224777 -5.3145714
1.5510286 3.5658233 -5.3222036
1.664124 3.6066427 -5.2880335
1.6726846 3.5371542 -5.3206773
2.0034103 3.7291012 -5.185523
2.1165056 3.7699208 -5.1513529
2.1250663 3.7004321 -5.1839967
2.1874189 4.0132627 -5.0242391
2.3090749 3.9845939 -5.0227127
2.2391782 3.959362 -5.0438299
1.9803822 4.2288675 -4.9458747
2.1020381 4.2001982 -4.9443483
2.0321414 4.1749663 -4.9654655
2.467006 4.1141911 -4.9397688
2.5886617 4.0855217 -4.9382424
2.518765 4.0602899 -4.9593601
1.9577152 4.4767752 -3.5999806
1.8882265 4.4557962 -3.5735459
1.8888808 4.4626698 -3.4966013
2.2330525 4.5331964 -4.0134978
2.1635637 4.512218 -3.9870634
2.1642182 4.5190911 -3.9101186
1.9550979 4.4492817 -3.9077594
1.8856094 4.4283028 -3.8813248
1.8862636 4.4351764 -3.8043799
1.7434449 4.3529654 -4.2019463
1.6746106 4.3388605 -4.098567
1.7445073 4.3640924 -4.0774493
1.7391952 4.3084593 -4.699934
1.670361 4.2943535 -4.5965543
1.7402577 4.3195858 -4.5754371
1.463858 4.2520375 -4.2864165
1.3950238 4.2379322 -4.1830373
1.4649205 4.2631645 -4.1619196
1.1265347 4.1501994 -4.158093
1.1275971 4.1613259 -4.033596
1.1701415 4.1700401 -4.0974884
0.95210743 4.0708361 -4.4005122
0.95316982 4.0819626 -4.2760153
0.99571431 4.0906773 -4.3399076
0.95635712 4.1153431 -3.9025247
0.95741951 4.1264696 -3.778028
0.99996388 4.1351833 -3.8419199
3.4291685 3.5325933 -3.8715234
3.3975873 3.5701544 -3.8118582
3.4302311 3.5437198 -3.7470264
3.4249191 3.4880867 -4.3695111
3.3933377 3.5256479 -4.3098459
3.4259813 3.4992132 -4.2450142
3.2985935 3.6383317 -4.1308503
3.2670121 3.6758928 -4.0711851
3.2996559 3.6494584 -4.0063534
3.0453849 3.879339 -4.2665725
3.0464473 3.8904657 -4.1420755
3.0982065 3.8365645 -4.1616669
2.8340983 4.050437 -4.6861954
2.8351607 4.0615635 -4.5616989
2.88692 4.0076623 -4.5812898
2.8383482 4.0949435 -4.1882081
2.8394103 4.10607 -4.0637112
2.8911695 4.0521688 -4.0833025
2.6850333 4.277267 -3.8986006
2.737855 4.2344923 -3.793695
2.7372007 4.2276192 -3.8706396
2.4763641 4.4758582 -4.0104451
2.5291858 4.433084 -3.9055393
2.5285316 4.4262104 -3.9824839
2.6876507 4.3047605 -3.5908217
2.7404721 4.2619858 -3.4859161
2.7398179 4.2551126 -3.5628607
2.8312666 3.6678457 -2.9019749
2.7940137 3.6161792 -2.8582606
2.8461809 3.5665312 -2.8302996
2.7716093 4.0731039 -3.1886761
2.7343564 4.0214372 -3.1449618
2.7865238 3.9717891 -3.1170008
2.6225975 3.8664372 -3.0138192
2.5853446 3.8147705 -2.9701052
2.6375117 3.7651227 -2.9421439
2.2576299 3.9524446 -3.0183988
2.2725441 3.85113 -2.9467235
2.3420327 3.8721087 -2.9731579
1.9200181 4.2737875 -3.1993613
1.9349325 4.172473 -3.127686
2.004421 4.1934519 -3.1541207
1.9796754 3.8685298 -2.9126601
1.9945897 3.7672153 -2.8409848
2.0640783 3.7881939 -2.8674195
1.7988539 3.6177478 -2.7004533
1.8832569 3.5374122 -2.6552126
1.874042 3.6000273 -2.6995137
1.4981014 3.6886299 -2.7042122
1.5825043 3.608294 -2.6589715
1.5732895 3.6709092 -2.7032726
1.835713 3.3672867 -2.5232496
1.9201159 3.2869511 -2.478009
1.9109012 3.3495662 -2.5223098
2.5280509 1.6632024 -4.6620064
2.5273964 1.656329 -4.7389512
2.5968852 1.6773078 -4.7653856
2.2527137 1.606781 -4.2484894
2.2520592 1.5999076 -4.3254337
2.321548 1.6208863 -4.3518686
2.2500963 1.5792876 -4.5562677
2.2494421 1.5724143 -4.6332126
2.3189306 1.593393 -4.659647
1.9773763 1.5503595 -3.8349719
1.976722 1.5434862 -3.9119165
2.0462105 1.5644649 -3.9383512
1.7020391 1.4939382 -3.4214547
1.7013848 1.4870648 -3.4983993
1.7708734 1.5080435 -3.5248339
1.6994219 1.4664447 -3.7292333
1.6987675 1.4595714 -3.8061781
1.7682562 1.4805501 -3.8326128
1.9721419 1.4953728 -4.4505296
1.9714876 1.4884994 -4.5274744
2.0409763 1.5094781 -4.5539088
1.6968048 1.4389514 -4.0370121
1.6961503 1.4320779 -4.1139569
1.7656391 1.4530567 -4.1403913
1.6941874 1.4114579 -4.3447909
1.6935332 1.4045846 -4.4217358
1.7630218 1.4255633 -4.4481702
2.6684985 1.7205398 -4.5428267
2.5986018 1.6953079 -4.5639443
2.6674361 1.7094132 -4.6673236
2.6727481 1.7650462 -4.0448389
2.6028514 1.7398143 -4.0659566
2.6716857 1.7539196 -4.1693358
2.3931613 1.6641184 -4.1293092
2.3232646 1.6388863 -4.1504269
2.3920989 1.6529918 -4.2538061
2.6769977 1.8095529 -3.5468516
2.607101 1.784321 -3.5679691
2.6759353 1.7984263 -3.6713483
2.6812475 1.8540595 -3.0488639
2.6113508 1.8288275 -3.0699816
2.6801851 1.8429329 -3.1733608
2.4016604 1.7531315 -3.1333342
2.3317637 1.7278996 -3.1544518
2.400598 1.7420049 -3.2578311
2.1178241 1.6076969 -3.7157922
2.0479274 1.5824651 -3.7369096
2.1167617 1.5965703 -3.8402889
2.1220737 1.6522036 -3.2178044
2.052177 1.6269716 -3.2389221
2.1210113 1.6410769 -3.3423014
1.8424869 1.5512755 -3.3022747
1.7725902 1.5260435 -3.3233924
1.8414245 1.540149 -3.4267716
2.8234839 1.7632002 -4.6494932
2.7809396 1.7544858 -4.5856009
2.7798772 1.7433592 -4.7100983
2.9979112 1.8425632 -4.407074
2.9553668 1.833849 -4.3431816
2.9543045 1.8227224 -4.4676785
2.8277335 1.8077066 -4.1515055
2.7851892 1.7989924 -4.0876136
2.7841268 1.7878659 -4.2121105
3.1723385 1.9219263 -4.1646543
3.1297941 1.9132121 -4.1007624
3.1287317 1.9020854 -4.2252593
3.3467658 2.0012894 -3.922235
3.3042212 1.9925752 -3.8583431
3.3031588 1.9814485 -3.9828401
3.1765881 1.9664328 -3.666667
3.1340437 1.9577187 -3.6027749
3.1329813 1.9465921 -3.7272718
2.8319833 1.8522131 -3.653518
2.789439 1.8434991 -3.5896261
2.7883766 1.8323724 -3.7141228
3.0064106 1.9315764 -3.4110987
2.9638662 1.9228622 -3.3472066
2.9628038 1.9117355 -3.4717035
2.8362329 1.8967198 -3.1555305
2.7936885 1.8880057 -3.0916383
2.7926261 1.876879 -3.2161353
0.73936224 2.3908668 -3.1818333
0.77094352 2.3533056 -3.2414985
0.77200592 2.3644323 -3.1170015
0.6087873 2.4966054 -3.4411604
0.64036858 2.4590442 -3.5008254
0.64143097 2.4701707 -3.3763287
0.73511255 2.3463602 -3.6798208
0.76669395 2.308799 -3.739486
0.76775634 2.3199258 -3.614989
0.47821224 2.602344 -3.7004876
0.50979352 2.5647826 -3.7601526
0.51085603 2.5759094 -3.6356556
0.3476373 2.7080824 -3.9598145
0.37921858 2.6705213 -4.0194798
0.38028109 2.6816478 -3.8949828
0.47396266 2.5578375 -4.1984749
0.50554407 2.5202761 -4.2581401
0.50660634 2.5314026 -4.1336432
0.73086298 2.3018537 -4.1778083
0.76244426 2.2642925 -4.2374735
0.76350677 2.2754192 -4.1129766
0.60028803 2.4075923 -4.4371357
0.63186932 2.3700309 -4.4968004
0.63293171 2.3811576 -4.372304
0.72661328 2.2573471 -4.675796
0.75819468 2.2197859 -4.7354612
0.75925708 2.2309124 -4.6109643
0.85469222 2.2660966 -3.2732024
0.9068594 2.2164488 -3.2452414
0.85575461 2.2772231 -3.1487055
0.85044253 2.2215898 -3.7711899
0.90260983 2.1719422 -3.7432289
0.85150504 2.2327166 -3.6466932
1.0591116 2.0229986 -3.6593456
1.1112789 1.9733508 -3.6313846
1.0601741 2.0341253 -3.5348487
0.84619296 2.1770833 -4.2691774
0.89836025 2.1274354 -4.2412167
0.84725523 2.18821 -4.1446805
0.84194326 2.1325769 -4.7671652
0.89411068 2.0829289 -4.7392039
0.84300566 2.1437035 -4.6426682
1.0506124 1.9339854 -4.6553206
1.1027799 1.8843377 -4.6273599
1.0516748 1.945112 -4.5308237
1.2635312 1.7799007 -4.0454888
1.3156985 1.7302529 -4.0175276
1.2645936 1.7910273 -3.9209919
1.2592816 1.735394 -4.5434766
1.3114489 1.6857462 -4.5155153
1.260344 1.7465208 -4.4189796
1.4679508 1.5368026 -4.431632
1.520118 1.4871548 -4.4036708
1.4690132 1.5479293 -4.3071351
0.95968103 2.1736741 -3.1403356
0.96033549 2.1805475 -3.0633907
0.90857625 2.2344487 -3.0437999
1.1641005 1.9305763 -3.5264788
1.1647549 1.9374496 -3.4495339
1.1129956 1.9913508 -3.4299431
1.1667178 1.9580697 -3.2186999
1.1673721 1.9649429 -3.1417553
1.115613 2.0188441 -3.1221642
1.3685201 1.6874783 -3.912622
1.3691745 1.6943517 -3.8356771
1.3174152 1.7482529 -3.8160861
1.5729396 1.4443804 -4.2987652
1.573594 1.4512538 -4.2218204
1.5218349 1.5051548 -4.2022295
1.5755569 1.4718738 -3.9909863
1.5762112 1.4787471 -3.9140418
1.524452 1.5326483 -3.8944507
1.3737545 1.7424651 -3.2970643
1.374409 1.7493385 -3.2201197
1.3226496 1.8032396 -3.2005286
1.5781741 1.4993672 -3.6832075
1.5788283 1.5062405 -3.6062629
1.5270692 1.5601416 -3.5866718
1.5807914 1.5268607 -3.3754289
1.5814456 1.5337341 -3.2984843
1.5296865 1.5876352 -3.278893
2.3517671 2.9968576 -2.4169991
2.3138599 2.9383175 -2.4502296
2.4269552 2.9791369 -2.4160595
2.0510144 3.0677395 -2.4207582
2.0131073 3.0091996 -2.4539886
2.1262026 3.050019 -2.4198184
1.8993855 2.8335795 -2.5536799
1.8614782 2.7750394 -2.5869105
1.9745736 2.8158591 -2.5527403
1.750262 3.1386216 -2.4245169
1.7123547 3.0800815 -2.4577475
1.8254502 3.1209011 -2.4235773
1.4495094 3.2095037 -2.4282758
1.4116021 3.1509635 -2.4615064
1.5246975 3.191783 -2.4273362
1.2978803 2.9753437 -2.5611978
1.2599732 2.9168036 -2.5944283
1.3730683 2.957623 -2.5602582
1.4470038 2.6703017 -2.6903608
1.4090965 2.6117616 -2.7235913
1.522192 2.6525812 -2.6894212
1.1462512 2.7411838 -2.6941197
1.1083438 2.6826437 -2.7273502
1.2214394 2.7234631 -2.6931801
0.99462199 2.5070238 -2.8270416
0.95671487 2.4484837 -2.8602722
1.0698102 2.4893031 -2.826102
2.3277118 2.8258762 -2.5030513
2.3794711 2.7719753 -2.5226424
2.4408071 2.8666959 -2.4688811
1.8753302 2.6625984 -2.6397321
1.9270892 2.6086974 -2.6593232
1.9884255 2.703418 -2.605562
2.0823669 2.4469938 -2.7180965
2.1341259 2.3930929 -2.7376876
2.1954622 2.4878135 -2.6839263
1.4229485 2.4993205 -2.776413
1.4747076 2.4454193 -2.7960041
1.5360439 2.5401402 -2.7422428
0.97056675 2.3360426 -2.9130938
1.022326 2.2821414 -2.9326849
1.0836622 2.376862 -2.8789234
1.1776035 2.1204381 -2.9914582
1.2293625 2.0665369 -3.0110493
1.290699 2.1612575 -2.957288
1.8370219 2.0681114 -2.9331417
1.8887811 2.0142105 -2.952733
1.9501173 2.1089311 -2.8989716
1.3846403 1.9048336 -3.0698225
1.4363995 1.8509325 -3.0894136
1.4977356 1.9456531 -3.0356524
1.591677 1.6892291 -3.1481872
1.6434362 1.6353281 -3.167778
1.7047724 1.7300485 -3.1140168
2.5011268 2.7433062 -2.5211158
2.5710235 2.768538 -2.4999983
2.562463 2.8380268 -2.4673545
2.2557819 2.3644238 -2.7361612
2.3256786 2.3896556 -2.7150435
2.3171182 2.4591444 -2.6823997
2.5353689 2.4653516 -2.651691
2.6052656 2.4905837 -2.6305733
2.596705 2.5600722 -2.5979295
2.010437 1.9855412 -2.9512064
2.0803337 2.0107732 -2.930089
2.0717733 2.0802617 -2.8974452
1.7650921 1.6066588 -3.1662517
1.8349887 1.6318908 -3.145134
1.8264283 1.7013794 -3.1124904
2.0446789 1.7075869 -3.0817814
2.1145756 1.7328187 -3.0606639
2.1060152 1.8023074 -3.0280201
2.5696106 2.1873972 -2.7822657
2.6395073 2.2126293 -2.7611485
2.6309469 2.2821178 -2.7285047
2.3242657 1.8085148 -2.9973111
2.3941624 1.8337468 -2.9761934
2.385602 1.9032354 -2.9435499
2.6038527 1.9094427 -2.9128408
2.6737494 1.9346747 -2.8917232
2.6651888 2.0041633 -2.8590794
3.5845907 3.2889388 -3.812309
3.5473378 3.2372723 -3.768595
3.6161721 3.2513776 -3.8719742
3.4582655 3.439184 -3.5736487
3.4210124 3.3875175 -3.5299344
3.4898467 3.4016228 -3.6333139
3.3092537 3.2325175 -3.3987918
3.2720006 3.1808507 -3.3550777
3.3408349 3.1949561 -3.458457
3.3319402 3.5894289 -3.3349881
3.2946873 3.5377624 -3.2912741
3.3635213 3.5518677 -3.3946533
3.2056146 3.7396741 -3.0963278
3.1683617 3.6880076 -3.0526135
3.237196 3.7021129 -3.155993
3.056603 3.5330076 -2.9214709
3.0193498 3.4813409 -2.8777566
3.0881841 3.4954464 -2.9811361
3.0339165 3.176096 -2.9852746
2.9966633 3.1244295 -2.9415603
3.0654976 3.1385348 -3.0449398
2.9075909 3.3263412 -2.746614
2.870338 3.2746744 -2.7028999
2.9391723 3.2887797 -2.8062792
2.7585793 3.1196747 -2.5717573
2.7213261 3.0680079 -2.528043
2.7901604 3.0821133 -2.6314225
3.5186453 3.116117 -3.7575245
3.5272059 3.0466285 -3.7901683
3.5874796 3.1302223 -3.8609037
3.2433081 3.0596955 -3.3440073
3.2518687 2.990207 -3.376651
3.3121424 3.073801 -3.4473865
3.2775502 2.7817411 -3.4745822
3.2861104 2.7122524 -3.507226
3.3463843 2.7958465 -3.5779614
2.9679708 3.003274 -2.93049
2.9765315 2.9337854 -2.9631338
3.0368052 3.0173795 -3.0338693
2.6926336 2.9468527 -2.5169725
2.701194 2.8773642 -2.5496163
2.7614679 2.960958 -2.620352
2.7268755 2.6688983 -2.6475477
2.735436 2.5994096 -2.6801915
2.7957098 2.6830037 -2.750927
3.0364547 2.4473653 -3.1916399
3.0450153 2.3778768 -3.2242837
3.105289 2.4614706 -3.2950191
2.7611175 2.3909438 -2.7781224
2.7696781 2.3214552 -2.8107662
2.8299518 2.4050491 -2.8815019
2.7953594 2.1129894 -2.9086976
2.8039198 2.0435009 -2.9413414
2.8641937 2.1270947 -3.0120769
3.5783107 2.9858539 -3.886704
3.6208551 2.9945679 -3.9505961
3.6385844 3.0694478 -3.9574394
3.3372154 2.6514781 -3.6037617
3.3797598 2.660192 -3.6676538
3.3974891 2.7350719 -3.6744974
3.5073929 2.6863346 -3.8593299
3.5499375 2.6950486 -3.9232221
3.5676668 2.7699285 -3.9300656
3.0961201 2.3171022 -3.3208194
3.1386645 2.3258162 -3.3847115
3.156394 2.400696 -3.3915551
2.8550248 1.9827262 -3.0378771
2.8975692 1.9914404 -3.1017692
2.9152985 2.0663202 -3.1086128
3.0252023 2.0175829 -3.2934453
3.0677466 2.0262969 -3.3573375
3.0854762 2.1011767 -3.3641808
3.4364753 2.3868151 -3.8319559
3.4790196 2.3955293 -3.8958478
3.4967489 2.4704092 -3.9026914
3.19538 2.0524392 -3.5490136
3.2379243 2.0611534 -3.6129055
3.2556539 2.1360333 -3.6197491
3.3655577 2.0872958 -3.8045816
3.408102 2.09601 -3.8684738
3.4258313 2.1708899 -3.8753173
3.2928817 2.032937 -4.151638
3.2836671 2.0955524 -4.1959386
3.3364885 2.052778 -4.091033
3.1184545 1.9535739 -4.3940573
3.1092396 2.0161893 -4.4383583
3.1620612 1.9734149 -4.3334522
3.0815954 2.2040353 -4.5712609
3.0723805 2.2666504 -4.615562
3.1252022 2.223876 -4.5106564
2.9440274 1.874211 -4.6364765
2.9348125 1.9368261 -4.6807775
2.9876342 1.8940517 -4.5758715
2.7695999 1.7948478 -4.8788958
2.7603853 1.8574631 -4.9231968
2.8132069 1.8146887 -4.8182912
2.7327409 2.0453091 -5.0560999
2.7235262 2.107924 -5.1004004
2.7763476 2.0651495 -4.9954948
2.8703089 2.375133 -4.9908838
2.8610942 2.4377484 -5.0351849
2.9139159 2.3949738 -4.9302793
2.6958818 2.2957699 -5.2333035
2.686667 2.3583851 -5.2776041
2.7394886 2.3156109 -5.1726985
2.6590228 2.546231 -5.4105072
2.6498079 2.6088462 -5.4548082
2.7026296 2.5660717 -5.3499022
3.3123593 2.2167077 -4.2070093
3.3502667 2.2752476 -4.1737785
3.365181 2.173933 -4.1021032
3.1010733 2.3878055 -4.6266322
3.1389804 2.4463456 -4.5934019
3.1538947 2.345031 -4.5217266
3.2527022 2.6219654 -4.4937105
3.2906094 2.6805055 -4.4604797
3.3055236 2.579191 -4.3888044
2.8897867 2.5589035 -5.0462556
2.9276938 2.6174436 -5.0130248
2.9426084 2.516129 -4.9413495
2.6785004 2.7300014 -5.4658785
2.7164078 2.7885416 -5.4326482
2.7313218 2.687227 -5.3609729
2.8301294 2.9641614 -5.3329568
2.8680367 3.0227015 -5.299726
2.8829508 2.921387 -5.2280512
3.1930449 3.0272233 -4.7804117
3.2309523 3.0857635 -4.7471809
3.2458665 2.9844489 -4.6755056
2.9817586 3.1983213 -5.2000351
3.0196657 3.2568612 -5.1668043
3.0345802 3.1555469 -5.095129
3.1333876 3.4324813 -5.0671129
3.1712949 3.4910212 -5.0338821
3.1862092 3.3897069 -4.9622068
3.4208179 2.307353 -4.0757165
3.4534616 2.2809184 -4.0108848
3.4357321 2.2060385 -4.0040412
3.3611603 2.712611 -4.3624177
3.3938041 2.6861763 -4.297586
3.3760748 2.6112964 -4.2907424
3.4917355 2.6068723 -4.1030903
3.5243793 2.5804377 -4.0382586
3.5066497 2.505558 -4.031415
3.3015032 3.1178687 -4.6491189
3.334147 3.091434 -4.5842872
3.3164177 3.0165544 -4.5774436
3.2418461 3.5231266 -4.9358201
3.2744896 3.4966919 -4.8709884
3.2567601 3.4218121 -4.8641448
3.3724208 3.4173882 -4.6764932
3.4050646 3.3909535 -4.611661
3.3873353 3.3160737 -4.6048174
3.5626533 2.9063916 -4.1304646
3.5952969 2.879957 -4.0656328
3.5775676 2.8050773 -4.0587893
3.502996 3.3116496 -4.4171658
3.5356398 3.2852149 -4.352334
3.5179102 3.210335 -4.3454905
3.6335707 3.2059112 -4.1578388
3.6662145 3.1794765 -4.0930071
3.6484852 3.1045966 -4.0861635
2.4745748 1.6991035 -4.8438568
2.4224076 1.7487513 -4.8718181
2.5440636 1.7200823 -4.8702917
2.1966205 1.6151887 -4.7381182
2.144453 1.6648365 -4.7660794
2.266109 1.6361674 -4.7645531
1.9879513 1.8137801 -4.8499627
1.935784 1.8634279 -4.877924
2.0574398 1.8347588 -4.8763971
1.918666 1.5312738 -4.63238
1.8664987 1.5809216 -4.6603408
1.9881546 1.5522525 -4.6588144
1.6407115 1.4473591 -4.5266414
1.5885442 1.4970068 -4.5546026
1.7102002 1.4683378 -4.5530758
1.4320424 1.6459503 -4.6384859
1.3798752 1.6955982 -4.6664467
1.5015311 1.6669291 -4.6649203
1.5013278 1.9284567 -4.8560686
1.4491605 1.9781044 -4.8840299
1.5708163 1.9494354 -4.8825035
1.2233733 1.8445418 -4.75033
1.171206 1.8941896 -4.7782912
1.2928619 1.8655205 -4.7767649
1.0147042 2.043133 -4.8621745
0.96253681 2.0927811 -4.8901358
1.0841928 2.0641117 -4.8886089
2.4074934 1.8500658 -4.9434934
2.4447463 1.9017324 -4.9872074
2.5291491 1.8213967 -4.941967
1.9208697 1.9647423 -4.9495993
1.9581227 2.0164089 -4.9933133
2.0425255 1.9360733 -4.9480729
2.0698814 2.1714089 -5.1244559
2.1071346 2.2230754 -5.16817
2.1915374 2.1427398 -5.1229296
1.4342461 2.0794191 -4.9557052
1.4714991 2.1310854 -4.9994192
1.555902 2.0507498 -4.9541783
0.94762254 2.1940956 -4.9618111
0.98487544 2.2457621 -5.0055251
1.0692784 2.1654263 -4.9602842
1.0966344 2.4007621 -5.1366677
1.1338873 2.4524286 -5.1803818
1.2182903 2.3720927 -5.1351414
1.7322699 2.4927521 -5.305419
1.7695229 2.5444186 -5.349133
1.8539257 2.4640827 -5.3038921
1.2456462 2.6074286 -5.3115244
1.2828993 2.659095 -5.3552389
1.3673022 2.5787594 -5.309998
1.3946581 2.814095 -5.4863815
1.4319111 2.8657615 -5.5300956
1.516314 2.7854259 -5.4848547
2.5571873 1.9356785 -5.0299821
2.6323755 1.9179581 -5.0290422
2.6415904 1.8553427 -4.9847412
2.2195756 2.2570217 -5.2109447
2.2947638 2.2393012 -5.2100048
2.3039784 2.1766858 -5.1657038
2.5203283 2.1861396 -5.2071857
2.5955164 2.1684191 -5.2062464
2.6047311 2.105804 -5.1619453
1.881964 2.5783648 -5.3919077
1.9571521 2.5606441 -5.3909674
1.9663669 2.498029 -5.3466668
1.5443522 2.8997078 -5.5728703
1.6195403 2.8819873 -5.5719304
1.6287552 2.8193719 -5.5276294
1.8451048 2.8288257 -5.5691109
1.920293 2.8111053 -5.5681715
1.9295077 2.7484899 -5.5238705
2.483469 2.4366007 -5.3843899
2.5586572 2.4188802 -5.3834496
2.567872 2.3562651 -5.339149
2.1458573 2.7579436 -5.5653524
2.2210455 2.7402232 -5.5644126
2.2302604 2.677608 -5.5201116
2.44661 2.6870618 -5.5615931
2.5217981 2.6693413 -5.5606537
2.531013 2.6067259 -5.5163527
0.37914491 3.0054321 -4.0494041
0.42168927 3.0141461 -4.113296
0.36141562 2.9305522 -4.0425606
0.45006251 3.3049514 -4.0767779
0.49260712 3.3136654 -4.1406703
0.43233323 3.2300715 -4.0699344
0.62024021 3.339808 -4.3323464
0.66278458 3.3485219 -4.3962383
0.60251081 3.2649281 -4.3255029
0.52098024 3.6044707 -4.1041522
0.56352472 3.6131849 -4.1680441
0.50325096 3.5295908 -4.0973086
0.59189808 3.90399 -4.131526
0.63444245 3.9127042 -4.1954184
0.57416856 3.8291101 -4.1246824
0.76207566 3.9388466 -4.3870945
0.80462003 3.9475608 -4.4509864
0.74434614 3.8639667 -4.3802509
0.86133552 3.6741838 -4.6152887
0.90387988 3.6828978 -4.6791806
0.84360611 3.599304 -4.6084452
0.93225324 3.9737031 -4.6426625
0.97479761 3.9824171 -4.7065544
0.91452384 3.8988233 -4.635819
1.1024308 4.0085597 -4.898231
1.1449752 4.0172739 -4.9621229
1.0847014 3.9336798 -4.8913875
0.47279418 2.9533715 -4.2098317
0.48135459 2.883883 -4.2424755
0.41252041 2.8697777 -4.1390963
0.71388948 3.2877476 -4.492774
0.7224499 3.2182589 -4.5254178
0.65361571 3.2041535 -4.4220386
0.74813139 3.009793 -4.6233492
0.75669193 2.9403045 -4.6559925
0.68785763 2.926199 -4.5526133
0.95498478 3.6221232 -4.7757163
0.96354532 3.5526347 -4.8083601
0.89471102 3.5385294 -4.7049809
1.1960801 3.9564991 -5.0586586
1.2046406 3.8870106 -5.0913024
1.1358063 3.8729053 -4.9879231
1.230322 3.6785448 -5.1892338
1.2388825 3.6090562 -5.2218776
1.1700482 3.5949509 -5.1184978
1.0234686 3.0662146 -5.0368662
1.0320292 2.996726 -5.06951
0.96319485 2.9826205 -4.9661307
1.2645639 3.4005904 -5.3198085
1.2731245 3.3311017 -5.3524523
1.2042902 3.3169963 -5.249073
1.298806 3.1226358 -5.4503837
1.3073664 3.0531473 -5.4830275
1.2385321 3.039042 -5.3796482
0.45266223 2.7627277 -4.2314053
0.41540933 2.7110612 -4.1876907
0.38382792 2.7486224 -4.128026
0.72799945 2.8191493 -4.6449223
0.69074643 2.7674825 -4.6012082
0.65916514 2.8050439 -4.541543
0.5789876 2.6124825 -4.4700656
0.54173446 2.560816 -4.4263515
0.51015329 2.5983772 -4.3666863
1.0033367 2.8755705 -5.0584397
0.96608365 2.823904 -5.0147257
0.93450236 2.8614652 -4.95506
1.2786739 2.9319921 -5.4719572
1.2414209 2.8803253 -5.4282427
1.2098396 2.9178867 -5.3685775
1.129662 2.7253256 -5.2971001
1.092409 2.6736588 -5.253386
1.0608277 2.7112203 -5.1937208
0.70531285 2.4622376 -4.7087259
0.66805995 2.4105711 -4.6650119
0.63647866 2.4481323 -4.6053467
0.98065019 2.5186591 -5.1222434
0.94339705 2.4669924 -5.0785294
0.91181588 2.5045536 -5.0188637
0.83163822 2.3119924 -4.9473867
0.79438531 2.2603259 -4.9036722
0.76280391 2.2978871 -4.844007
1.3409773 3.453769 -2.5894928
1.2973706 3.4339283 -2.6500976
1.3501921 3.3911538 -2.5451918
1.3041182 3.7042301 -2.7666965
1.2605115 3.6843891 -2.8273015
1.313333 3.6416149 -2.7223957
1.129691 3.624867 -3.0091159
1.0860841 3.6050262 -3.0697207
1.1389058 3.5622516 -2.9648151
1.2672591 3.9546909 -2.9439003
1.2236522 3.9348505 -3.0045052
1.2764738 3.892076 -2.8995996
1.2304 4.205152 -3.1211042
1.1867931 4.1853113 -3.1817088
1.2396147 4.1425371 -3.0768032
1.0559727 4.1257892 -3.3635235
1.0123658 4.1059484 -3.4241285
1.0651875 4.0631738 -3.3192225
0.91840458 3.7959647 -3.4287391
0.87479782 3.776124 -3.4893439
0.92761946 3.7333496 -3.384438
0.88154554 4.0464258 -3.6059427
0.83793879 4.0265851 -3.6665478
0.8907603 3.9838107 -3.5616419
0.70711827 3.967063 -3.8483622
0.66351151 3.947222 -3.908967
0.71633303 3.9044476 -3.8040612
1.2360343 3.3392076 -2.7038589
1.2183049 3.2643278 -2.6970155
1.2888559 3.2964332 -2.5989532
1.0247478 3.5103056 -3.1234822
1.0070186 3.4354258 -3.1166387
1.0775695 3.4675312 -3.0185764
0.95383036 3.2107863 -3.096108
0.93610084 3.1359065 -3.0892644
1.0066519 3.1680117 -2.9912024
0.81346154 3.6814036 -3.5431051
0.79573214 3.6065235 -3.5362618
0.86628318 3.638629 -3.4381995
0.60217524 3.8525014 -3.9627285
0.58444583 3.7776217 -3.9558849
0.65499675 3.809727 -3.8578227
0.53125763 3.5529821 -3.9353542
0.51352811 3.4781022 -3.9285107
0.58407915 3.5102077 -3.8304484
0.67162609 3.0823648 -3.4883571
0.65389669 3.0074849 -3.4815135
0.72444773 3.0395904 -3.3834512
0.46033978 3.2534628 -3.9079802
0.44261038 3.1785829 -3.9011366
0.51316142 3.2106884 -3.8030744
0.38942218 2.9539435 -3.8806062
0.37169266 2.8790636 -3.8737626
0.44224381 2.9111688 -3.7757003
1.2332191 3.1630135 -2.6253402
1.2658628 3.1365788 -2.5605083
1.3037703 3.1951187 -2.5272779
0.95101511 3.0345919 -3.0175891
0.98365891 3.0081573 -2.9527574
1.0215662 3.0666974 -2.9195271
1.0815902 2.9288535 -2.7582622
1.1142339 2.9024189 -2.6934304
1.1521411 2.9609587 -2.6601999
0.66881096 2.9061706 -3.4098382
0.70145476 2.8797359 -3.3450065
0.73936212 2.9382758 -3.3117759
0.38660705 2.7777491 -3.8020873
0.41925073 2.7513144 -3.7372553
0.45715797 2.8098545 -3.704025
0.51718199 2.6720107 -3.5427601
0.54982567 2.645576 -3.4779282
0.58773291 2.7041159 -3.4446979
0.92996097 2.6946936 -2.8911839
0.96260464 2.6682589 -2.8263521
1.000512 2.7267988 -2.7931218
0.64775693 2.566272 -3.283433
0.68040073 2.5398374 -3.2186012
0.71830797 2.5983775 -3.1853709
0.77833188 2.4605336 -3.024106
0.81097567 2.434099 -2.9592741
0.84888291 2.4926388 -2.9260435
3.005378 3.4929762 -5.1729584
2.9301898 3.5106969 -5.1738977
3.0432851 3.5515163 -5.1397276
2.8537488 3.2588162 -5.3058805
2.7785606 3.2765369 -5.3068199
2.8916562 3.3173563 -5.2726498
2.5529962 3.3296983 -5.309639
2.477808 3.3474188 -5.3105788
2.5909035 3.3882384 -5.2764087
2.7021198 3.0246563 -5.4388022
2.6269317 3.042377 -5.4397421
2.740027 3.0831964 -5.4055719
2.5504906 2.7904963 -5.5717239
2.4753025 2.808217 -5.5726638
2.588398 2.8490365 -5.5384936
2.249738 2.8613784 -5.5754833
2.1745498 2.8790989 -5.5764227
2.2876453 2.9199185 -5.5422525
2.1006145 3.1664205 -5.4463201
2.0254264 3.1841409 -5.4472599
2.1385217 3.2249606 -5.4130898
1.9489855 2.9322605 -5.5792418
1.8737973 2.949981 -5.5801816
1.9868927 2.9908004 -5.5460114
1.6482328 3.0031424 -5.5830011
1.5730448 3.0208631 -5.5839405
1.6861402 3.0616825 -5.5497704
2.8464413 3.5979059 -5.1421938
2.8378806 3.6673944 -5.1095505
2.9595366 3.6387253 -5.1080236
2.3940594 3.434628 -5.2788749
2.385499 3.5041165 -5.2462311
2.5071549 3.4754474 -5.2447047
2.3598175 3.7125823 -5.1483002
2.3512571 3.7820711 -5.1156559
2.472913 3.7534018 -5.1141295
1.9416778 3.2713501 -5.415556
1.9331173 3.3408387 -5.3829117
2.0547731 3.3121696 -5.3813853
1.4892961 3.108072 -5.5522366
1.4807355 3.1775608 -5.5195928
1.6023915 3.1488917 -5.5180664
1.4550542 3.3860266 -5.4216614
1.4464936 3.4555151 -5.3890176
1.5681496 3.426846 -5.3874912
1.873194 3.8272591 -5.1544056
1.8646334 3.8967476 -5.1217618
1.9862893 3.8680785 -5.1202354
1.4208122 3.663981 -5.2910867
1.4122517 3.7334695 -5.2584429
1.5339077 3.7048006 -5.256916
1.3865702 3.9419355 -5.1605115
1.3780098 4.0114241 -5.1278677
1.4996657 3.9827549 -5.1263413
2.8992169 3.762115 -5.055789
2.9691136 3.7873471 -5.0346713
3.0208728 3.7334461 -5.0542626
2.4125934 3.8767917 -5.0618949
2.4824901 3.9020238 -5.0407772
2.5342493 3.8481226 -5.0603685
2.6921802 3.9777198 -4.9774246
2.7620769 4.0029516 -4.9563069
2.8138361 3.9490504 -4.9758983
1.9259696 3.9914682 -5.0680008
1.9958664 4.0167003 -5.0468831
2.0476255 3.9627991 -5.066474
1.4393461 4.1061449 -5.0741062
1.5092428 4.1313767 -5.052989
1.561002 4.0774755 -5.0725799
1.7189329 4.2070727 -4.9896364
1.7888297 4.2323046 -4.9685187
1.8405888 4.1784034 -4.9881096
2.4851434 4.1933241 -4.8990602
2.5550401 4.2185564 -4.8779426
2.6067991 4.1646547 -4.8975334
1.9985199 4.3080006 -4.9051661
2.0684166 4.3332329 -4.8840485
2.1201756 4.2793317 -4.9036393
2.2781067 4.4089289 -4.8206959
2.3480034 4.4341607 -4.7995782
2.3997626 4.3802595 -4.819169
1.4726036 4.3436708 -3.2610488
1.4719492 4.3367977 -3.3379936
1.4031149 4.3226919 -3.2346144
1.7505579 4.4275856 -3.3667874
1.7499037 4.4207125 -3.443732
1.6810694 4.4066072 -3.3403528
1.7479408 4.4000921 -3.6745663
1.7472864 4.393219 -3.7515109
1.6784521 4.3791137 -3.6481316
2.0285125 4.5115004 -3.4725258
2.027858 4.5046272 -3.5494707
1.9590238 4.4905219 -3.4460912
2.3064668 4.5954151 -3.5782645
2.3058126 4.588542 -3.6552091
2.2369783 4.5744367 -3.5518298
2.3038497 4.5679221 -3.8860433
2.3031952 4.5610485 -3.9629879
2.2343609 4.5469432 -3.8596087
2.023278 4.4565139 -4.0880833
2.0226235 4.4496403 -4.1650281
1.9537894 4.435535 -4.0616488
2.3012323 4.5404286 -4.1938219
2.3005781 4.533555 -4.2707667
2.2317438 4.5194502 -4.1673875
2.2986152 4.5129352 -4.5016007
2.2979608 4.5060616 -4.5785456
2.2291265 4.4919567 -4.4751663
1.4013982 4.3046923 -3.4360557
1.3315015 4.27946 -3.4571733
1.3325639 4.2905869 -3.3326764
1.6767354 4.3611135 -3.8495731
1.6068387 4.3358817 -3.8706906
1.6079011 4.3470082 -3.7461936
1.3971486 4.2601857 -3.9340434
1.3272519 4.2349539 -3.9551611
1.3283143 4.2460804 -3.8306642
1.9520726 4.4175348 -4.2630901
1.8821759 4.392303 -4.2842078
1.8832383 4.40343 -4.1597109
2.2274098 4.4739566 -4.6766076
2.1575131 4.4487247 -4.6977253
2.1585755 4.4598513 -4.5732284
1.947823 4.3730283 -4.7610779
1.8779263 4.3477964 -4.7821956
1.8789887 4.358923 -4.6576986
1.3928989 4.2156792 -4.4320312
1.3230022 4.1904469 -4.4531484
1.3240646 4.2015738 -4.3286514
1.6682361 4.2721004 -4.8455482
1.5983394 4.2468686 -4.8666658
1.5994018 4.2579951 -4.7421689
1.3886492 4.1711726 -4.9300184
1.3187525 4.1459408 -4.9511361
1.3198149 4.1570673 -4.8266392
1.2190604 4.2455139 -3.4143989
1.1765159 4.2367997 -3.3505068
1.2201228 4.2566409 -3.289902
1.2148107 4.2010078 -3.9123864
1.1722664 4.1922932 -3.8484945
1.2158731 4.2121344 -3.7878895
1.0446332 4.166151 -3.6568182
1.0020888 4.1574368 -3.5929263
1.0456955 4.1772776 -3.5323212
1.210561 4.1565008 -4.4103742
1.1680167 4.1477871 -4.3464818
1.2116234 4.1676273 -4.2858772
1.2063115 4.1119943 -4.9083614
1.1637671 4.1032801 -4.8444695
1.2073739 4.1231213 -4.783865
1.0361339 4.0771379 -4.6527934
0.9935894 4.0684237 -4.5889015
1.0371963 4.0882645 -4.5282965
0.87020588 4.0867882 -3.8992376
0.82766151 4.0780735 -3.8353455
0.87126827 4.0979147 -3.7747407
0.86595631 4.0422812 -4.3972254
0.82341182 4.0335674 -4.333333
0.8670187 4.0534077 -4.2727284
0.69577873 4.0074248 -4.1416569
0.65323424 3.9987106 -4.077765
0.69684112 4.0185513 -4.0171599
3.2733867 3.7426529 -3.324204
3.2407429 3.7690876 -3.3890357
3.2418053 3.7802141 -3.2645388
3.3997121 3.5924077 -3.5628645
3.3670683 3.6188424 -3.6276963
3.3681307 3.6299691 -3.5031993
3.2691369 3.6981463 -3.8221915
3.2364931 3.7245808 -3.8870234
3.2375557 3.7357075 -3.7625265
3.5260372 3.4421625 -3.8015249
3.4933937 3.4685974 -3.8663566
3.4944558 3.4797239 -3.7418599
3.6523628 3.2919176 -4.0401855
3.619719 3.3183522 -4.1050172
3.6207814 3.3294787 -3.9805202
3.5217876 3.397656 -4.2995124
3.4891438 3.4240906 -4.3643441
3.4902065 3.4352174 -4.2398472
3.2648873 3.6536398 -4.320179
3.2322435 3.6800742 -4.3850107
3.2333059 3.691201 -4.2605143
3.3912127 3.5033946 -4.5588398
3.3585691 3.5298293 -4.6236715
3.3596315 3.5409558 -4.4991746
3.2606378 3.6091332 -4.8181667
3.227994 3.6355677 -4.8829985
3.2290564 3.6466944 -4.7585015
3.1563399 3.8494232 -3.4342766
3.1045809 3.9033244 -3.4146852
3.1574025 3.8605499 -3.3097796
3.1520905 3.8049166 -3.9322641
3.1003311 3.8588178 -3.912673
3.1531527 3.8160434 -3.8077672
2.9450536 4.0205212 -3.8538995
2.8932943 4.0744224 -3.8343084
2.946116 4.0316477 -3.7294025
3.1478405 3.7604101 -4.4302516
3.0960815 3.8143113 -4.4106603
3.1489031 3.7715368 -4.3057547
3.1435912 3.7159035 -4.9282393
3.0918319 3.7698045 -4.908648
3.1446536 3.7270303 -4.8037424
2.9365544 3.9315081 -4.8498745
2.8847952 3.9854093 -4.8302836
2.9376168 3.9426346 -4.725378
2.733767 4.1916189 -4.2735229
2.682008 4.2455201 -4.2539315
2.7348297 4.2027454 -4.1490259
2.7295177 4.1471124 -4.7715101
2.6777582 4.2010136 -4.7519193
2.7305799 4.1582394 -4.6470132
2.522481 4.3627172 -4.6931458
2.4707217 4.4166183 -4.6735549
2.5235434 4.3738437 -4.5686488
3.0534759 3.9640989 -3.3181496
3.0541301 3.9709723 -3.2412047
3.1062975 3.9213245 -3.2132437
2.8421896 4.1351967 -3.7377727
2.842844 4.1420703 -3.6608281
2.8950109 4.0924225 -3.6328669
2.8448067 4.1626902 -3.4299939
2.8454611 4.1695633 -3.3530493
2.8976283 4.1199155 -3.325088
2.6309032 4.3062949 -4.1573958
2.6315575 4.313168 -4.080451
2.6837246 4.2635202 -4.0524902
2.4196167 4.4773927 -4.5770187
2.4202712 4.4842663 -4.5000744
2.4724383 4.434618 -4.4721131
2.4222341 4.5048862 -4.2692404
2.4228883 4.5117598 -4.1922956
2.4750557 4.4621115 -4.1643343
2.6361375 4.3612814 -3.5418382
2.6367919 4.368155 -3.4648936
2.6889591 4.3185072 -3.4369326
2.4248512 4.5323796 -3.9614615
2.4255056 4.5392528 -3.8845167
2.4776728 4.4896049 -3.8565557
2.4274685 4.5598726 -3.6536827
2.4281228 4.5667462 -3.5767379
2.4802899 4.5170984 -3.5487769
2.6748304 3.2068837 -2.5400534
2.622663 3.2565315 -2.5680144
2.6375775 3.1552172 -2.4963391
2.8238425 3.4135501 -2.71491
2.7716751 3.4631982 -2.7428713
2.7865894 3.3618836 -2.671196
2.6151733 3.6121416 -2.8267546
2.5630059 3.6617894 -2.8547156
2.5779202 3.5604749 -2.7830403
2.9728541 3.6202168 -2.8897669
2.920687 3.6698647 -2.9177279
2.9356012 3.5685501 -2.8460526
3.1218662 3.8268833 -3.0646238
3.0696988 3.8765311 -3.0925848
3.0846131 3.7752166 -3.0209095
2.913197 4.0254745 -3.1764681
2.8610296 4.0751224 -3.2044291
2.8759441 3.9738081 -3.1327538
2.5555158 4.0173993 -3.1134558
2.5033486 4.0670471 -3.1414168
2.5182629 3.9657328 -3.0697415
2.7045279 4.2240658 -3.2883124
2.6523604 4.2737141 -3.3162737
2.667275 4.1723995 -3.2445984
2.4958587 4.4226575 -3.400157
2.4436915 4.4723053 -3.428118
2.4586058 4.3709908 -3.3564427
2.5010073 3.2852006 -2.569541
2.4315186 3.2642219 -2.5431061
2.5159216 3.1838861 -2.4978657
2.44135 3.6904585 -2.8562419
2.3718615 3.6694798 -2.8298073
2.4562643 3.589144 -2.7845669
2.1633956 3.6065438 -2.7505035
2.0939069 3.5855651 -2.7240689
2.1783099 3.505229 -2.6788282
2.3816926 4.0957165 -3.1429434
2.3122041 4.0747375 -3.1165085
2.3966069 3.9944019 -3.0712678
2.3220356 4.5009742 -3.4296443
2.2525468 4.4799957 -3.4032097
2.3369498 4.3996601 -3.357969
2.044081 4.4170594 -3.3239059
1.9745924 4.396081 -3.2974713
2.0589952 4.3157449 -3.2522306
1.8257838 3.9278867 -2.9314661
1.7562952 3.906908 -2.9050317
1.8406982 3.8265722 -2.8597908
1.7661266 4.3331447 -3.2181673
1.696638 4.3121662 -3.1917326
1.7810409 4.2318301 -3.146492
1.4881721 4.2492299 -3.1124289
1.4186835 4.228251 -3.0859942
1.5030864 4.1479154 -3.0407536
2.3712449 3.1806281 -2.4723706
2.3804595 3.1180127 -2.4280696
2.4556477 3.1002922 -2.42713
2.0336332 3.501971 -2.6533332
2.0428479 3.4393559 -2.6090324
2.118036 3.4216352 -2.6080925
2.0704923 3.2515101 -2.4761295
2.0797071 3.1888947 -2.4318285
2.1548953 3.1711743 -2.4308889
1.6960214 3.8233142 -2.834296
1.7052362 3.7606988 -2.7899952
1.7804244 3.7429783 -2.7890553
1.3584096 4.1446571 -3.0152588
1.3676245 4.0820417 -2.9709578
1.4428127 4.0643215 -2.9700179
1.3952689 3.894196 -2.8380547
1.4044836 3.8315809 -2.7937539
1.4796717 3.8138604 -2.7928143
1.7697397 3.322392 -2.4798884
1.7789545 3.2597768 -2.4355874
1.8541427 3.2420564 -2.4346476
1.432128 3.6437349 -2.660851
1.4413427 3.5811198 -2.6165502
1.5165309 3.5633993 -2.6156104
1.4689871 3.3932741 -2.4836473
1.4782019 3.3306587 -2.4393463
1.55339 3.3129382 -2.4384067
1.9059248 1.5087608 -4.0393715
1.9754134 1.5297395 -4.0658059
1.9046162 1.4950141 -4.1932607
1.9734505 1.5091194 -4.2966399
2.1124277 1.5510769 -4.3495092
2.1130819 1.5579501 -4.2725644
2.3984733 1.7197516 -3.506825
2.4673076 1.7338569 -3.6102042
2.2586799 1.6692876 -3.5490601
2.2576175 1.6581609 -3.6735568
2.3952861 1.6863717 -3.8803155
2.4651828 1.7116036 -3.8591981
3.0457678 1.9069105 -3.8484814
3.0447054 1.8957839 -3.9729784
2.9606791 1.8894823 -3.7206974
2.9170721 1.8696414 -3.7813022
2.9149473 1.8473881 -4.0302958
2.9574916 1.8561022 -4.0941877
0.57189393 2.4785335 -4.0039797
0.5729562 2.48966 -3.8794827
0.6350565 2.4034109 -4.1233101
0.66770029 2.3769763 -4.0584784
0.66982508 2.3992295 -3.8094845
0.63824368 2.4367909 -3.7498193
1.0537997 1.9673654 -4.2818303
1.0026948 2.0281398 -4.1852942
1.1581342 1.8680696 -4.2259078
1.1591966 1.8791963 -4.1014109
1.0569868 2.0007453 -3.9083395
1.0048196 2.0503931 -3.9363005
1.4222423 1.6541972 -3.7013791
1.370483 1.7080984 -3.681788
1.4235508 1.667944 -3.5474896
1.3724459 1.7287184 -3.450954
1.2689276 1.8365207 -3.4117715
1.2682732 1.8296473 -3.4887161
1.5234447 2.9221821 -2.5583787
1.6365402 2.9630015 -2.5242085
1.4476302 2.8051021 -2.6248395
1.5228183 2.7873816 -2.6238999
1.7490091 2.8690205 -2.5555596
1.7869165 2.9275606 -2.5223289
1.5168898 2.2428966 -2.8889475
1.578226 2.3376172 -2.8351862
1.6204081 2.1350942 -2.9281297
1.7335035 2.1759138 -2.8939595
1.856176 2.365355 -2.786437
1.8044168 2.4192562 -2.7668457
2.2286875 1.9917486 -2.9204974
2.2201271 2.0612373 -2.8878536
2.3684812 2.0422125 -2.8782623
2.4298172 2.1369333 -2.824501
2.4126964 2.2759104 -2.7592134
2.3427997 2.2506785 -2.7803311
3.1513469 3.4203238 -3.1004663
3.2201812 3.4344292 -3.2038455
3.0768409 3.3169904 -3.0130379
3.1084223 3.2794292 -3.0727029
3.2460909 3.3076401 -3.2794616
3.2833438 3.3593066 -3.3231759
2.9333785 2.7112143 -2.9576855
2.9936523 2.7948084 -3.0284212
2.9504995 2.572237 -3.0229731
3.0193338 2.5863423 -3.1263523
3.1398814 2.7535305 -3.2678237
3.131321 2.823019 -3.2351799
3.2060239 2.2683647 -3.505652
3.2237535 2.3432446 -3.5124955
3.2911127 2.2857928 -3.6334362
3.3513865 2.3693869 -3.7041717
3.3868454 2.5191464 -3.7178588
3.344301 2.5104325 -3.6539667
2.8635614 2.1048312 -4.8742852
2.916383 2.0620568 -4.7693791
2.8451316 2.2300618 -4.9628868
2.8887386 2.2499025 -4.9022822
2.9943817 2.1643536 -4.6924706
3.0035963 2.1017385 -4.6481695
2.9885941 2.8358378 -5.0182395
3.0035086 2.7345235 -4.9465637
3.0644088 2.9529178 -4.9517784
3.1172304 2.9101434 -4.8468723
3.147059 2.7075145 -4.7035217
3.1091516 2.6489744 -4.7367525
3.4171638 3.1134448 -4.4614673
3.3994346 3.0385649 -4.4546237
3.4824514 3.0605755 -4.3318033
3.4973657 2.9592609 -4.260128
3.4619069 2.8095012 -4.2464414
3.4292631 2.8359358 -4.3112731
1.6405082 1.7088865 -4.7177896
1.7621641 1.6802174 -4.7162633
1.5361737 1.8081821 -4.7737117
1.6056623 1.8291608 -4.8001466
1.8489741 1.7718226 -4.7970934
1.9011414 1.7221749 -4.7691326
1.4616021 2.3147545 -5.1320882
1.546005 2.2344189 -5.0868478
1.536108 2.418088 -5.2195168
1.657764 2.3894186 -5.2179904
1.8265698 2.2287471 -5.1275091
1.7893168 2.1770806 -5.0837946
2.0983136 2.5878184 -5.4333892
2.1075284 2.5252032 -5.3890882
2.2486899 2.5523775 -5.43151
2.3330929 2.4720416 -5.3862691
2.3515224 2.3468113 -5.297667
2.2763343 2.3645315 -5.2986069
0.70888734 3.7142072 -4.3665638
0.64861345 3.6306131 -4.2958283
0.79397607 3.7316353 -4.494348
0.77624667 3.6567554 -4.4875045
0.65569901 3.4895675 -4.3460331
0.61315465 3.4808536 -4.2821412
1.0495006 3.427763 -4.9770269
0.98066628 3.4136577 -4.8736477
1.0666215 3.2887857 -5.0423145
1.0063477 3.2051916 -4.9715786
0.86867905 3.176981 -4.7648201
0.86011863 3.2464695 -4.7321763
0.92315912 2.6830096 -4.9869623
0.89157772 2.7205708 -4.9272971
0.84865308 2.5796762 -4.8995337
0.77981877 2.5655708 -4.7961545
0.71665621 2.6406934 -4.6768241
0.75390911 2.6923599 -4.7205381
1.083617 3.9379432 -3.2306209
1.1364386 3.8951688 -3.1257148
0.99640357 3.8982615 -3.3518305
1.0056183 3.8356464 -3.3075294
1.1112614 3.7500975 -3.0977178
1.1548684 3.7699382 -3.037113
0.68972242 3.4246588 -3.6206369
0.76027334 3.456764 -3.5225747
0.6542635 3.274899 -3.6069498
0.70708501 3.2321246 -3.5020442
0.84818721 3.2963352 -3.3059196
0.86591649 3.3712151 -3.3127632
0.72883511 2.7683265 -3.2485733
0.76674223 2.8268666 -3.215343
0.79412258 2.7154574 -3.1189098
0.86467338 2.7475626 -3.0208476
0.9404881 2.8646426 -2.9543865
0.90784431 2.8910773 -3.0192184
2.3634598 3.0369985 -5.4757915
2.4765553 3.0778179 -5.4416213
2.2130835 3.0724394 -5.4776711
2.2509909 3.1309795 -5.4444404
2.4771817 3.2126184 -5.3761001
2.5523698 3.1948979 -5.3751602
1.7943404 3.5084851 -5.3191509
1.9159963 3.479816 -5.3176246
1.7772194 3.6474624 -5.2538633
1.8903149 3.6882818 -5.2196932
2.1336267 3.6309433 -5.2166405
2.1421871 3.5614548 -5.2492838
2.0839007 4.1210651 -4.9850569
2.1356597 4.0671644 -5.0046482
2.2236941 4.1715293 -4.9428215
2.34535 4.1428604 -4.9412951
2.4488683 4.035058 -4.9804773
2.3789716 4.0098257 -5.001595
2.0953839 4.5049858 -3.8067393
2.0265496 4.4908805 -3.7033601
2.0940752 4.4912391 -3.9606287
2.0245867 4.4702606 -3.9341941
1.8869179 4.44205 -3.7274354
1.8875723 4.4489231 -3.6504908
1.7413201 4.3307123 -4.4509401
1.7423825 4.3418388 -4.3264432
1.6015267 4.2802486 -4.493175
1.5326924 4.2661428 -4.3897958
1.5348172 4.2883964 -4.1408019
1.6047139 4.3136282 -4.1196842
1.0393211 4.1105175 -4.2793026
1.0829279 4.1303587 -4.218698
0.95423222 4.0930896 -4.1515188
0.95529461 4.1042161 -4.0270219
1.0425084 4.143898 -3.905812
1.0850527 4.1526117 -3.9697042
3.4270439 3.51034 -4.1205173
3.4281061 3.5214665 -3.9960203
3.3617563 3.5632091 -4.2501807
3.3301749 3.6007705 -4.1905155
3.3322997 3.6230237 -3.9415219
3.3649435 3.5965891 -3.8766899
2.9397416 3.9648881 -4.4763842
2.9925632 3.9221134 -4.3714781
2.8362231 4.07269 -4.437202
2.8372855 4.083817 -4.312705
2.9429288 3.9982679 -4.1028934
2.994688 3.9443669 -4.1224847
2.5806987 4.3765626 -3.9545228
2.6328661 4.3269148 -3.9265618
2.5820074 4.3903093 -3.8006334
2.634829 4.3475351 -3.6957276
2.7391636 4.248239 -3.6398056
2.7385092 4.2413659 -3.7167501
2.8014381 3.8704748 -3.0453255
2.8163524 3.7691603 -2.9736502
2.6971035 3.9697704 -3.1012478
2.6598506 3.9181037 -3.0575335
2.6896791 3.7154748 -2.9141829
2.7418466 3.665827 -2.8862219
2.088824 4.1131163 -3.10888
2.1732268 4.0327802 -3.0636392
1.9498467 4.0711584 -3.0560107
1.964761 3.9698441 -2.9843354
2.1335669 3.8091726 -2.8938541
2.2030556 3.8301513 -2.9202888
1.6484776 3.6531887 -2.702333
1.7236657 3.6354685 -2.7013931
1.6669071 3.5279584 -2.6137309
1.7513101 3.4476225 -2.5684903
1.9016864 3.4121816 -2.5666108
1.8924716 3.4747968 -2.6109118
2.3903823 1.6349916 -4.4552479
2.4592166 1.6490971 -4.5586271
2.251405 1.5930343 -4.4023786
2.2507505 1.5861609 -4.4793234
2.3884192 1.6143717 -4.6860819
2.4579079 1.6353503 -4.7125168
1.8397077 1.522149 -3.6282132
1.908542 1.5362543 -3.7315927
1.7007304 1.4801915 -3.5753441
1.7000762 1.4733182 -3.6522887
1.8377448 1.5015289 -3.8590474
1.9072335 1.5225075 -3.8854818
1.8344733 1.467162 -4.2437706
1.9033076 1.4812675 -4.3471503
1.6954961 1.4252046 -4.1909018
1.6948419 1.4183313 -4.2678461
1.8325105 1.446542 -4.4746051
1.901999 1.4675207 -4.5010395
2.6706233 1.7427931 -4.2938328
2.6695609 1.7316664 -4.4183297
2.5329547 1.7145824 -4.0870743
2.463058 1.6893504 -4.108192
2.4609332 1.667097 -4.3571854
2.5297675 1.6812024 -4.4605651
2.6791224 1.8318062 -3.2978578
2.6780601 1.8206797 -3.4223547
2.5414538 1.8035955 -3.0910993
2.4715574 1.7783635 -3.1122167
2.4694324 1.7561102 -3.3612103
2.5382667 1.7702155 -3.4645898
2.1199489 1.6299503 -3.4667983
2.1188865 1.6188235 -3.5912952
1.9822803 1.6017395 -3.2600396
1.9123836 1.5765076 -3.2811573
1.9102588 1.5542543 -3.5301509
1.9790931 1.5683596 -3.6335304
2.9106977 1.8028815 -4.5282836
2.8670907 1.7830408 -4.5888882
2.9128225 1.8251349 -4.2792897
2.8702781 1.8164208 -4.2153978
2.7830644 1.7767391 -4.3366075
2.782002 1.7656126 -4.4611044
3.259552 1.9616078 -4.0434446
3.2159452 1.941767 -4.1040497
3.2616768 1.983861 -3.794451
3.2191324 1.975147 -3.7305589
3.1319189 1.9354653 -3.8517685
3.1308565 1.9243387 -3.9762654
2.9191971 1.8918948 -3.5323083
2.8755901 1.872054 -3.5929132
2.9213219 1.9141481 -3.2833147
2.8787773 1.9054339 -3.2194226
2.7915637 1.8657523 -3.3406322
2.7905014 1.8546257 -3.4651291
0.67407477 2.4437361 -3.3114967
0.70671844 2.4173017 -3.246665
0.67194986 2.4214828 -3.5604906
0.70353115 2.3839216 -3.6201558
0.76881874 2.3310523 -3.4904923
0.76988113 2.3421791 -3.3659954
0.41292477 2.6552131 -3.8301511
0.44556856 2.6287785 -3.7653193
0.41079998 2.6329598 -4.079145
0.44238126 2.5953987 -4.1388102
0.50766873 2.5425293 -4.0091462
0.50873125 2.5536561 -3.8846495
0.6655755 2.354723 -4.3074722
0.6982193 2.3282883 -4.24264
