# .PCD v0.7 - Point Cloud Data file format
VERSION 0.7
FIELDS x y z
SIZE 4 4 4
TYPE F F F
COUNT 1 1 1
WIDTH 1513
HEIGHT 1
VIEWPOINT 0 0 0 1 0 0 0
POINTS 1513
DATA ascii
6.1044931 5.1775322 11.103093
7.8251557 6.285943 10.33254
9.2404213 6.6667194 9.5942535
8.42556 -4.6730223 8.5636063
10.055243 -4.0459337 8.1818352
5.3804526 -3.8984785 9.2985706
8.6215343 -3.5885153 9.3190651
9.8908787 -3.4032364 8.7781153
11.573643 -2.4787574 8.083971
3.9195611 -2.5128384 10.583514
7.6055193 -2.6714125 10.208546
6.9705405 -2.5304685 10.320813
8.7080555 -2.6320934 9.8530293
11.141083 -1.307981 9.0651817
9.9690905 -1.2020173 9.861804
3.7653248 -1.7173262 10.899149
6.4111814 -1.7399721 10.871667
10.717104 -0.6870563 9.5781784
10.293673 -0.087725401 9.9974089
5.8558168 -0.95799398 11.199443
5.3784714 -0.28728652 11.389973
9.2575893 1.3936924 10.745778
9.8676367 0.54431295 10.365512
11.558434 1.6178229 9.3812094
4.8638439 0.38703561 11.529574
4.654232 1.420766 11.631425
5.8275223 0.83467066 11.559301
8.6153269 2.2956307 11.015034
11.456533 2.3846359 9.4650841
3.6964099 2.4662561 11.563171
5.5034704 3.2730486 11.569319
6.9076848 2.190413 11.48699
6.8493047 3.3495033 11.407505
8.0252781 2.3648889 11.21397
9.7021284 4.009656 10.240822
5.0725994 4.0052495 11.46838
6.7927561 4.6316681 11.162183
7.5092249 -1.719589 10.667628
8.7552633 -1.5477657 10.322711
6.7749672 -1.0829415 11.054996
8.4817057 -1.1877995 10.558501
9.7921619 -0.50133753 10.197801
5.9383101 -0.045456886 11.428125
7.2819567 0.63338447 11.327858
9.0561867 0.50598717 10.750915
6.9721456 1.3025709 11.468133
8.4237394 1.4144418 11.084408
2.2882872 2.1649086 -9.3040257
0.14420795 2.5895667 -8.4614344
0.83061838 2.5623231 -8.7891197
1.5336609 2.4373369 -9.0659647
1.501368 3.0188317 -9.0137672
1.4158666 3.5840399 -8.9079485
2.1442633 3.536521 -9.1511869
-0.036034584 3.0227859 -8.3302002
0.23845005 3.5088062 -8.4060764
4.0008311 4.8910222 -9.2012377
3.4139371 5.8636971 -8.8022308
2.6823926 5.4518795 -8.8112917
2.7420826 4.8978395 -9.0018425
1.9999223 4.9544435 -8.7894745
4.3287468 5.3355222 -9.0937824
4.1556549 5.7764559 -8.9233093
1.2070436 6.067029 -8.0853748
2.6890101 6.00946 -8.5976782
1.8996279 6.2494755 -8.2661247
2.0746977 -1.2547016 -8.7149153
2.8090649 -1.0795693 -8.9607172
3.4043019 -0.95883679 -9.1044626
-0.24529648 -0.7350111 -7.8529282
0.26394367 -0.75805545 -8.1360636
1.1497269 -0.99960041 -8.4719124
0.85329151 -0.4555757 -8.5058537
2.9463794 -0.64126158 -9.1149139
2.398844 -0.19643259 -9.1006527
1.4104238 -0.059946299 -8.8183117
3.645781 -0.8106513 -9.1802521
3.6698151 -0.35570455 -9.2989807
3.3077884 -0.16398358 -9.2909374
5.9068661 1.4720676 -9.4704762
-0.27555561 -0.30386186 -7.8408842
-0.19740248 0.74790835 -8.0630665
-0.24681568 0.15440845 -7.9609556
-0.097929955 0.42060041 -8.2143269
0.48636246 0.1271019 -8.4681225
1.385746 1.8976038 -9.023036
1.5438154 1.431041 -9.0622988
1.6148312 0.31160402 -8.9634237
0.85609531 0.41770554 -8.6827869
1.7211804 0.74351215 -9.0622139
3.7019734 0.18721533 -9.4164457
2.4483511 1.0884771 -9.3102522
3.2664766 1.4126809 -9.4943647
3.7490554 0.87721157 -9.5291424
3.8566153 2.0593369 -9.5858946
5.9929752 1.6334927 -9.264328
5.8807535 1.6002848 -9.6018333
5.9307432 1.7361736 -9.5062714
6.7979984 3.7665024 -9.3457623
-0.12890387 1.2898753 -8.080162
-0.068669319 1.9876595 -8.1518278
-0.090612411 2.4968698 -8.3366737
0.10966396 2.3530989 -7.8058033
0.56203842 1.8167565 -8.6820793
-0.16054916 1.7859042 -8.317009
0.27179432 2.1161704 -8.5426226
3.9499769 2.9044819 -9.5561609
3.9253542 2.4397342 -9.2887764
4.0311627 2.9463747 -8.9703131
6.2909031 4.0724497 -9.3668222
6.3309693 4.2805376 -9.3091278
7.0437717 3.9883351 -9.259429
6.764246 4.4844003 -9.2060051
6.3645439 4.4369783 -9.2749004
-1.7107797 3.1376176 -6.4812717
0.30186462 2.7781091 -7.3991156
0.013239861 3.4103446 -8.2987518
0.23556995 3.2858906 -7.7636871
0.12718487 4.2758741 -8.1935854
0.1624403 3.7421288 -8.0392971
0.31562614 4.2693834 -7.8062687
4.1776466 3.3788724 -8.5538359
4.1757255 3.9023108 -8.8761072
4.1108742 4.0953665 -9.4052086
4.2270179 4.5102205 -9.0317125
4.256422 4.9548235 -9.2001991
4.3594036 4.7907763 -8.6031237
6.4611073 4.4404259 -9.0573244
6.4338756 4.7490482 -9.187645
6.5382662 4.7673826 -8.9695225
-1.7712626 3.5571129 -7.0685148
-1.9620171 3.6466298 -6.891314
-1.6492939 3.3833828 -6.4123845
-1.6638412 3.8572307 -6.781846
-1.7223678 3.8462267 -7.0472603
0.47406721 4.8226447 -7.5662403
0.32996464 5.4559684 -7.9209251
0.62994337 5.3403754 -7.3195553
4.0608587 6.2348075 -8.727397
4.59097 6.4996252 -8.6479139
4.5782356 6.1752186 -8.5004101
4.4277487 5.8058395 -8.9254808
4.5565219 5.6030493 -8.2834969
4.5386748 5.015296 -8.0992594
-2.0780592 4.1248269 -6.6684847
-1.6648636 4.1873541 -7.0101986
-1.8232231 4.4061232 -6.8133569
0.77714348 5.7925467 -7.0727205
0.48134995 6.231245 -7.6661549
0.60886908 6.2320576 -7.4424105
0.75467443 7.3532424 -7.1848049
1.1569455 6.412868 -7.9015818
0.52790356 6.4375424 -7.5882082
1.0512516 6.8254957 -7.6383934
3.7811432 6.5423026 -8.5577955
2.889034 6.5105972 -8.4208622
1.9378934 7.2275219 -7.7723904
2.8108606 6.9370532 -8.1840429
2.7228086 7.5390906 -7.8150482
4.7507987 6.8198442 -8.2099524
4.8833818 7.3533731 -8.0325994
4.7563896 7.7062969 -7.9871035
3.6980455 7.7873449 -7.8456917
5.0436668 7.8514109 -7.7542448
0.92392159 7.9098711 -6.8689194
1.0725479 8.3431396 -6.5940671
2.9173546 7.904942 -7.6241293
2.1424227 8.3193302 -7.0959644
1.2755342 8.2848186 -6.7519236
4.6620131 8.7091599 -7.2694645
3.8800921 8.5136604 -7.3611383
4.1617632 8.0083504 -7.7594271
3.1922021 8.2028112 -7.4738026
5.1878347 8.2349272 -7.4878569
5.31563 8.6593094 -7.3049698
1.3204739 8.583374 -6.1707745
1.5312407 8.7057667 -6.5164094
1.2718706 8.9005356 -6.2027631
1.6790462 9.0330582 -6.2811403
3.7175102 8.963645 -6.9641099
2.7438116 9.1865654 -6.5431614
1.3190317 -3.3505268 -7.4409084
1.8864255 -3.3190384 -7.6870756
2.697922 -3.2636042 -7.9724464
5.5936198 -1.9230576 -8.8855352
6.2106304 -1.6439633 -8.9430962
7.357861 -1.2878103 -8.8646755
0.77250671 -3.1013961 -7.3443451
0.18962002 -2.5785646 -7.3331347
1.4090977 -1.4626205 -8.4141798
1.5907805 -1.960752 -8.2876005
1.9257612 -2.9574094 -7.916687
1.0694199 -2.7705364 -7.6802444
1.7882853 -2.5098729 -8.1083241
3.5441947 -3.1051602 -8.2386065
2.5794656 -2.2570105 -8.4650316
3.5635326 -2.600297 -8.5052586
2.9206657 -1.4895439 -8.8477631
3.1316347 -1.9647312 -8.7095108
3.6072741 -1.5761175 -8.9357643
3.6269596 -1.1930032 -9.0642185
3.6099038 -1.3930564 -8.6627989
5.7131758 -1.4553246 -8.5329895
5.8257179 -0.20688725 -8.8522215
5.7614765 -0.82855368 -8.7411795
5.6727695 -0.6175456 -9.3059711
6.2735381 -0.95684886 -9.1591244
8.1629295 -0.9636879 -8.7308092
8.2594624 -0.50928402 -8.8261375
7.6895523 -0.040901184 -9.1128635
6.5195737 -0.24711847 -9.3088703
8.6398163 -0.024670362 -8.808548
-0.38618088 -1.8854327 -7.3411865
-0.36311483 -1.3947034 -7.5494213
-0.31417418 -0.88929605 -7.6661577
-0.24811363 -1.1281078 -7.3023062
0.74026155 -1.5685976 -8.0904732
-0.034874916 -1.4696889 -7.7226458
0.036821365 -1.0910048 -7.9032011
3.6627288 -0.57563448 -8.7767124
3.6420274 -0.99457359 -8.472784
3.7339957 -0.45222878 -8.0940237
5.927237 0.44055831 -8.8143263
6.0124388 1.0042084 -8.8181915
6.022687 1.35553 -9.0062943
6.1333084 1.1807266 -8.2067909
5.8333426 1.0928385 -9.5742197
5.8528118 1.3633988 -9.5935297
5.9773731 1.1590548 -9.5708494
7.0361309 0.7418195 -9.3934336
6.3272514 1.2375715 -9.5443707
9.8490467 0.85866094 -8.4156952
9.3495426 0.44512081 -8.6015692
9.4020758 1.1074259 -8.6629467
9.4980078 1.6330787 -8.6492119
8.5744791 1.6882644 -9.0400457
7.5457907 1.4775193 -9.3363743
-0.016795158 -0.51921606 -6.6181526
-0.13444614 0.069073677 -7.5676355
0.02592659 0.053407669 -6.8647976
-0.037452698 0.92283416 -7.661747
0.015542984 0.52652454 -7.2480402
0.16979408 1.0744177 -6.9149413
3.9140725 0.073470473 -7.5967731
3.869822 0.72218585 -8.2687721
3.7788875 0.80821395 -8.9701748
3.8680227 1.3081014 -8.7285681
3.900418 1.8007014 -8.8989086
4.0744519 1.8137553 -8.1077929
6.056385 1.8559408 -9.1595135
6.248601 2.0567989 -8.5014572
6.3024607 1.903845 -7.8058653
6.229352 1.5538909 -7.722661
6.0844288 1.9117517 -9.5935688
5.9043407 1.7903264 -9.6058969
6.1105957 2.1643915 -9.1299601
5.929059 1.9817457 -9.6055698
6.4467049 3.5437679 -9.4362831
6.1272197 3.2447858 -9.5138073
6.1614056 2.7180128 -9.2259903
6.5610895 3.237762 -9.460887
7.0227261 3.5944233 -9.3323364
7.1772418 3.4657397 -9.321743
8.1961203 2.3703828 -9.1585836
7.8886509 3.2579999 -9.1770449
9.6153755 2.721838 -8.5761948
8.7225857 2.9347906 -8.946763
-2.144949 0.35157442 -5.7192373
-2.1903539 0.34356892 -6.1737866
-2.0049663 0.50715148 -5.092185
-1.961545 0.70413446 -5.1603141
-2.0852499 0.60492921 -5.698842
0.32666922 1.6678033 -6.5315075
0.33024502 2.2131515 -6.9852281
0.46069527 2.1919489 -6.0849905
4.7349548 2.9918251 -7.0674028
4.3314886 2.2395475 -7.5829124
4.2408314 2.769546 -8.0377293
4.5765162 2.5056581 -7.1787157
6.4058056 2.3418417 -7.7512684
4.880477 3.3046169 -6.9263716
6.315166 2.9665475 -8.8722897
6.4746432 2.689959 -7.8601742
6.6060033 3.2611485 -7.9144726
6.5878587 4.0754552 -8.6164818
6.7386594 3.8166409 -7.9362469
7.2653146 4.3451309 -9.1420345
7.7944441 4.5952969 -8.9560795
7.6342821 3.789402 -9.1660872
10.318645 3.8006444 -8.0578289
9.6452074 3.4285746 -8.487195
9.5820065 4.3164945 -8.3462906
8.5373755 4.9199796 -8.6270742
-2.2023449 0.51355684 -6.7067943
-3.0978889 1.300299 -5.8912244
-1.782773 2.7878804 -6.5184402
-1.8548412 2.2382252 -6.3560805
-2.0605202 1.6279531 -6.9734139
-2.5233288 1.2538549 -6.5086942
-1.9844737 0.95030975 -5.5983691
-1.9729013 1.5219371 -6.236969
-1.7017508 2.7460754 -6.1580172
-1.651432 3.0317824 -6.1889782
-1.5151482 2.8151259 -5.6358957
0.48096752 3.2405255 -7.003706
0.64083385 3.2641842 -6.2509403
0.62793636 2.9984379 -5.7025094
0.5473814 2.6152415 -5.617949
0.62859869 3.637444 -6.6651459
0.60021496 4.1357799 -7.0512247
4.3576188 3.722496 -8.1176729
4.6055202 3.4983542 -7.4421158
4.5516658 3.9483075 -7.700943
4.5396175 4.4450784 -7.8932648
4.7769985 4.0505276 -7.2575016
5.0394249 3.5832357 -6.761457
5.1352549 4.0893569 -6.7039003
6.8657403 4.2775021 -7.8673296
6.8043413 4.7494349 -8.3390245
6.9917555 4.6558051 -7.7605238
6.7707982 5.1460228 -8.5622663
6.8752718 4.9929876 -8.2696142
6.906827 5.4642467 -8.3683453
6.8406944 6.1198592 -8.6556826
7.5755396 5.6042399 -8.6946659
7.2496042 5.855588 -7.7786598
9.2601299 5.3826904 -8.1746569
8.4167099 6.2484016 -8.1587114
7.5180845 6.4639659 -8.3434944
-3.7472448 2.0478177 -5.1056442
-4.0290928 3.0742939 -4.5684552
-2.3941889 3.6968164 -6.4827261
-3.3580475 2.7255783 -5.5853815
-2.8510571 3.2654727 -6.1032958
-2.650795 2.208385 -6.4213538
-1.2906618 4.3086677 -5.8451881
-1.3297505 3.1890705 -5.4122124
-1.5335112 3.5414445 -6.1175184
-1.338603 3.7327003 -5.7026224
0.71201992 3.3850746 -5.6290455
-1.1678028 4.7626057 -5.742713
0.78823566 3.9874704 -6.223978
0.82563877 3.843801 -5.4858713
0.92611504 4.2954583 -5.7175031
1.0042329 5.28618 -6.3386164
1.0573695 4.8873038 -5.7822399
4.7974415 5.1701388 -7.4907513
5.0741382 4.7161927 -6.8877921
5.1671734 5.1265144 -6.787303
7.509037 6.303134 -7.4172993
7.867579 6.5834284 -6.8303871
7.7332134 6.4770627 -7.044796
7.6023941 7.0373483 -8.0177488
7.6360254 7.1163893 -7.3997431
7.4690094 7.2213941 -7.690506
7.5324197 6.9032922 -7.5390244
-4.0989246 3.8313069 -4.2343512
-4.0922871 4.4658895 -3.972856
-2.0947871 4.5786767 -6.5129719
-2.7742195 4.0995951 -5.9776917
-2.45679 4.7028713 -6.1130433
-3.6498699 4.5656371 -4.6765261
-3.0209732 4.6931567 -5.4842367
-1.3881092 4.8770652 -6.3672261
-1.5799127 4.6561785 -6.93958
-1.9491253 5.0795918 -6.4629965
-1.4921293 5.1099801 -6.8498044
-1.2099128 6.0918617 -6.3699436
-1.2857761 6.0311475 -6.5900383
-1.5942526 5.6093187 -6.5467148
-1.2103724 5.8702936 -6.2762885
-1.0671368 5.9666839 -5.9266047
-1.0485573 5.7328067 -5.8041177
-0.92261124 5.1208062 -5.3667979
-0.66149998 5.4105034 -5.0005064
1.1652381 5.4276862 -5.8355494
0.96059942 6.2229967 -6.7493787
1.1770117 5.9607205 -6.1266088
0.99117756 7.1943293 -6.7812195
1.0552015 6.6345434 -6.6107316
1.3131998 7.0886445 -6.1477323
5.3149624 5.7213869 -6.6260734
5.190979 6.4785161 -6.9612947
4.9565139 6.9784799 -7.6412935
5.169467 7.1695232 -7.1660604
5.1688824 7.7354736 -7.3380184
5.3984108 7.4194312 -6.720264
-4.1395187 4.9420047 -3.6157818
-4.0405769 5.3955708 -3.4836454
-3.868928 6.1208763 -3.2252221
-3.6565266 6.110477 -3.6556182
-3.8864975 5.5054512 -3.7110763
-3.4044619 5.8311033 -4.3206134
-3.1846285 5.3488994 -4.954278
-1.075253 6.5309463 -6.1455173
-1.4400606 6.1954937 -6.3745556
-1.0927668 6.8050523 -6.2987328
-2.6299667 6.2552967 -5.1200628
-1.6770248 6.6680279 -5.8774443
-0.9172368 6.8432093 -5.822732
-0.747159 6.6143074 -5.378449
-0.84001017 6.3009348 -5.504818
-0.55483627 6.2108531 -4.9572487
-0.45593119 5.5942836 -4.7329569
1.5944123 7.4862394 -5.6324
1.5091496 8.0279379 -5.8749113
1.8424315 7.9209437 -5.2076645
4.9849548 8.9473009 -7.0727901
5.208282 9.2835865 -6.7709212
5.5500536 9.1552753 -6.8653131
5.3706021 8.6504259 -7.1437874
5.5805359 8.6488085 -6.6049242
5.6417627 7.7679887 -6.292841
-3.4209375 6.7544041 -3.4729862
-2.458374 7.7737389 -3.9470997
-2.8680444 7.3221922 -3.8248634
-2.2578726 7.5553455 -4.4857788
-1.9977531 7.1408591 -5.1923685
-0.66983891 7.0890198 -5.3122392
-0.55361938 7.7176099 -5.1943817
-0.63507652 8.2757931 -5.5130959
-1.4126682 7.8609066 -5.1770878
-0.3618536 8.3055735 -4.8926306
2.0019834 8.242672 -4.9708619
1.4371552 9.0032825 -5.9364882
1.711473 9.0173473 -5.5132046
1.8002768 9.7621574 -5.5495872
1.7599516 9.3214941 -6.0266376
1.4710782 9.3710365 -5.8252988
1.7599063 9.5894508 -5.7337503
4.3790293 9.380888 -6.6609392
3.6006274 9.3354931 -6.5999789
2.6786914 9.8940811 -5.7718081
3.5917897 9.7148952 -6.2162404
3.6069214 10.08172 -5.805429
5.7765226 9.5882454 -6.449625
5.4154825 10.153487 -5.8501086
4.4455276 10.315296 -5.6425638
-0.99664497 8.5024281 -4.9416633
-1.5986481 8.5714283 -4.1859899
-0.75049686 9.044817 -4.5561337
-0.13733721 8.822773 -4.5074997
-0.17607594 9.3789625 -4.676362
1.9854255 10.064357 -5.2651892
3.4842515 10.406754 -5.3666205
3.0055041 10.490543 -5.1129694
3.7406027 10.68277 -5.040452
5.0151043 10.572812 -5.3293715
4.4678488 10.782509 -5.0043039
1.7521067 -5.0141592 -6.3440151
2.8661094 -4.9664636 -6.7796659
3.4816899 -4.8086929 -7.0499229
6.3706613 -3.4999208 -8.0212688
7.1987762 -3.2560368 -7.9993219
7.7828145 -3.0481501 -7.9554405
-0.44887352 -4.0647821 -5.5963249
-0.37876177 -4.3332682 -5.6579185
0.81289768 -4.6509881 -6.1988077
-0.10895205 -4.2778072 -5.9246578
0.11458731 -3.9924636 -6.3333244
-0.45611858 -3.5859456 -6.2503233
0.33249187 -3.6374059 -6.7486544
0.79796743 -3.3644719 -7.1896572
1.3162479 -3.7688966 -7.1643648
1.6975222 -3.5785689 -7.4505024
2.9676278 -4.497261 -7.1981163
2.1425745 -3.9386396 -7.3754311
3.0965476 -4.0416827 -7.5644693
3.2225156 -3.590621 -7.8906174
3.5128493 -3.9704118 -7.6904678
3.4520547 -4.1768327 -6.9839058
3.4625783 -3.6697021 -6.9926314
5.8409843 -3.2548871 -8.2265711
5.5533257 -2.8691916 -8.4535799
5.6579657 -2.152462 -8.3038263
5.6727724 -2.3768158 -7.851738
5.9723873 -2.7557383 -8.482132
6.1101913 -2.2219291 -8.7210884
7.3922629 -2.9331489 -8.1306601
6.9379148 -2.6773429 -8.3784246
8.2993269 -1.364809 -8.5576324
9.1050882 -1.3244514 -8.2491083
8.9823332 -1.799911 -8.1246443
9.6328764 -1.9712143 -7.7361984
8.8028774 -2.3494673 -7.9567719
8.3191643 -2.8454762 -7.8885918
7.7868538 -2.6064539 -8.1938915
9.6848602 -1.0804675 -8.0578842
9.661706 -1.1298583 -7.901659
-0.4028368 -2.3654733 -7.0724945
-0.30788231 -2.5671115 -6.4474196
3.5286288 -2.9562335 -6.6230907
3.5469558 -2.5763254 -7.1752262
3.5326889 -2.6835399 -7.8899441
3.5761356 -2.0937271 -7.6281986
3.6146541 -1.5198102 -8.0233459
3.7878032 -1.4440391 -6.8064651
5.8433604 -0.86424255 -7.8911934
5.8328066 -0.59723568 -7.2179222
5.702529 -0.90492964 -6.7215171
5.6996231 -1.6442804 -6.9370351
5.9037881 -0.27866507 -7.4789829
5.9760714 0.14508069 -8.0528574
8.6936054 -0.75815129 -8.6005344
9.1299286 -0.93859982 -8.366148
9.2259331 -0.58452988 -8.4275322
9.3264484 -0.15812445 -8.4904613
9.7316332 -0.42473674 -8.2286596
9.7018805 -0.83280921 -8.1224346
9.7062588 -0.30562735 -7.9939995
9.7269955 0.23222089 -7.7870064
-2.7788563 -2.2563167 -3.8174739
-0.20851231 -1.8949847 -6.5256057
-0.10064459 -1.1742966 -6.5410509
-0.01394558 -1.1161513 -5.6259704
4.6548557 -0.26632881 -6.0667415
4.0884733 -0.97824001 -6.3220711
4.0006261 -0.48710108 -6.9007549
4.3780136 -0.59962177 -6.1304493
4.9899387 -0.050958395 -6.037034
5.3526773 -0.050632 -6.1399636
5.6572804 -0.27380943 -6.5050259
5.6024466 0.30893517 -6.3808308
6.1497059 1.2123641 -7.5133648
5.8906679 0.56274557 -6.8362632
5.9972067 0.87618351 -7.0065584
5.9531879 0.25317299 -7.2617912
-2.7696838 -2.4618831 -4.118597
-2.797761 -2.9217696 -4.3511395
-2.7079639 -1.9037623 -3.7190633
-2.6513929 -1.7658901 -3.9151344
-2.7076731 -2.2291617 -4.291832
0.15522861 0.23110807 -5.8816657
0.15238142 0.46599889 -5.1900525
0.025065422 0.17683673 -4.6318388
0.0047850609 -0.63051534 -4.9076715
0.23223114 0.80205941 -5.7162366
0.29175901 1.1805147 -6.0069532
4.2031593 0.53333855 -7.0556564
4.6486454 0.27054131 -6.2984214
4.5986748 0.9414283 -6.6117105
4.4726725 1.6185193 -7.0549164
4.9654174 1.4406856 -6.4384551
5.641499 0.88904393 -6.3898153
5.4453316 1.4151542 -6.2977653
6.2559786 1.8100526 -7.2761946
5.821454 1.3896174 -6.4891806
6.0836658 1.6988126 -6.7622156
6.0637388 1.2131639 -7.0090771
-3.6273336 -1.830555 -3.9335189
-4.0773983 -1.1155832 -3.6571751
-2.2555504 -0.026934147 -6.185535
-2.1194773 0.1790204 -5.1657333
-2.2465553 -0.16215587 -5.5470128
-2.3657923 -0.67784452 -6.2085042
-2.6049089 -1.7172172 -4.3070006
-2.4963846 -1.4418297 -5.780931
-2.5658498 -1.9402895 -5.3582573
-3.3009119 -1.495245 -4.6957922
-1.950839 0.47753263 -4.7926812
-1.9069433 0.60948157 -4.8048577
-1.8355546 0.60532379 -4.5469122
-1.7742705 0.45412338 -4.1486292
-2.1119766 0.067855477 -4.8769884
-1.4313774 0.87203658 -3.9876385
-0.90044498 1.0824499 -3.7669549
-0.40369225 1.1157147 -3.8992472
-0.0258255 0.88942015 -4.3624797
-0.10297728 1.5009598 -4.237956
0.43668699 2.2013693 -5.321537
0.16278124 1.7073903 -4.6514645
0.34701157 1.929005 -5.1210537
0.30670786 1.4248055 -5.3841619
4.8981705 2.5779979 -6.7511182
5.225174 2.0289726 -6.3918862
5.2957287 2.6229763 -6.4103522
5.1584892 3.1543708 -6.5736628
5.6282015 2.9780936 -6.2579398
6.2324915 2.1335931 -6.8190775
6.4092751 2.4265754 -7.1891747
6.2862215 2.6543992 -6.5602555
6.0780807 3.0207829 -6.2317395
6.4910145 3.2476654 -6.4444923
6.7510633 3.5021856 -6.9946356
-4.3490133 -0.15314579 -3.644361
-4.6398058 0.50486362 -3.2965517
-4.5621758 1.7576452 -3.6853867
-3.7838936 1.4302102 -5.0098238
-4.0755072 0.25101292 -4.3269949
-3.8867636 0.64927006 -4.7267337
-3.2484808 -0.41357327 -5.3036265
-1.6223893 1.5559109 -4.9804964
-1.2208333 1.4113929 -4.1826153
-1.1657419 2.0659218 -4.5391564
-1.2688441 2.7168944 -5.0556035
-0.7796917 2.5560102 -4.4029078
-0.076077461 2.0596056 -4.2890763
-0.29130745 2.5507522 -4.2471714
0.55837584 2.8889744 -5.2124205
0.099258423 2.517158 -4.4239483
0.36738014 2.79318 -4.7098279
0.35684109 2.3665218 -4.878912
5.454155 4.070755 -6.35776
5.9162035 4.1248636 -6.0180831
5.8220301 3.521369 -6.1420002
7.1174583 4.5411782 -7.1459103
6.7697172 3.8291395 -6.3551865
7.0837545 4.3675175 -6.346406
6.3449001 4.3491459 -5.8094397
6.772789 4.2684298 -5.9192638
7.3727856 4.9375043 -6.6028128
7.4989271 5.7218289 -7.1366682
9.4641018 5.8623533 -7.8719368
9.7819405 6.5825896 -7.3555946
10.732069 5.2336669 -7.3743801
11.12285 6.1736546 -6.6603003
10.263739 6.6656446 -7.0214672
-4.3942852 3.3839376 -3.8321915
-4.2619848 2.9416542 -3.5874033
-0.92360401 3.6682642 -4.9379845
-0.54295969 3.1183848 -4.420104
-0.49326515 3.7310698 -4.5129766
-0.67693663 4.355135 -4.8128948
-0.15019035 4.1024513 -4.3568525
0.51416826 3.2257075 -4.7909555
0.70724726 3.530664 -5.1503029
0.55169249 3.7610321 -4.5779819
0.330194 4.1439958 -4.3018918
0.73732901 4.3654833 -4.4986324
1.0038738 4.5946012 -4.9700232
5.6113262 5.0775976 -6.1969852
5.8723211 5.1722651 -5.9331956
5.8894839 4.7242484 -5.9594569
7.2208385 5.3937006 -5.1413212
6.7592611 5.1206589 -5.3884521
6.6540298 4.6775112 -5.6292167
6.2889915 5.1137934 -5.6127934
7.8742929 6.1027327 -6.536715
7.678721 5.548995 -6.4707599
7.9166675 5.8877029 -6.2082658
7.8564768 5.6027975 -5.1913662
8.1079121 5.961751 -5.7876182
8.0710239 6.8223381 -6.5652752
8.1502199 6.6621642 -6.3473463
7.4861383 7.6177058 -7.6986313
7.9415464 7.2079568 -6.9129677
8.1519175 7.0265131 -6.5137129
7.981432 7.5216751 -6.9174604
7.7953157 8.1281319 -7.2629471
8.8230801 7.7615285 -7.1238728
8.1780148 8.642849 -6.7109442
8.8430319 8.3947468 -5.8318162
10.795271 6.9739528 -6.4381557
10.544877 7.669982 -6.1183724
8.6935978 9.1380081 -6.0260057
-4.2035465 3.6777573 -3.6258664
-4.245594 4.3374505 -3.733223
-3.6832018 4.5471973 -3.0034423
-3.9162674 4.1022263 -3.2899032
-0.22777081 5.2130785 -4.4583235
0.16800308 5.2219772 -4.1744289
0.078567028 4.6591482 -4.2588401
1.3636653 5.6902122 -5.1636305
0.99220657 4.9691658 -4.4332852
1.2750683 5.5366383 -4.4021363
0.54281044 5.4970798 -3.9891658
0.94813442 5.457233 -4.0436087
1.5532804 6.0872049 -4.5564871
1.6899185 6.7052259 -5.0017996
5.5581646 6.0426207 -6.2885642
5.8289251 5.6482849 -5.9465408
5.7432232 6.2783852 -6.0401239
5.7296681 6.7853303 -6.0624232
6.0864558 6.395134 -5.5979137
6.6375046 5.7007427 -5.2188511
6.4195004 6.4753342 -5.2184892
9.4161987 8.254056 -5.1533966
9.1321144 8.3136082 -5.4832373
10.257143 8.4715099 -5.6278315
9.50914 9.5558968 -5.0127268
9.4035664 8.9323235 -5.194788
-0.22961712 5.9231296 -4.4882655
0.18349743 6.174181 -4.0728073
0.092862606 5.7881331 -4.1784158
1.2704718 6.6725636 -3.4103193
0.88956594 6.4138165 -3.6041393
0.79254532 5.9052868 -3.8159699
0.44854355 6.3026867 -3.8582554
1.7620354 6.5656552 -4.0622663
1.6460299 6.6886849 -3.5299702
1.9553165 6.9735413 -3.6530328
2.1872945 7.7995381 -4.3646908
2.2017097 7.3678112 -3.6690083
5.901309 8.2781315 -5.8714776
6.2507606 7.3604503 -5.3175669
6.1975245 8.2724857 -5.3813701
9.5527153 8.1686153 -4.987206
9.5507221 8.9609489 -5.0297022
9.5600672 8.5503311 -5.0166302
-2.9265347 7.722981 -3.2248831
-3.1731396 7.3141556 -3.2921419
-3.318922 7.4541998 -2.8051391
-3.5117569 7.2689142 -2.622191
-3.4216833 6.6170459 -2.6180139
-0.31320953 7.2116728 -4.6722369
-0.0022296906 6.7257719 -4.2304349
0.11881399 7.2430811 -4.0624113
0.022275925 8.0209312 -4.1742125
0.35886955 7.5164132 -3.7630467
0.8430233 6.9803896 -3.4386449
0.7612505 7.6357489 -3.3301868
2.4009125 7.8251681 -3.7547526
2.1077135 8.6333771 -4.8286061
2.3658657 8.4721947 -4.2959533
1.7533026 9.7210312 -5.343699
2.2250769 9.1158495 -4.6655664
2.2921281 9.2489471 -4.5396247
6.2138486 9.3185644 -5.442873
6.0099277 9.9456816 -6.014266
6.3126478 9.8321743 -5.3500328
-3.262537 7.7636142 -2.448875
-3.1912336 8.0838928 -2.0427527
-2.8995318 8.6936398 -1.5108883
-2.4848094 8.9217949 -2.093646
-2.5204601 8.4230232 -2.9621694
-3.0190296 8.1547813 -2.3574758
-2.4847693 8.6891737 -2.578958
-0.51621532 9.5025263 -4.1809511
-1.0585079 9.6309261 -3.3234377
-1.8342571 9.2665291 -2.7498686
-0.21365643 9.9358978 -3.8295269
0.20563793 10.107255 -3.9674587
0.11332035 9.3800287 -4.0780802
0.36394501 9.4147606 -3.6321301
0.73631144 8.3919735 -3.2028613
2.3597331 10.567617 -4.750083
2.2464466 10.762015 -4.3914919
2.6368361 10.148302 -3.9477787
2.6577919 9.434185 -3.9302626
4.0113535 10.951344 -4.6883659
3.5702798 11.146361 -4.2763844
2.8116026 10.993794 -4.2735467
4.3617115 11.186088 -4.3549738
5.2032647 10.815936 -4.9807129
5.0777388 11.115685 -4.5120363
5.9636259 10.912971 -4.7594781
6.5494151 10.806932 -4.7805119
6.7742653 10.747763 -4.6720181
6.6558962 10.596315 -4.8615727
-2.3215199 9.2297268 -1.7594283
-1.3679142 9.6952248 -2.7052288
-1.6760769 9.6698589 -2.1782153
-1.0269156 10.041276 -2.5354214
0.10421371 10.329514 -3.4851522
-0.23645926 10.407676 -2.927402
2.7411416 10.956726 -3.6345091
3.1319056 11.364802 -3.7231603
2.8959107 11.546597 -3.2294426
3.4747152 11.672257 -3.1981745
4.775362 11.40319 -4.0037441
4.3728209 11.683255 -3.4082704
5.6258316 -5.5099564 -6.5225782
6.231812 -5.3503251 -6.6134572
7.0514259 -5.0570416 -6.7151461
0.9724865 -5.0068078 -5.9399719
0.87894154 -5.2976398 -5.5756626
0.49009371 -5.4816122 -5.1006227
1.4080987 -5.7788706 -5.3445091
3.318841 -5.6128092 -5.4082699
3.4241343 -5.8810406 -5.9982433
2.5421872 -5.9793668 -5.6281676
2.8098409 -5.4961662 -6.2522569
3.4096117 -4.7114315 -6.456882
3.3707705 -5.2027893 -5.9689398
5.463954 -5.3188472 -6.7169757
5.5104866 -4.8087568 -6.6590729
5.5173578 -3.7523441 -7.9545069
5.4978123 -4.3157511 -7.5698204
6.1293983 -5.079349 -6.8797026
5.4744072 -5.0498533 -6.9693766
5.9135008 -4.7419538 -7.1960716
7.728405 -4.7394896 -6.7868114
6.4983625 -4.4150038 -7.3770123
7.5257421 -4.4152808 -7.1257763
7.1629753 -3.6300693 -7.7842312
7.3079433 -4.0078936 -7.4963312
8.0483294 -3.5390778 -7.5777683
8.3450413 -3.1072073 -7.7319574
8.9559479 -3.3670297 -7.3122826
-0.13443565 -5.1164193 -5.0367327
-0.52123451 -4.7363648 -5.1305699
-0.49814367 -4.3997035 -5.4935679
-0.46681976 -4.5607834 -4.9060516
-0.45401859 -4.6694016 -4.3344307
0.46267033 -4.961926 -5.6602802
-0.043130875 -4.8652215 -5.3916917
-0.021734238 -4.6319132 -5.650281
3.2590575 -5.0903606 -4.8574409
3.351263 -4.3434296 -4.8219995
3.3554349 -4.416676 -5.6182384
3.4344854 -3.9388733 -5.06142
3.5967212 -3.3405037 -5.1259961
3.5357521 -3.2368398 -5.8443909
5.5273023 -4.2011251 -6.2053981
5.4028993 -3.260252 -5.5772052
5.6658783 -2.3161726 -6.9984913
5.5648546 -3.4773688 -6.4394341
5.6190772 -2.8534427 -6.7696257
5.5511227 -3.8525085 -7.485899
9.5725365 -3.2682714 -7.046093
9.5160141 -2.6201181 -6.9210901
-0.27309132 -3.2711473 -4.9786043
-0.28626871 -3.4246707 -4.5020933
-0.37236357 -4.1096745 -4.4408712
3.7760463 -2.8667665 -5.1562595
3.9428978 -2.4575362 -5.2540951
3.7140982 -2.401083 -6.0297184
4.9070835 -1.5486014 -5.4474006
4.4803963 -1.7328353 -5.3291979
4.0582891 -2.0090613 -5.5038915
4.1151352 -1.496886 -5.8613081
4.828517 -2.1075397 -5.1210995
5.089797 -2.6455445 -5.096426
5.5599775 -1.1228635 -6.3340569
5.2303033 -1.4325109 -5.7407346
5.4153905 -1.2956448 -6.0324297
5.5238662 -1.9043219 -6.2022362
9.560586 -0.99475241 -6.8599749
9.6013069 -0.51165891 -6.7764149
9.6642942 -0.11450815 -7.36446
-2.8556471 -2.8508139 -3.9300914
-2.8034229 -2.2381563 -3.6341004
-2.9021335 -2.8388324 -3.6865163
-0.21742105 -2.778791 -4.5160108
-0.20249367 -2.1273303 -4.0244584
-0.042991638 -1.186348 -4.9096584
-0.16357517 -2.2483101 -4.5896587
-0.10717392 -1.7493534 -4.7381058
-0.17432213 -2.4540792 -5.1745796
4.7463398 -0.68233395 -5.8385243
4.9428296 -1.061151 -5.6760082
5.3162498 -0.84651923 -5.9795465
5.0454607 -0.73961592 -5.8274436
5.18472 -0.43145227 -5.9729662
9.8026056 1.0101008 -6.9070969
9.6742744 0.082409859 -6.5574636
9.7723112 0.66822422 -6.3498921
-3.4706287 -3.7287245 -2.0263696
-3.7491484 -2.5578599 -3.0163555
-3.5936632 -2.2964859 -3.6051402
-2.9143496 -3.2513943 -3.8426652
-4.3691235 -2.143898 -1.9211769
-4.6210346 -1.8375087 -1.4667335
-3.1107998 -2.5507731 -2.5967278
-2.9494982 -2.4547143 -3.1544123
-2.855813 -1.8943596 -2.8083448
-2.6786575 -1.4573557 -2.7344713
-2.621542 -1.5269265 -3.4366422
-0.26484203 -1.4145124 -3.5756478
-0.3997798 -0.85095 -3.2736444
-0.11098671 -0.10616398 -4.1839008
-0.25934553 -0.83137083 -3.6571379
-0.21323633 -0.27655339 -3.8629322
-0.11092663 -1.0135584 -4.260983
9.9503965 1.6380309 -6.305676
9.8709288 1.1921155 -6.2664781
-4.5627861 -1.4987245 -1.7399836
-4.6441927 -1.4131212 -1.9536514
-4.592063 -1.3097553 -1.9705791
-4.5795479 -1.0574026 -2.1783297
-4.5130682 -0.1613214 -2.7423015
-4.6602068 -0.26773286 -2.8878181
-4.5158062 -0.57063961 -2.4677813
-2.5044889 -1.1848125 -3.0156565
-2.3197298 -0.8528614 -3.2053413
-2.4223375 -1.0477126 -4.2050529
-0.71019363 -0.28161621 -2.9968624
-1.1112256 -0.040900707 -2.8963933
-2.1029277 -0.42795753 -3.5196333
-1.90098 0.056024909 -3.862751
-1.6139688 -0.10129046 -2.9812026
-0.36198044 0.16070163 -3.6675124
-0.74671888 0.19607425 -3.2608194
-0.63966513 0.67150998 -3.5861111
10.267649 3.1488919 -6.1850977
10.433119 3.7287507 -5.9720368
-3.4560995 2.3345029 -2.1671715
7.592598 5.7608771 -4.7905135
7.8568664 6.0834818 -4.4064436
8.3851366 6.1564093 -4.2155161
8.4988527 6.2119517 -5.1950731
8.7924366 6.2412629 -4.474093
9.1011648 7.5957713 -5.3598275
9.0408096 6.7344227 -4.9412494
9.4323368 7.0612302 -4.7215657
12.006828 7.375596 -4.9490175
11.313881 6.4157076 -5.9383612
11.425312 6.6972246 -6.0795822
11.599434 6.8529954 -5.461853
12.317154 7.533884 -4.2200203
-2.9455299 4.2330284 -1.7807631
-3.0797806 3.7717564 -1.9164634
-3.4918137 3.8624439 -2.6285
-3.2813702 3.0557666 -2.087615
6.7790022 6.6612754 -4.8209229
7.078794 6.7314143 -4.5111499
7.2925057 6.2358322 -4.569334
8.0080137 6.3809252 -4.0486455
7.6781473 6.9213591 -3.9218612
7.3500834 7.0995855 -4.1335449
10.249357 7.3990364 -4.1643081
9.9602385 7.3137159 -4.3557897
9.6503086 7.6011982 -4.7522473
9.6668015 7.2774177 -4.601027
11.773585 7.7021899 -3.3970594
11.959797 7.7717133 -4.6298265
10.919361 8.5266762 -4.9920659
11.52178 9.2806721 -3.2497067
10.3111 7.7195997 -4.2098098
10.777857 8.1186285 -3.92939
12.589117 7.4986582 -3.3252845
12.417578 7.2503147 -3.2354355
-2.6641917 5.4313331 -1.5200536
1.5474873 6.9762502 -3.2178507
1.7792678 7.2172208 -3.0567484
2.0317819 7.2272525 -3.2409272
6.7700834 9.2252769 -4.5058355
6.4487295 8.4982901 -4.9875431
6.785059 8.5470085 -4.5034037
6.880754 7.6414051 -4.4846449
7.5124245 7.4459624 -3.8525391
7.3457513 8.1937809 -3.8298149
7.0089688 8.6938915 -4.1862736
9.9187469 7.9146085 -4.5796719
9.6559258 8.2174129 -4.8856854
9.7185974 8.7709675 -4.8598599
9.7862148 8.3268785 -4.7678761
9.9786205 8.3639774 -4.5874429
-2.5548673 7.3271036 -1.3818288
-2.5828619 6.7926598 -1.4668751
-3.09834 6.8604593 -2.1765366
-2.6387196 6.0691733 -1.546803
1.1099105 7.6956997 -3.0225277
1.4084523 7.7500553 -2.8002725
1.4725842 7.3353395 -2.9887486
1.9760094 7.4611707 -2.8650045
1.7306015 7.7818408 -2.621403
2.1689692 7.8090744 -2.5205278
2.607996 7.976965 -2.5791268
2.6277113 8.0285912 -3.2420406
2.4567623 8.1869831 -2.1026235
2.8730874 8.8120365 -3.3744884
2.8865373 8.318573 -2.839025
3.1563802 8.6333771 -2.5434005
7.0073538 9.669178 -4.1408901
7.1711702 8.9954262 -3.9350271
7.31457 9.5857306 -3.6845493
7.5019736 10.183626 -3.3988428
-2.4004669 8.7710896 -0.8756175
0.80974579 9.0278959 -3.0023937
1.0258701 9.4226475 -2.646395
1.2950201 8.3531017 -2.6351666
2.305558 8.6172886 -1.7527213
1.8504934 9.2587585 -1.7526557
1.3093672 9.8136282 -2.1951759
3.884413 9.9863739 -2.0461717
3.6341496 9.4341173 -2.2556906
3.192086 9.5017252 -3.0348392
3.4055166 8.9893246 -2.375936
4.1264377 10.279988 -1.747468
6.4162197 11.069457 -4.4060006
6.7154737 11.261589 -3.9729776
7.1659088 11.130867 -4.0395107
-2.424758 9.446579 -0.66002846
-1.9480138 9.6347408 -1.6366382
-2.068428 9.6990976 -1.0684025
-0.57776356 10.791813 -1.2739406
-0.76843977 10.347578 -2.2557604
-1.4259543 10.082285 -1.6344061
-0.66271544 10.579483 -1.821327
0.82738256 10.625875 -2.8320346
0.60246468 10.729314 -3.2452426
0.17352533 11.008992 -2.0196764
0.88872004 11.097637 -2.729578
0.8652854 11.307289 -2.1198895
1.5945287 10.124887 -1.7483773
1.5212612 11.035759 -1.6683519
1.3069541 11.529799 -1.9875817
3.7088671 10.636185 -2.3393688
3.1972275 11.132603 -2.9578257
4.300591 10.95694 -1.4935308
3.9364552 11.684996 -1.7827234
3.590899 11.505683 -2.3068738
3.5675151 12.090189 -2.1041842
3.8663316 11.940044 -2.6660936
6.0017715 11.451234 -3.813982
5.2365608 11.594242 -3.6273556
5.7645311 11.729357 -3.2738147
5.5403385 12.032516 -2.5702181
4.4295349 12.151981 -2.1952116
6.9979696 11.446936 -3.4996624
6.4359579 11.764627 -3.0204434
-0.49513817 10.955196 -0.76959014
1.0408993 11.513153 -1.7034733
0.2545166 11.338852 -0.97214556
1.2226286 11.683234 -1.3405697
1.5532949 11.508243 -1.5753202
1.6416759 11.812736 -1.4138811
5.4676228 -5.4988241 -6.2494082
5.4543657 -5.7958612 -5.9439764
5.9885445 -5.671689 -6.3305826
6.2485828 -5.9660606 -5.9668803
5.4310617 -6.16605 -5.838356
8.9256115 -4.8729286 -6.1319294
8.0036554 -4.9917898 -6.4574594
8.2217655 -5.2893362 -6.0754099
7.2823215 -5.6650567 -6.0503607
9.5203915 -4.6271811 -6.0026813
-0.59554577 -5.5180464 -4.062674
-0.15773773 -5.4831529 -4.5590343
-0.22257376 -5.8273153 -3.9953413
-0.3165555 -6.0491314 -3.5144758
0.32642078 -6.3248568 -3.7387156
3.2597511 -6.800808 -4.30931
3.3274593 -6.9153042 -4.5863285
1.3921938 -6.6376619 -4.1138687
2.0087807 -6.3349094 -4.9445748
2.6077704 -6.8285894 -4.4765644
3.2588954 -6.4151363 -4.5930133
3.2452846 -5.8354659 -4.7974567
3.1892142 -5.9742885 -4.3456612
3.1562178 -6.1628637 -4.0592365
3.1408272 -5.564589 -3.9406123
5.4826546 -5.1550221 -5.8363471
5.5032892 -4.5470467 -5.9351034
5.4269953 -4.5231304 -5.3141975
8.4108229 -4.4594541 -6.7580218
9.1495256 -4.5639439 -6.2890491
9.2225351 -4.2130461 -6.5524006
9.5528374 -3.7183752 -6.7567801
9.5412874 -4.1339273 -6.4263268
9.5214558 -4.5667677 -6.048018
9.4377356 -3.96387 -5.9857979
3.1810951 -5.0309687 -3.622242
3.3577383 -4.4252324 -3.751678
3.2990415 -4.5996985 -4.3271861
4.043004 -3.2729664 -4.1301842
3.689775 -3.463974 -4.4697223
3.7766559 -3.646102 -3.9112368
3.4981685 -4.0933762 -3.8453608
4.4281597 -3.2321634 -4.1083808
4.7752829 -3.2296829 -4.3525152
5.198122 -3.2424059 -5.0105815
5.2638688 -3.8039513 -4.8987684
4.9921579 -3.1720638 -4.6560831
9.4416962 -3.0033674 -6.3600903
9.365819 -3.3467689 -5.7237959
9.3513441 -2.5718927 -5.2366834
12.159336 -0.65352559 -5.4654169
-0.42757416 -4.2649007 -3.2297502
-0.31534672 -3.5207815 -3.8901443
-0.3706789 -3.6102819 -3.2685461
4.1122913 -2.6917968 -4.7501307
4.2431626 -2.9530935 -4.3904271
4.7779837 -2.9141111 -4.5808773
4.4578347 -2.7030063 -4.5954638
4.7424321 -2.5498266 -4.8040075
9.4311733 -1.9116268 -4.9664779
9.482688 -1.4971814 -5.3802576
9.4843597 -1.549305 -6.2069197
9.5269423 -1.1351557 -5.7524662
9.5624428 -0.82086587 -6.1883221
9.614522 -0.69286871 -5.3891625
12.166577 -0.52216244 -5.1255417
12.233494 -0.42401052 -5.6585507
12.23094 -0.34094453 -5.2052774
-0.31991291 -2.8096318 -3.3441281
-0.28673792 -2.0469017 -3.4510651
-0.41064167 -1.9995227 -2.8769054
9.7524395 0.22437727 -5.6751862
9.745842 -0.23044205 -5.0519791
9.9148932 0.24541402 -4.7505383
-3.8882856 -1.8380172 -0.65549207
-4.3954153 -1.8833256 -1.0499518
-4.0806427 -1.9298666 -0.48402464
-3.5606747 -1.521306 -0.83612192
-3.4486103 -1.555491 -1.0001771
-3.3975496 -1.8651135 -1.3322074
-3.8070498 -2.0623274 -0.85612035
-3.5306425 -2.5137072 -1.5137072
-3.1128397 -1.5427928 -1.5049469
-2.7998142 -1.5106082 -2.277698
-1.1726656 -1.0479071 -1.5739045
-1.0004888 -0.93715191 -2.0270751
-0.62036037 -0.842695 -2.7892017
-0.6008358 -1.252718 -2.5830698
-0.82365227 -0.93039322 -2.3468342
10.103507 0.69255078 -4.4762177
10.106073 1.2552843 -4.9087858
9.9912739 1.4546608 -5.6904559
10.119896 1.7369647 -5.2949901
10.118891 2.1648521 -5.7763553
10.25963 2.071034 -4.9782639
-4.0582733 -1.7562585 -0.65193629
-3.8587379 -1.5548065 -0.54407716
-4.4711342 -1.3713288 -1.725915
-3.9065924 -1.5220332 -0.65492201
-3.8086224 -1.3857751 -0.62902951
-3.7109661 -1.4318352 -0.61450207
-3.6155243 -1.4208012 -0.70120418
-3.7363863 -1.3548522 -0.54032147
-3.657588 -1.2297981 -0.52652955
-4.3215866 -0.79356384 -2.0003936
-3.5377493 -0.93898416 -0.57219815
-3.352663 -0.79113865 -0.36813426
-3.4014931 -0.57896137 -0.60170126
-1.3912458 -0.85464168 -1.5437355
-1.7784877 -0.72759438 -1.458282
-2.4063339 -0.96598315 -2.2683973
-2.7831736 -1.2302341 -1.6913805
-2.5592222 -0.95064998 -1.4556665
-2.2472949 -0.76986957 -1.2665238
-2.9054561 -0.84592271 -0.7453115
-1.1456928 -0.65860915 -2.1699059
-1.4693074 -0.6252389 -1.9428256
-1.3669195 -0.36735868 -2.4390416
10.42553 3.1849451 -5.2822418
10.431989 2.5344586 -4.6722507
10.64482 3.1478686 -4.336647
10.971078 4.5500536 -4.2759342
10.898718 3.903847 -3.9524126
11.287859 5.5109434 -4.1598301
-3.0110188 1.4594526 -0.94319558
-3.1076469 2.2464411 -1.4775295
-2.7637749 2.0031767 -0.61234021
8.8812609 6.2740541 -3.9128213
9.2747173 6.3220744 -3.5001597
9.8295326 6.2508073 -3.2658587
9.9617682 6.7993164 -4.0514607
10.487404 6.5109682 -3.5577936
10.31652 6.2717052 -3.350801
12.01585 6.6977019 -3.3381543
11.952947 6.6757617 -3.5305929
11.764988 6.8220382 -4.6010752
11.162234 6.2071829 -3.2655702
11.769099 6.3011994 -3.4619799
11.700003 6.0416694 -3.226634
11.620665 5.9681015 -3.441308
12.069484 6.8502765 -3.481987
12.354402 7.3689895 -3.6979103
12.146053 6.9403429 -3.4108095
-2.5088239 2.7128782 -0.24578798
-2.763495 3.8575792 -1.3400395
-2.5134902 3.4996004 -0.65272188
-2.5923109 4.5159998 -1.197315
-2.5338793 4.0791516 -0.93625522
-2.3387957 4.3869648 -0.62465024
8.8337221 6.434865 -3.4860382
8.8654747 6.6335535 -3.1548901
8.0786819 6.7418041 -3.7023916
8.4325562 6.6217828 -3.5235667
10.648447 6.7181673 -3.6396685
10.554594 6.9622316 -3.8036175
9.2963848 6.5195665 -2.8891048
9.4722366 6.3532338 -3.0686903
11.917633 6.7373481 -3.3537312
11.734686 6.7319226 -3.380846
11.3584 6.7336569 -3.4488959
11.680256 6.7984395 -3.3997884
11.942271 7.0332289 -3.3619833
12.157122 6.9327693 -3.354548
12.38091 7.2283459 -3.2952561
12.153522 6.9129915 -3.320766
12.05337 6.9352212 -3.3390408
-2.1357851 4.80686 -0.34722948
-2.3033447 5.4130664 -0.8956337
-1.9199953 5.2971544 -0.09152317
7.7279606 7.6633158 -3.5482383
8.0909481 7.1197872 -3.4380193
8.0490923 7.801095 -3.1511259
-4.5977345 5.9840117 0.24786043
-1.7167807 5.7427673 0.14774156
-2.199831 6.8623056 -0.89677382
-1.8232932 6.3791227 -0.25103974
-2.2089853 7.6105938 -0.87053585
-1.9714365 7.0222864 -0.55202961
-1.8050852 7.3413239 -0.30922222
2.7116251 8.4740334 -1.7318888
3.0968544 8.5603313 -1.6565301
3.321265 8.6526909 -1.9530845
8.0388966 8.6223164 -2.9010243
7.7383842 9.408453 -3.1250653
8.0988979 9.2806702 -2.6863039
-4.5274153 6.2144632 0.28478122
-4.199646 5.896204 0.78710175
-4.1997957 6.1051207 0.74523592
-1.6651945 7.8749146 -0.089807272
-2.0748138 8.6687479 -0.4943769
-1.4681225 8.2057762 0.22810531
2.8403206 8.6974888 -1.4293509
2.9813819 8.9409389 -1.0886683
2.2749739 9.1301899 -1.4219959
2.5608554 9.0315504 -1.2704864
3.423759 8.7351055 -1.4981561
3.4279647 8.861762 -1.0759659
3.7739272 8.9475765 -1.2696285
3.9288526 9.2997656 -1.6370509
4.1651936 9.2334824 -1.093215
4.3870087 10.315377 -1.3841398
4.4919257 9.6504402 -1.0102892
4.6966686 9.9287128 -0.88027835
-2.2110944 9.7427883 -0.27443743
-1.9775858 9.999032 0.14388156
-1.6395693 9.5603409 0.35855484
-1.2444649 8.7307148 0.61763692
-1.7483354 10.172252 -0.072959423
-1.1346073 10.582655 -0.50408411
1.8245733 10.294641 -1.3962913
2.1553457 9.6292295 -1.2716475
2.0758376 10.469976 -1.0294833
4.3331385 11.702621 -1.2596135
4.6752305 11.750265 -0.80275655
4.9115028 11.161345 -0.6762526
4.991642 10.471354 -0.62757802
4.5047965 12.502254 -0.67092133
4.6790199 12.514486 -0.65908074
5.362092 12.311629 -1.7000601
5.2517838 12.528299 -0.67439687
8.0678349 11.527647 -2.6480317
7.322504 11.646787 -2.885777
7.7334771 11.759409 -2.2919714
7.2582245 12.141068 -1.4061131
6.1536779 12.379313 -1.140455
8.5488052 11.589811 -1.969337
8.2234945 11.747659 -1.8445749
-1.6431704 10.143418 0.62877297
-1.4926577 10.409774 0.25331497
-1.6582103 10.306602 0.69871902
-1.1748791 10.662913 0.42657423
-0.49664974 11.044056 -0.24843979
-0.5034585 11.105371 0.37299275
1.445179 11.841 -1.0035434
0.16060543 11.477581 0.44725847
1.0202513 11.817537 -0.19405723
2.0566642 11.16745 -0.85304117
1.7947893 11.659131 -1.172087
1.9815543 12.042408 -0.83222389
1.8051105 12.028444 -0.63493729
4.8386998 11.958263 -0.50593638
4.6525173 12.543509 -0.43669367
4.7483373 12.432943 -0.37674105
2.8166201 -7.8664722 -2.3587434
5.3397665 -7.3814793 -4.023488
5.420424 -6.4444218 -5.4730172
5.8443003 -7.0325975 -4.5826797
5.395833 -6.7988653 -4.9984503
7.8875809 -6.8586006 -4.1681347
6.3223786 -6.8087244 -4.8437257
7.6855145 -6.7214985 -4.494915
6.5334945 -6.2383842 -5.5823622
7.19661 -6.4708157 -5.0772476
9.4733763 -5.6274281 -4.9290972
9.1560097 -5.6559238 -5.1348248
8.1781559 -5.937469 -5.3581448
8.3028107 -5.6191397 -5.681798
9.484623 -4.8332901 -5.6678829
9.4881706 -5.3678803 -5.2385345
-0.74123049 -6.2884388 -2.4797664
2.4443152 -7.7419176 -2.4631705
1.9435472 -7.5534086 -2.5903049
0.24540567 -6.8541288 -2.5503778
0.79053688 -6.8138962 -3.270956
1.15553 -7.2624073 -2.6134758
3.1137817 -7.8495846 -2.57656
2.5718958 -7.5906973 -2.9494557
3.1657627 -7.7030191 -2.9896321
3.2304096 -7.0957556 -3.9015813
3.2620418 -7.3180332 -3.8498278
2.9523494 -7.4583139 -3.4506564
3.0305009 -7.1919003 -4.0089693
3.1931469 -7.0901356 -3.7187243
3.1431456 -6.6758661 -3.75178
3.0679126 -6.5069923 -3.4497604
3.0205963 -5.7338133 -3.1249933
3.0990248 -5.3942385 -3.4280062
5.3324552 -6.7349339 -3.8519793
5.2217979 -5.8953052 -3.550209
5.3226051 -4.5109997 -4.8000617
5.3211527 -5.8412504 -4.1038651
5.341291 -5.3426113 -4.5076303
5.4056606 -6.2155323 -4.7891083
9.3424377 -5.4399257 -4.4769325
9.1733341 -4.7629104 -3.9254317
9.3070641 -3.7153306 -5.1819324
9.4078674 -4.9287763 -5.2243929
9.2734642 -4.2208829 -4.8169665
9.2813644 -4.8264761 -4.5877118
11.536751 -3.2359362 -4.1192641
3.106375 -5.1692219 -3.0223231
3.3143625 -4.6370759 -2.8479898
3.301733 -4.6086478 -3.397975
4.8929601 -4.8963151 -3.1798496
4.4484529 -4.2709394 -3.0038123
3.5870242 -4.2546339 -3.0028048
3.7563601 -3.934772 -3.4071875
3.9798295 -4.1134009 -2.9215407
5.0825629 -4.3056164 -4.1296167
4.7697077 -4.1799746 -3.5608606
4.7319503 -3.628469 -3.9855261
9.1212597 -3.9914813 -3.3806763
9.1857395 -3.5547614 -3.5777712
9.2243042 -3.4295831 -4.1632714
9.2894554 -2.9377494 -3.629066
9.445137 -2.314764 -3.6293631
9.4090004 -2.1703382 -4.4706759
11.506826 -3.0627694 -3.9449797
12.122837 -0.6661706 -5.1000996
12.087999 -0.86265159 -5.2186127
11.572943 -3.3029885 -4.3386374
11.522858 -3.0135489 -3.99824
12.106964 -0.91585374 -5.8742504
12.171959 -0.64993596 -5.8720875
12.155935 -0.60523605 -6.4567051
-0.50087357 -4.0249152 -2.3826904
-0.43876171 -3.782238 -2.7620521
9.6027679 -1.7901635 -3.6780071
9.7212734 -1.4298902 -3.6864386
9.5559826 -1.4258358 -4.5120039
9.7576656 -0.98720193 -4.0809832
9.7425022 -0.63976383 -4.5555944
9.9263487 -0.64623928 -3.9269724
12.239299 -0.14409614 -4.7751727
12.310391 0.34075332 -4.2158546
12.145037 0.025350809 -4.1706471
12.071884 -0.49838829 -4.5590143
13.35228 0.018846273 -5.3129148
13.082055 1.8908167 -5.9472837
13.298683 1.7557228 -4.3667064
12.696932 0.85335374 -4.8801708
12.315525 -0.088330269 -5.2177887
12.400354 0.3534584 -4.5328836
13.76803 2.1669345 -3.8594742
-0.60474634 -3.8036537 -1.6573901
-0.68916988 -3.0487633 -1.3524337
-0.55751133 -1.9618797 -2.3408804
-0.58896065 -3.174942 -1.8061676
-0.56752539 -2.6087732 -2.0496144
-0.50335026 -3.3950949 -2.2504585
10.614243 0.46032798 -3.4615812
10.182612 -0.23587728 -3.7083626
10.160629 0.14148581 -3.9697742
10.414934 0.18579268 -3.5922422
12.388316 0.76811278 -3.742383
10.8151 0.90421259 -3.3586521
13.211404 1.6769539 -3.4015942
12.916094 1.4420826 -3.4360809
13.17565 1.6397436 -3.4731784
13.400084 1.8153157 -3.6857243
13.762856 2.095551 -3.8427258
13.561383 1.9422759 -3.5475969
13.482362 1.8801701 -3.5778604
-0.84223557 -2.2859273 -1.1168118
-1.0805135 -1.5880084 -1.004904
-1.2162957 -1.1919575 -1.2467508
-1.2858543 -1.3630834 -0.71116495
-0.71425676 -1.8780856 -1.8712053
-0.86954021 -1.7800443 -1.4619277
-0.92183638 -1.3599057 -1.7306156
10.298609 1.0573062 -4.1938715
10.539312 0.92758226 -3.688324
10.488808 1.364432 -3.9264221
10.464977 1.9080696 -4.2060661
10.743116 1.6658213 -3.5572042
10.877345 1.2589 -3.3344965
10.979607 1.8072255 -3.2374358
13.337302 1.7661357 -3.4740791
13.560789 1.9429104 -3.5454788
13.387904 1.8049061 -3.5544386
-3.0803776 -0.47420454 -0.10471773
-2.979382 -0.68997622 -0.45129871
-2.8588991 -0.4923501 -0.16987991
-2.0750351 -0.73015404 -0.82350707
-2.3877716 -0.5484128 -0.19243956
-1.5886755 -1.0798883 -0.21699071
-1.9621096 -0.73782682 -0.21327174
10.906373 3.006711 -3.4989862
11.06352 2.5230582 -3.1069636
11.173512 3.0898271 -2.878886
-2.8043365 -0.23080516 0.27077305
-2.8039351 -0.085188389 0.2041893
-2.6190972 0.03176856 0.53401542
11.148352 4.6478877 -3.6113558
11.407524 5.0157528 -2.8687828
11.322931 3.7163296 -2.5012569
11.435152 4.6700001 -2.3898625
11.533302 5.6642447 -3.2746592
11.463167 5.3708496 -3.11128
-2.4487491 0.49022102 0.80314291
-2.4846735 1.7472671 0.32960463
-2.3817205 1.4989834 0.85562301
11.505455 5.2340832 -2.6900282
10.424314 6.0333133 -2.9616601
11.028929 5.6361966 -2.7308693
10.729714 5.7077508 -2.465395
11.359142 5.9510927 -3.1425991
11.380679 5.647522 -2.9530418
11.575377 5.6339378 -3.0184951
11.993258 6.8107924 -3.3461704
12.133535 6.8816504 -3.3241
12.04797 6.8600559 -3.3382998
-2.3054595 3.3012481 0.10608172
-2.2086506 3.3115892 0.74582672
-2.300509 2.7514281 1.1774747
-2.3295755 2.1620595 1.2700163
-2.1468077 3.7676392 0.40332556
-2.1003022 4.2658405 0.083083391
9.0152864 6.8802209 -2.7355204
9.2301998 7.0699606 -2.3306537
9.5668516 6.7586994 -2.2259505
9.5748158 6.4622645 -2.6398067
10.025744 6.3007016 -2.1994848
10.5063 5.8738394 -2.1461031
11.952274 6.8894801 -3.3560076
11.878965 6.815135 -3.3658466
12.15336 6.9107437 -3.3199625
11.936361 6.9007025 -3.3593235
12.105019 6.8869309 -3.3285332
-4.7488623 2.9492464 1.7749698
-4.9453869 2.7691317 1.7885604
-4.3510742 3.1153164 1.9193203
-4.2503834 3.2790327 1.8428702
-4.3758554 3.6023064 1.5181148
-4.7996731 3.1261992 1.5374186
-2.2150412 3.497973 1.2188298
-3.9718008 3.7378168 1.6979864
-1.9887295 4.1995468 0.77340627
-2.0956578 3.9167988 1.1173711
-1.926712 4.4203148 1.1006486
-1.6654339 5.2093534 0.68346548
-1.7108827 4.9436674 1.072891
8.6579933 8.7528648 -2.1408448
8.4115429 7.9495173 -2.6996117
8.7121687 8.1474113 -2.2870507
8.8251076 7.4482174 -2.5058899
9.5677776 7.1285472 -1.880816
9.3475313 7.9422088 -1.6519217
8.9368715 8.3832703 -1.9408021
-5.2324581 3.3264904 1.9597507
-4.7694378 6.1192412 -0.053769588
-5.1340504 5.2837601 0.98228884
-4.8143148 3.7490201 0.98763514
-5.3757877 4.1817799 -0.14713383
-5.4658461 3.6736188 2.0489535
-5.406086 4.1756368 1.6780052
-4.5379066 4.8314166 0.71118569
-4.3945093 5.3883448 0.69316316
-4.0179243 5.0838737 1.1564796
-3.7202864 4.4429522 1.549068
-3.6092157 5.1992636 1.4598291
-1.5241446 5.3830228 1.052943
-1.526228 6.0444636 0.41430688
-1.3797803 5.839097 0.91652584
-1.3696389 6.9713497 0.39125156
-1.2664051 6.2782249 0.82988238
-1.0927801 6.6589723 0.98198366
8.9010801 9.3006172 -1.7086058
9.1112766 8.7405167 -1.6160183
9.2190151 9.329752 -1.3235862
-4.9078484 5.9029737 1.1445851
-4.372179 6.4083462 0.45944691
-4.5595512 6.6381159 0.1457057
-3.5932932 5.5893021 1.4286008
-3.9415331 5.9920139 1.0557373
-3.848918 6.2152882 1.1331594
-4.2343693 6.5516162 0.6233387
-0.42228985 7.8430786 1.7130187
-0.59639883 7.393765 1.5489502
-1.0552611 7.954493 0.78950667
-0.8406477 6.9713287 1.3018813
-0.24148893 8.3345871 1.9352629
3.2500701 9.1867733 -0.65220213
3.5261438 9.5136051 -0.090459824
4.1077871 9.3679943 0.16758299
4.4740987 9.2974377 -0.60915506
4.5471344 9.2420197 -0.06067729
4.9520588 9.9628735 -0.56483173
4.8642015 9.4469986 -0.26364076
5.2241087 9.7556601 -0.12711406
8.9036942 10.748447 -1.4845581
9.2546635 10.133025 -1.1229665
9.2308455 10.953735 -1.0697899
-0.51928377 8.5202503 1.5621002
-0.83529663 9.4091625 1.3404756
-1.0545073 9.0353632 0.93934941
-0.05038929 8.5586071 2.1923161
-0.66982555 9.8067007 1.7047582
-0.23704338 9.4196253 2.1177933
2.3694353 10.777781 -0.54632521
2.6614151 11.168607 -0.02701664
2.9290843 9.9926634 -0.27212965
3.693541 9.9653273 0.49058437
3.3532667 10.902857 0.73371983
2.9781103 11.218527 0.41487074
5.4095035 11.518166 0.030476093
5.4346523 10.819309 -0.099153757
5.2109699 10.70666 -0.36953497
5.38978 10.284469 -0.13506436
5.0681715 12.59621 -0.051342487
5.2389836 12.259466 0.15493393
5.0662336 12.611319 0.1478771
5.7833242 12.617832 1.0871063
5.5845141 12.302624 0.62277031
6.1191783 12.589385 0.9475348
