# .PCD v0.7 - Point Cloud Data file format
VERSION 0.7
FIELDS x y z
SIZE 4 4 4
TYPE F F F
COUNT 1 1 1
WIDTH 397
HEIGHT 1
VIEWPOINT 0 0 0 1 0 0 0
POINTS 397
DATA ascii
0.10721704 0.13815439 0.21428916
0.10466686 0.13200766 0.21710379
0.10109839 0.1239225 0.21861412
0.10788479 0.15941113 0.20673908
0.09766461 0.16309988 0.21087551
0.10475805 0.16752553 0.2000834
0.1031844 0.16414082 0.20630178
0.092814922 0.1666446 0.20723547
0.10038009 0.1702221 0.19655682
0.10042758 0.15375669 0.21614671
0.098276831 0.14682193 0.22006053
0.10667759 0.15200096 0.21165544
0.10455635 0.14348075 0.21574959
0.096102074 0.15789232 0.2155776
0.091347218 0.15037937 0.2212095
0.1020988 0.15951407 0.21226813
0.094711795 0.13812523 0.22303808
0.090703659 0.12981425 0.22459309
0.10039067 0.13464014 0.2204369
0.096085876 0.12527966 0.22190148
0.088015333 0.14169365 0.22419712
0.083908975 0.13217285 0.22539619
0.088660508 0.15948775 0.21589574
0.083478555 0.15253894 0.2205196
0.080029711 0.1480661 0.22180068
0.076627702 0.13306758 0.22460872
0.098149747 0.11782281 0.21887445
0.079370171 0.073117234 0.25815257
0.071317755 0.087203987 0.26055726
0.070497185 0.081961647 0.26433215
0.074561104 0.084288202 0.25407571
0.076662168 0.078479499 0.25893432
0.077551395 0.068708509 0.2595661
0.067072481 0.074160121 0.26541939
0.071475789 0.068556979 0.26190123
0.066028506 0.063957497 0.25924602
0.085206226 0.076261178 0.24640658
0.083413266 0.071709648 0.2514621
0.086444542 0.074961826 0.24311364
0.085809186 0.068737552 0.24384627
0.079904914 0.082648441 0.24511465
0.081029102 0.077551886 0.25194803
0.082356006 0.078719154 0.23833984
0.083995461 0.06850104 0.23783252
0.07973215 0.064970776 0.25422606
0.082090184 0.064020954 0.24592587
0.075582236 0.061141413 0.25315139
0.069977865 0.058582556 0.25270057
0.078244306 0.05995857 0.24371812
0.072229147 0.055313133 0.24533173
0.063080385 0.10183638 0.26119527
0.060459957 0.10382668 0.26024136
0.039381407 0.13539195 0.26113352
0.038833838 0.13406061 0.26155746
0.040395185 0.13426964 0.25895476
0.046099953 0.13181654 0.24788573
0.047743484 0.11176941 0.25434712
0.041280039 0.12763764 0.25884753
0.039868046 0.11960929 0.25939348
0.045985248 0.12300649 0.25129417
0.04400035 0.11492959 0.25665435
0.063241154 0.096082374 0.26459047
0.060088657 0.087806523 0.26732582
0.057569101 0.098340988 0.26419193
0.053964857 0.089964196 0.26710597
0.056226552 0.081849076 0.26821938
0.04936707 0.08137925 0.2675097
0.044059604 0.076889455 0.26623595
0.044501051 0.10779455 0.25645939
0.041117821 0.10875918 0.25705752
0.041021321 0.076553702 0.26536998
0.065568946 0.099494271 0.2558178
0.070123345 0.096247539 0.24660113
0.062057085 0.1028628 0.25435111
0.065169595 0.10486462 0.23758978
0.065468825 0.10142428 0.24444389
0.086758852 0.12349424 0.22462192
0.090949439 0.11699287 0.2220407
0.085066199 0.10830277 0.22322103
0.079599276 0.12319309 0.22463164
0.074348226 0.11352668 0.2264981
0.08278545 0.11768354 0.22434701
0.079788342 0.11155926 0.2255244
0.075677544 0.093653217 0.23958522
0.081383988 0.099679768 0.22590226
0.078405559 0.090589426 0.23035002
0.070717938 0.10498796 0.23076111
0.071453057 0.1000744 0.23599455
0.075976267 0.10204709 0.22853866
0.074164234 0.09733133 0.22995442
0.045413893 0.12745032 0.2430113
0.052474976 0.10944024 0.24876782
0.061924081 0.10629598 0.23662394
0.057546161 0.10662849 0.24152935
0.047526266 0.11912548 0.24492255
0.049149603 0.11284798 0.24530569
0.072712325 0.12438004 0.22435862
0.069191925 0.11668415 0.22624493
0.063645974 0.10887683 0.23035419
0.067928299 0.093667135 0.26007056
0.064928368 0.085354403 0.26657623
0.070911363 0.090568826 0.2507928
0.059128586 0.075625524 0.26681188
0.056190565 0.070173502 0.26408094
0.060925689 0.065626331 0.26050198
0.050387688 0.076112546 0.26699576
0.047791041 0.0718337 0.26389325
0.048098426 0.067649812 0.25474077
0.076297455 0.088385344 0.24482721
0.07844314 0.082022399 0.23226446
0.063515916 0.058748573 0.25229651
0.067361429 0.054230247 0.24287033
0.051245965 0.061034124 0.24697691
0.052000396 0.058013383 0.24111724
0.042280566 0.070923723 0.26029271
0.044814706 0.06816373 0.25257957
0.048716802 0.058538161 0.23496002
0.11832812 0.15098439 0.19991349
0.1236468 0.15484637 0.18819682
0.12271503 0.15011115 0.19429183
0.12582253 0.15273567 0.18330681
0.12714803 0.1465406 0.18638837
0.1278713 0.14943601 0.17596069
0.12981261 0.14262022 0.17762516
0.12515482 0.1354827 0.19802147
0.12327655 0.12948984 0.20176029
0.11621532 0.14486109 0.20481959
0.11209908 0.13697736 0.20817515
0.1224747 0.14152506 0.19895825
0.11876196 0.13345695 0.2038267
0.12069432 0.12108193 0.20580804
0.11710912 0.11259697 0.20787892
0.10852297 0.12842888 0.21153814
0.10423329 0.11974088 0.21404982
0.11305457 0.12523627 0.20730495
0.10837908 0.1157465 0.2093724
0.12856163 0.13403976 0.19131562
0.12820512 0.1261982 0.19585139
0.13211933 0.13145369 0.18339798
0.1312034 0.12218539 0.18712521
0.1272689 0.13933265 0.19114846
0.13186254 0.13595371 0.17991278
0.12576286 0.11702184 0.1991142
0.12195694 0.10802017 0.20185989
0.12924802 0.11270904 0.19075224
0.12465142 0.10423762 0.19322196
0.12992674 0.14483544 0.16606182
0.13069083 0.13927981 0.16796038
0.13226436 0.13463509 0.16027856
0.13192478 0.12835595 0.15117827
0.13334872 0.12632556 0.17521471
0.13340068 0.11836173 0.17818868
0.13386089 0.12169191 0.16773322
0.13432629 0.11504646 0.16856255
0.13266084 0.13082175 0.17134142
0.13407001 0.1255146 0.16342738
0.13447604 0.11847332 0.16226664
0.1309215 0.10923852 0.18126979
0.12565175 0.10091512 0.18354812
0.13178556 0.10576709 0.17157936
0.12626958 0.097641811 0.17401662
0.12327991 0.093302436 0.16981366
0.13414383 0.11147765 0.16218293
0.13254078 0.12243528 0.15308794
0.13215497 0.11293195 0.15581408
0.13405454 0.11943269 0.14700377
0.13238013 0.11032289 0.15031198
0.13135238 0.10408445 0.16451609
0.12722299 0.093571536 0.16443148
0.12868629 0.089565322 0.15871139
0.12890017 0.10289065 0.15864079
0.12553971 0.094913796 0.16341451
0.13017491 0.10104375 0.15386525
0.12915275 0.094057165 0.15663059
0.11142586 0.16910301 0.17968011
0.11318504 0.16283847 0.19517949
0.11401482 0.15704468 0.2008225
0.11871336 0.16031383 0.18870682
0.11936703 0.15637507 0.19386789
0.10913792 0.16704163 0.19427946
0.10880252 0.16437715 0.20036532
0.1131627 0.16680112 0.18476918
0.1151803 0.16610949 0.17357022
0.11944308 0.17000596 0.15695097
0.11768495 0.16329823 0.16434482
0.12259801 0.15776846 0.17979154
0.12542352 0.1536314 0.17108905
0.1177424 0.1636208 0.17634378
0.12092496 0.15954858 0.16720846
0.10453694 0.17211647 0.1787186
0.098752715 0.1745733 0.17649049
0.1022663 0.17152649 0.18950722
0.10461013 0.17172144 0.18330842
0.10781749 0.16992319 0.17068632
0.11767995 0.17204577 0.1559753
0.11442415 0.16699785 0.158494
0.10288316 0.17160934 0.1671436
0.1122726 0.1494105 0.20641291
0.10920888 0.14219299 0.20979613
0.13034099 0.15491527 0.14989072
0.12519684 0.16874984 0.15258932
0.123831 0.16146743 0.15617758
0.12833346 0.16496241 0.14491412
0.13030304 0.15928173 0.14737722
0.12805937 0.14891782 0.1630908
0.13047868 0.14354655 0.16359776
0.12869602 0.14656997 0.15236402
0.13095856 0.13800775 0.15506169
0.12334827 0.15512998 0.15813674
0.12578754 0.15224272 0.15391575
0.13154234 0.15057652 0.14394915
0.1271836 0.16171405 0.13794836
0.12879637 0.1540008 0.13869782
0.12943169 0.14379904 0.14454526
0.12988521 0.13334325 0.14787653
0.12912294 0.12905177 0.14191629
0.12813601 0.14318998 0.13891602
0.12654144 0.13718598 0.1408346
0.12550604 0.14114842 0.13540553
0.12477672 0.13466974 0.13691154
0.12010324 0.17405196 0.1504298
0.11618115 0.16352379 0.15795705
0.12380157 0.17001742 0.14183
0.12531278 0.16299312 0.1357021
0.12442945 0.15685558 0.13345997
0.13103496 0.12816466 0.15137938
0.13235548 0.12439243 0.14329609
0.11282538 0.10542654 0.20830809
0.099825948 0.11129577 0.2156553
0.095955074 0.10223617 0.21595976
0.1044592 0.10620488 0.20973191
0.099835813 0.098077238 0.21113294
0.090823427 0.09163411 0.21929145
0.087435678 0.083760917 0.2216614
0.0946583 0.089629687 0.21320501
0.091722161 0.080497123 0.21639171
0.1162754 0.10019363 0.20348097
0.11114676 0.095158078 0.20006615
0.11863831 0.096982494 0.19492321
0.10861459 0.098943532 0.20504588
0.10278431 0.094056785 0.20246992
0.11110642 0.094021395 0.1912412
0.10374762 0.090561427 0.19279794
0.098150261 0.08552815 0.20474657
0.095705807 0.07624618 0.208
0.10024054 0.081640661 0.1954928
0.096689209 0.072849378 0.19848141
0.084038973 0.075588249 0.22412777
0.080776259 0.067055866 0.23354989
0.087691538 0.071829848 0.21884662
0.082923964 0.064832702 0.21978533
0.077467553 0.060662173 0.23668426
0.091420814 0.067427024 0.21046916
0.085658893 0.060978163 0.21227893
0.092065051 0.064901158 0.2012908
0.087524801 0.05994834 0.20511585
0.12027021 0.095573552 0.18523124
0.12178153 0.09369351 0.17650096
0.11257473 0.093024999 0.18246026
0.10432567 0.085558981 0.18484935
0.11591098 0.090826787 0.17328525
0.10495658 0.081060201 0.17898522
0.10212708 0.07873521 0.18624972
0.097252212 0.074113265 0.19135952
0.1036873 0.076879904 0.1790438
0.12519744 0.084168538 0.16593702
0.12169774 0.077554427 0.16623384
0.12770057 0.081815712 0.16191171
0.123208 0.074763738 0.16357926
0.1189786 0.087509677 0.16808572
0.11455806 0.07803452 0.16753143
0.11722235 0.071663596 0.16312006
0.10799129 0.069328412 0.1670813
0.10581253 0.060039759 0.17041272
0.11126277 0.066715971 0.16300225
0.10970941 0.057242319 0.16665527
0.10243884 0.053422041 0.17178813
0.10464111 0.049844567 0.16819933
0.095011204 0.11126138 0.21896343
0.091236517 0.10382519 0.2192913
0.087885112 0.096007444 0.22145444
0.08386761 0.086862102 0.22489029
0.079892024 0.077604294 0.22745669
0.076242864 0.068298757 0.22727939
0.078032516 0.062238559 0.22118792
0.068979055 0.06280002 0.22648895
0.071938515 0.058242254 0.21996623
0.061431766 0.060649436 0.22580379
0.056207165 0.057964306 0.22250152
0.064806744 0.055530749 0.21934152
0.05960802 0.054068103 0.21768287
0.081409901 0.057066783 0.21121933
0.089096844 0.061405886 0.19734527
0.083031222 0.056484148 0.20103464
0.075714871 0.05345488 0.19574825
0.075242266 0.054414548 0.21167818
0.076170199 0.052867543 0.20389125
0.067033887 0.052019663 0.20977245
0.061310381 0.051510036 0.21113259
0.070086807 0.051934045 0.19992915
0.053360008 0.061187893 0.22553411
0.0524446 0.059291456 0.22277595
0.053842314 0.055217318 0.21770039
0.060052745 0.051514227 0.20373204
0.057596691 0.051351402 0.21000591
0.062590949 0.052085329 0.19634771
0.053738721 0.054748885 0.19080389
0.10685784 0.091206603 0.17896056
0.10457738 0.088923626 0.18153599
0.10865287 0.088615783 0.17201334
0.10545037 0.084107995 0.17317665
0.09906666 0.074450545 0.18447381
0.093852654 0.070530526 0.18725982
0.10261685 0.073745228 0.17565194
0.095453516 0.069517471 0.17685902
0.087316833 0.067623354 0.18144882
0.086234763 0.068530977 0.17637125
0.1070129 0.079222515 0.16841859
0.10478148 0.072060332 0.17029721
0.099164248 0.064508736 0.17175204
0.091109164 0.065466806 0.17069803
0.074803926 0.070422873 0.1674532
0.070789114 0.069833882 0.1660262
0.075259477 0.067959443 0.1626941
0.072482035 0.067916721 0.16336316
0.088567778 0.063093819 0.19052041
0.082592294 0.057184231 0.19324449
0.081901073 0.062255196 0.18322873
0.076289132 0.056836955 0.18785191
0.079685181 0.064055458 0.17861336
0.074783936 0.059727002 0.18015608
0.068578407 0.053432476 0.19210011
0.096701369 0.052804966 0.17132467
0.097055331 0.047604252 0.16734442
0.092924379 0.046454959 0.16420367
0.070379205 0.056444317 0.18418349
0.07639274 0.064044416 0.17600885
0.073828675 0.059496894 0.17987444
0.066233695 0.06965673 0.16463828
0.065448157 0.053182106 0.19053674
0.073213711 0.059539102 0.16056418
0.071387783 0.054578509 0.15945572
0.074611858 0.053909611 0.15876453
0.073328912 0.051714748 0.15705733
0.069802061 0.062544331 0.16135961
0.068541333 0.054543871 0.1600624
0.069000214 0.050887056 0.15760253
0.026364006 0.16265163 0.25837436
0.030133732 0.16013315 0.25037712
0.04169821 0.15210757 0.24378654
0.042471543 0.15123884 0.24220541
0.036132097 0.15788253 0.24455038
0.040905222 0.15349253 0.24103826
0.023808032 0.16615489 0.25631207
0.026970871 0.16537459 0.24966255
0.031551041 0.16430405 0.24346504
0.032033361 0.15165427 0.2638557
0.031587929 0.15004495 0.26421875
0.033425488 0.15005046 0.26130274
0.035638578 0.14278308 0.26113695
0.028897814 0.15832821 0.26193199
0.031041935 0.15424836 0.25525472
0.033768661 0.1463566 0.25493374
0.03556592 0.13383371 0.26215288
0.03973759 0.14621684 0.2474193
0.038193971 0.13872588 0.25306395
0.044711411 0.14343929 0.24457029
0.044288479 0.13535096 0.24639136
0.035188727 0.15070038 0.24905989
0.034070097 0.14603762 0.25387228
0.037468739 0.12932622 0.25886643
0.035613932 0.12316632 0.26029783
0.041617408 0.13046609 0.25206387
0.02371113 0.1056812 0.25344136
0.023918547 0.1009348 0.25625467
0.014406852 0.11055242 0.25414973
0.013724558 0.10541426 0.2573182
0.018729582 0.10840201 0.25374341
0.017427206 0.10155799 0.25636581
0.0090460554 0.10092385 0.2558291
0.01370582 0.098222353 0.25445285
-0.0090375766 0.11313537 0.25712723
-0.011454649 0.10982064 0.25711903
0.0072640404 0.11372831 0.25392464
0.0045721754 0.10899328 0.25745454
0.0014484003 0.11612435 0.25359127
-0.0031181276 0.11083132 0.2573038
0.0022320598 0.10296103 0.25543892
0.0073335618 0.10005011 0.25381434
-0.0067905784 0.10673437 0.2562792
0.044819769 0.1289334 0.24217954
-0.014616869 0.12263419 0.25194269
-0.015796222 0.11792618 0.25662005
-0.024797484 0.12524571 0.25727576
-0.021717608 0.12732922 0.25277138
-0.021806099 0.12297097 0.25674212
-0.016997524 0.1120565 0.25777102
