# .PCD v0.7 - Point Cloud Data file format
VERSION 0.7
FIELDS x y z
SIZE 4 4 4
TYPE F F F
COUNT 1 1 1
WIDTH 1545
HEIGHT 1
VIEWPOINT 0 0 0 1 0 0 0
POINTS 1545
DATA ascii
45.186134 2.5875435 -89.042778
57.358707 45.566647 -24.519043
43.917999 7.0204964 -86.681458
62.445072 11.65958 -52.647144
73.933716 -34.73288 -85.26564
70.669182 -2.5981369 -55.53978
72.691193 28.095442 -19.342869
53.420246 48.746048 -25.889858
42.417835 4.5749245 -91.38562
68.836105 20.267342 -33.135712
50.937824 35.65625 -43.826103
43.378231 2.5124855 -91.882271
74.310699 -33.775169 -84.102966
67.19606 14.422724 -42.771965
77.516388 7.7777557 -33.254257
51.277363 19.184471 -62.412117
69.253662 17.488308 -35.923183
75.997925 -36.432884 -84.10215
48.859814 42.37619 -40.335598
69.649895 -9.1821213 -65.599197
76.695847 16.56728 -25.346024
42.93433 6.8405418 -88.761528
44.771725 1.8944016 -90.881149
69.231171 -5.9376907 -60.624748
45.223316 6.7156525 -84.781967
50.93811 14.686884 -67.108398
50.761429 16.109886 -66.093689
67.691376 15.948587 -40.659229
72.507584 -32.791321 -86.233559
64.575928 13.726223 -47.780781
76.715408 -36.832458 -84.054718
79.01899 -40.439636 -85.040466
54.626823 47.499916 -25.595661
57.910122 27.016521 -44.249733
50.369144 17.525066 -65.835747
53.904289 9.3174286 -68.936104
71.938324 31.31395 -17.661865
50.520393 13.346024 -69.385452
60.970085 44.438042 -19.949623
71.773148 -5.099144 -57.900425
58.257664 45.162201 -22.963463
51.772285 13.742098 -67.288521
54.540291 17.750074 -58.642982
49.951527 38.776245 -43.25515
50.981125 49.342712 -30.855217
55.925468 28.934727 -44.661316
75.954651 21.222824 -22.030418
48.777702 14.70076 -71.198601
46.402515 6.3413773 -84.182251
70.638794 -8.7279968 -63.116474
48.36536 13.362331 -73.194252
51.267719 48.642181 -30.205391
59.137802 0.49379349 -71.041679
64.682487 23.443781 -37.375118
74.232452 1.0496826 -45.364899
65.410339 -8.1907082 -70.881691
76.376251 -36.472755 -84.826912
74.50367 -32.309448 -83.664536
48.920624 44.165394 -38.947262
60.707687 12.104843 -56.097454
43.282936 3.1908264 -92.744476
65.005211 15.254128 -46.682575
39.576527 57.270729 -38.522728
41.372276 57.617035 -35.562317
40.513119 58.229065 -36.01046
47.147453 9.4728203 -79.964294
44.202583 1.9999352 -92.333313
76.940056 2.8094826 -39.868023
45.657639 9.0484257 -82.150658
74.920212 -34.973961 -85.05854
50.800564 12.023296 -70.908379
47.47596 11.731537 -76.468292
63.650002 -6.6609268 -72.071167
66.358459 22.210964 -35.926472
56.566536 46.040527 -25.809635
38.879261 58.869377 -38.01247
47.451836 5.5672188 -84.7752
72.592789 -32.156578 -87.159103
73.229721 -31.401199 -84.353088
54.960609 30.347961 -45.573872
44.541447 10.299341 -83.46418
42.839432 6.8451042 -89.92347
41.623379 59.032249 -33.872902
72.216385 -31.437805 -87.083786
38.874458 57.680515 -39.84753
79.117004 3.4721107 -37.201038
51.987057 51.664539 -26.057632
53.254028 52.821548 -22.950089
52.127396 13.860371 -68.124001
67.003014 20.660717 -37.099442
74.160736 -33.67955 -85.627884
51.691994 54.206165 -24.055702
47.568859 10.764133 -77.563766
71.206947 -7.9664764 -61.353813
43.791679 8.2336254 -87.142754
78.938904 5.8892708 -34.282593
56.146713 46.799992 -25.677414
55.890717 17.160416 -58.137032
40.031521 56.691742 -39.228504
41.643005 60.070202 -33.343887
41.365116 57.004017 -36.827148
52.087662 12.642702 -68.724121
45.369781 11.075172 -80.802643
48.686878 16.588409 -70.117546
67.207741 40.334633 -16.188332
67.111382 19.260212 -39.304649
55.172836 49.200989 -24.294556
43.931816 9.7445221 -85.4618
52.260254 13.659328 -67.816338
57.174126 46.430595 -25.462658
42.831642 5.1559258 -92.314423
46.791943 3.3391991 -88.078613
49.983963 47.637508 -34.245304
51.95927 14.355238 -67.107582
39.698784 60.681046 -36.065536
53.303154 32.525009 -45.432423
47.809158 9.1890221 -79.801933
49.260098 10.362196 -76.126472
62.883862 -6.3393364 -74.171364
79.320763 10.519567 -29.223999
38.394573 59.446255 -39.069725
52.83675 19.865145 -59.827927
45.288773 1.7976723 -91.575043
38.543518 58.836109 -40.316044
63.250404 14.786596 -49.946312
38.880817 60.625587 -37.6591
79.850891 -40.886032 -86.087158
54.442059 18.873457 -58.519073
59.02927 15.560688 -56.966221
72.268692 -29.99028 -85.010788
52.173161 35.134735 -45.291779
72.152115 -30.950882 -86.161774
43.206242 58.700565 -33.451153
53.122906 11.167793 -69.719315
78.797981 -38.281418 -85.883942
78.456436 18.078291 -22.752686
47.858215 7.7376137 -81.753578
60.597412 -2.472084 -73.07814
50.28418 19.094538 -65.048004
44.9245 11.95866 -81.259399
57.288795 3.7595291 -70.341423
62.112907 24.592712 -42.854813
42.740303 59.407181 -32.698818
57.413094 16.626383 -57.540718
78.969238 14.267076 -25.779488
67.600372 -10.124443 -70.56134
72.039726 -28.667992 -84.153221
50.885548 37.703903 -44.29578
44.625664 2.2478142 -92.698997
61.053967 13.552948 -54.837273
78.920708 0.44229889 -42.172825
52.687653 12.414629 -69.512962
66.326546 -9.7232895 -72.448494
54.537075 53 -22.096992
50.765396 55.080574 -25.108604
41.779743 61.31459 -32.937977
52.248764 11.341909 -70.680222
59.937939 14.758055 -56.34594
72.54747 -9.8572655 -62.967854
52.221325 55.141251 -22.935364
75.422768 27.341103 -18.119984
39.265732 57.465546 -40.817242
65.187546 -8.9159775 -73.580994
46.499493 14.747149 -76.538773
70.201324 -11.503311 -69.06192
79.764206 1.6426888 -39.545593
51.46442 53.181412 -26.660118
57.277126 27.745705 -45.791328
76.060631 -34.051636 -85.326614
44.152599 3.3669167 -93.090836
45.87883 1.2287674 -92.331993
46.823425 1.4818764 -90.871017
70.829346 -27.010757 -84.340622
43.457897 6.8799782 -90.972725
42.004475 56.856598 -37.820938
77.909935 21.914072 -20.13578
69.68335 37.235783 -15.945114
49.34985 18.190765 -68.179314
50.804916 54.662384 -25.925827
63.325909 23.520546 -43.186729
73.509773 -29.624512 -83.119431
73.006027 -4.2812805 -55.623207
49.386288 46.087982 -37.628815
70.06517 -28.64109 -87.572662
68.880142 -26.796684 -87.363068
49.723057 40.978172 -42.691406
76.398193 -32.825623 -83.670166
45.312992 1.5854607 -93.227295
80.365753 4.7691612 -34.8522
53.216076 54.967571 -22.107643
51.446312 52.987572 -27.882118
63.813995 44.811768 -17.572357
56.177326 50.848125 -23.049629
48.701466 7.2031097 -82.370529
61.725903 -4.7482109 -75.362923
61.936874 14.905258 -52.803162
72.253952 -27.23851 -83.249641
43.90638 58.159248 -34.658474
46.887375 57.136902 -29.982967
46.397064 58.131641 -29.239662
64.89283 22.63056 -40.124912
75.218391 -2.5380783 -50.241333
53.75399 20.359043 -59.143768
64.335129 17.691284 -47.164505
56.340073 48.612297 -24.884418
67.637054 41.921055 -15.661015
52.267376 20.876652 -60.895699
49.170288 8.9918861 -79.622124
55.601814 18.860495 -57.994713
62.19733 46.198013 -18.961052
80.877106 7.562912 -31.407524
51.185417 20.718897 -62.871315
73.274208 -32.432426 -86.740921
52.068924 56.204521 -22.954109
51.277153 51.201889 -30.108749
76.855682 -3.6150856 -50.705433
43.033932 57.37088 -36.135101
49.432961 42.928513 -41.389931
68.697578 -24.810913 -86.094048
43.922478 5.2446899 -92.74942
40.435974 56.795982 -40.409298
47.7243 2.1784325 -89.622742
61.775402 47.366898 -19.659206
44.889229 58.217739 -31.499233
74.545013 -29.536354 -82.721634
44.208763 60.957962 -30.801056
56.802616 5.2487946 -72.209778
53.277599 10.994455 -70.809166
58.163338 2.6470261 -72.974457
64.07785 20.578167 -45.939873
44.266773 11.243891 -85.330704
73.718445 -9.5602951 -61.849026
50.200943 20.141514 -65.427612
44.162544 9.4815063 -87.679153
39.806252 61.909859 -36.759098
45.054165 13.684937 -80.909271
76.904259 -34.622047 -85.493454
44.602356 2.650135 -93.758904
73.996315 -7.1388016 -58.940174
80.201614 14.856426 -24.606461
71.674026 -30.481392 -87.403137
44.614246 12.654438 -82.776154
69.489639 -28.556328 -89.185867
45.713905 59.253452 -29.509987
65.639847 19.722744 -42.837349
52.931324 14.058266 -68.876991
49.940811 55.231083 -27.546509
51.37812 53.909088 -27.618034
80.977844 10.485302 -28.374565
50.567471 9.7155094 -76.857391
46.893887 16.091642 -75.557953
39.520435 58.142323 -41.138382
74.088974 31.577135 -16.495934
71.901787 -30.699219 -88.331184
68.509163 -27.002228 -88.884262
38.786465 60.527519 -39.588783
60.206245 -1.9658775 -75.505424
54.214027 32.683216 -46.455696
56.249218 54.949532 -20.468353
49.485664 44.872986 -39.877159
74.92337 -6.2477112 -57.012501
60.491638 25.648203 -44.627075
78.379616 23.726246 -18.720039
41.400635 56.010868 -40.922462
48.047466 3.8269615 -87.673157
71.1045 -30.188637 -89.504166
80.450104 -39.795639 -87.431717
49.316849 18.856522 -68.981049
47.08622 1.2207375 -92.836548
72.527802 -30.888031 -88.242661
54.966015 31.210962 -46.375427
47.878975 59.154373 -27.237003
60.98127 16.592949 -54.880032
48.565468 5.075573 -86.285583
44.31926 10.867306 -86.525879
67.676666 -26.109619 -89.716454
73.234802 -26.098289 -82.394531
42.847179 56.082649 -38.953407
69.797676 -22.179031 -83.2649
41.721252 62.761986 -33.953972
68.171608 -27.916412 -90.923996
79.385391 -37.485474 -85.263153
40.364197 56.744003 -41.760803
50.748642 55.008011 -28.746929
67.529625 -24.476311 -88.463623
80.061066 -39.417702 -86.771965
50.951218 40.116451 -44.28397
53.488491 12.483965 -69.673752
42.473495 62.335541 -32.556683
60.285255 47.766201 -21.689789
81.854286 2.6463966 -37.082714
70.450287 -30.008377 -90.086075
69.998657 -13.332748 -73.778152
58.010075 17.929886 -57.362442
62.630516 16.679981 -50.943863
80.642723 19.615261 -20.515453
44.003941 10.815411 -86.484192
67.311035 -11.184425 -74.960205
64.724236 -8.5139809 -76.649384
44.826569 58.106522 -33.931725
68.995392 -29.779312 -92.15023
51.755436 52.594776 -29.877853
70.896851 -23.090324 -82.650047
63.720776 22.55792 -44.725399
39.570278 60.513428 -40.104164
55.05302 20.539232 -58.488426
56.679981 50.627205 -23.390179
63.284718 17.833797 -49.701393
53.69677 21.511068 -59.756771
81.998528 4.7987785 -34.201691
54.000786 11.805464 -70.570808
74.460999 -11.040051 -63.566055
40.065094 61.843422 -37.976505
47.913868 1.5239563 -91.542862
70.160019 39.626221 -14.976479
52.282547 21.748013 -61.622505
48.354958 56.381874 -30.719505
53.531204 10.724966 -71.826385
57.498196 28.710524 -47.2738
59.705742 48.337967 -23.057182
57.769455 18.992123 -57.709766
58.998356 17.331314 -56.933342
68.442444 -21.762646 -84.739975
50.468185 48.463619 -36.174225
52.746811 57.188557 -22.422165
75.884644 -7.4038811 -58.246655
57.953148 48.677811 -25.621857
53.82465 10.85358 -71.141121
80.603706 -0.37418365 -42.454582
53.28981 12.672686 -70.805016
51.070976 21.508242 -64.102295
75.175491 -30.590698 -86.51545
44.531963 4.3230209 -94.415787
39.750156 58.177841 -42.051796
60.009163 17.420246 -56.304062
80.186096 22.039049 -19.042084
48.460613 2.471199 -89.702179
56.854736 51.91124 -22.16732
59.52533 -0.26464844 -76.41394
57.730751 48.783379 -25.041992
61.616741 16.831245 -53.680302
46.05582 1.6539154 -93.976936
72.716049 -12.987633 -68.429276
66.820908 -24.757935 -90.950424
77.215057 27.594561 -17.094372
77.757828 -5.2301712 -52.885674
67.386871 -27.413712 -92.648727
69.001831 -30.349396 -94.156143
67.589775 -21.530449 -86.174637
54.197231 13.543655 -70.081909
47.030315 16.650467 -76.542397
82.587975 8.2291126 -30.093445
43.82832 56.232693 -38.675484
78.450424 -34.968285 -86.611107
57.431366 49.737988 -24.520676
81.445511 16.724316 -22.58215
70.445564 -31.120842 -92.643669
74.325882 34.178406 -15.248352
57.390175 53.776253 -20.694832
63.276764 -6.5088425 -77.647003
60.333473 26.449194 -46.516769
72.400452 -30.551605 -89.254143
50.091316 20.439087 -67.261436
45.552643 14.646652 -81.055817
63.871613 46.36031 -17.692825
45.130127 3.245575 -94.621483
76.17569 -29.487297 -82.850616
43.950153 7.5145683 -91.193604
73.778046 -23.870701 -81.791733
44.823818 12.57229 -84.72438
82.569092 11.479885 -26.872501
46.050217 2.272728 -94.57457
82.310577 0.84049988 -39.707531
74.489853 -13.757771 -68.170372
72.242783 -23.050499 -81.933075
51.467976 54.5467 -28.496204
49.948326 7.4639778 -82.823647
67.909004 -12.183826 -75.800102
49.593334 19.320042 -69.727325
73.709549 -30.01358 -86.87706
44.996292 5.9739037 -93.397949
68.065552 -18.725368 -82.788429
44.455853 6.8645897 -92.218674
69.204109 -20.948029 -83.064674
75.656822 -10.882389 -62.861694
50.376835 9.1139317 -79.839813
50.594185 47.73774 -38.263443
55.513245 56.468529 -20.642441
70.948349 -21.774189 -81.980438
51.517811 51.367668 -32.659103
66.681038 -21.144806 -88.631332
76.247185 -8.6714134 -59.949387
69.865196 -19.224709 -80.752487
68.714294 -14.589146 -77.60994
47.292625 1.8532524 -93.97081
54.098351 10.92104 -72.377167
72.918991 -30.090454 -88.400856
62.754318 23.888577 -45.011829
53.986214 14.293596 -70.090683
53.649879 10.503349 -73.267647
78.074516 -33.803246 -84.4133
69.694092 -14.137581 -75.684525
50.846699 42.607971 -43.499767
43.005257 56.037903 -40.928596
41.924141 56.599087 -42.614311
56.288536 21.118668 -58.412945
61.419502 25.177305 -45.213898
67.590385 -15.046837 -79.907021
67.687561 -28.726837 -95.710732
67.242783 -12.253796 -77.389862
58.701126 2.3797417 -76.946075
39.809338 59.873741 -42.203999
58.502892 48.583458 -25.728951
57.522659 4.9282799 -74.493362
53.583939 22.221306 -60.710968
54.074921 12.263407 -72.021744
80.535355 -38.974037 -88.161392
60.374836 -1.5273628 -77.789696
55.99371 7.9519043 -73.11882
44.751034 58.121941 -35.129211
80.234497 -38.572731 -86.334282
49.982346 59.951935 -25.541759
43.180256 63.235825 -32.619675
75.305466 -26.023041 -81.98748
66.613525 -15.692162 -83.44413
83.565453 5.3471718 -33.193027
79.365257 25.534472 -17.34494
50.59129 44.327576 -42.226814
52.50523 22.365234 -62.428612
64.940857 -9.1977196 -78.029694
40.054386 60.594032 -41.148483
66.56234 -25.313385 -93.247581
40.85537 57.408173 -42.977295
44.664139 8.7674465 -90.157776
72.121262 -14.373753 -72.641602
45.565208 58.151035 -34.741756
81.62117 -1.4219208 -43.743088
53.75655 36.081867 -46.729156
54.817574 33.521275 -47.150002
52.63763 54.396935 -29.436382
66.863297 -15.233143 -81.905334
61.904152 -4.2277985 -78.085167
54.095222 14.003744 -71.284386
70.863297 -16.732578 -77.533493
66.18396 -11.424629 -78.675476
51.678478 22.117304 -64.212601
42.442638 63.727882 -34.463402
74.35041 -28.38221 -87.095978
61.049454 26.599524 -47.280743
73.205513 -14.749359 -72.217377
47.703793 1.817894 -93.375412
50.612518 45.979572 -40.728508
78.036064 30.672237 -15.361336
62.273006 18.778734 -52.143181
55.086319 15.009922 -71.604111
40.421162 58.673569 -42.966827
50.845215 21.364109 -66.744873
55.030979 58.099449 -21.076256
65.893707 -11.885201 -80.323196
68.780746 -30.138206 -97.077316
73.504562 38.875942 -13.901459
70.638123 -15.214939 -76.021332
49.12138 3.0539703 -89.722107
53.081055 59.072983 -22.60276
45.60862 11.984962 -86.997276
48.394978 2.0233765 -91.898643
40.702011 62.452133 -38.15258
71.717758 -18.190777 -78.362968
72.784706 -31.190727 -90.162743
77.687233 -31.030899 -83.871246
47.910305 57.199673 -32.87495
66.110565 -21.72567 -91.645828
52.443359 39.581509 -45.580467
50.953159 9.2674255 -80.241333
69.10379 43.657372 -14.871384
58.337692 19.535004 -58.057102
45.828175 13.092752 -85.449524
76.332962 -14.110798 -68.003571
84.152542 8.2783146 -29.763149
44.723705 56.778675 -38.741386
46.146671 3.4686508 -94.864731
72.291237 -15.884552 -75.481323
48.672462 61.580986 -27.500992
45.417839 9.2723255 -90.822227
72.798195 -21.508446 -80.833984
77.765366 -8.2013626 -58.569103
51.719826 41.506973 -44.620304
57.39006 30.469795 -47.880089
76.755898 -27.006439 -82.23307
54.45256 10.733559 -73.797752
77.532661 -32.428574 -86.938622
48.104366 17.425961 -76.447563
73.152496 -32.17395 -91.514343
57.536758 55.139862 -20.075974
74.223938 -30.489319 -88.757309
63.932327 47.967464 -18.104008
63.355461 20.243523 -48.589764
45.970695 58.373032 -36.140785
55.240318 22.201427 -59.790401
50.582123 55.692467 -30.255165
84.138351 10.757244 -27.316696
74.120949 -28.021454 -87.625412
63.036285 22.886833 -47.1959
63.789589 49.242989 -18.780975
83.141273 16.792755 -22.291557
83.750183 13.594444 -24.861572
55.506187 9.6938896 -73.284805
81.616486 -4.5852127 -49.937714
84.105179 2.5137558 -36.910957
72.058899 -32.201561 -94.624947
46.600204 15.289774 -81.217842
76.253922 -29.792221 -87.242493
79.637558 -6.5227432 -54.280941
41.590324 62.914261 -38.496269
73.641968 -29.225334 -88.213058
58.692444 49.511887 -26.310364
82.470451 19.958111 -20.042732
62.272099 24.848597 -46.378651
57.781998 51.070305 -24.031433
64.819794 -9.4711037 -79.863861
50.058128 3.1012115 -90.419083
50.425282 6.0871544 -87.12355
57.340294 56.364456 -19.938374
74.937103 -14.754627 -70.247574
53.972706 22.752834 -61.650345
52.736439 53.463684 -30.685547
48.498997 1.8934364 -93.721619
82.327026 23.307579 -18.024151
45.477943 5.1992378 -94.32299
61.480427 19.273956 -54.960808
63.26548 23.34544 -46.752953
53.116741 59.696861 -22.94698
65.95327 -17.202263 -87.703529
52.843533 22.668882 -63.345772
80.33342 26.263515 -16.745659
52.423717 55.039127 -29.439758
42.554447 56.89719 -42.536079
55.623508 13.697123 -71.226349
67.273811 -27.424683 -97.838181
59.366753 19.849142 -57.728653
52.154751 22.327454 -65.015793
77.541473 -11.975288 -64.282768
44.94656 10.5366 -88.047562
75.5504 -23.887009 -81.528053
46.128864 10.453768 -90.133041
65.194855 -10.631004 -81.366974
67.92514 46.086411 -15.651104
60.506134 49.53614 -23.523643
43.450134 56.547802 -41.33736
51.121395 8.8476105 -82.191414
50.433598 6.7078094 -85.827393
66.367706 -24.713074 -95.126785
56.123589 13.306789 -71.994652
51.545994 21.602171 -67.095177
63.768463 -7.3776016 -80.499825
46.382362 63.274082 -31.014442
73.809288 -22.082443 -80.973457
51.443901 48.107624 -38.816174
51.917263 55.83794 -30.204781
56.972595 7.4464645 -75.080612
42.064182 63.30574 -36.844536
78.04847 -9.6453285 -60.995399
57.83884 55.272243 -20.760548
56.435402 21.948578 -59.334328
55.941669 12.244017 -73.766281
48.101578 2.4611626 -94.99041
73.427185 -18.309097 -77.7603
41.136627 59.109909 -43.138443
41.84169 57.599037 -43.121052
51.580223 9.6240044 -80.437225
83.155792 -1.7527733 -43.877785
71.492302 43.400093 -13.747948
79.336731 -32.81369 -85.603256
44.435188 64.193756 -33.162308
50.488731 19.861624 -70.20652
75.78508 35.890343 -14.077003
80.679352 -37.870239 -87.665031
55.202362 58.738777 -21.470589
73.385536 -16.761829 -76.071953
59.405102 1.356884 -78.689491
49.480225 2.2475815 -92.322357
85.678818 6.2364845 -32.07552
84.836594 0.50514603 -39.909981
56.309521 33.842381 -47.719772
47.402962 3.5761452 -95.75753
71.383987 41.74202 -14.013596
65.84333 -21.854111 -94.678284
61.82473 21.091202 -55.379089
51.85519 43.87711 -43.467232
51.318329 56.518051 -31.466343
62.531227 25.315033 -47.609528
58.629593 50.552731 -25.583878
74.427498 -16.230095 -74.74173
65.674637 -12.947315 -84.155617
58.344166 51.754749 -24.816662
62.902187 19.989994 -50.719078
77.925446 -28.263031 -82.942589
72.138069 -32.532532 -97.326874
44.133022 64.551361 -37.258335
56.300064 10.582033 -74.500107
47.393799 58.887123 -36.01086
60.366371 19.916269 -56.900047
51.675808 45.428593 -42.196442
62.904617 22.326801 -50.366089
45.330944 56.703701 -40.305836
43.258999 56.962948 -43.039581
54.189392 22.809288 -62.848763
52.107918 50.898884 -34.502159
53.688004 39.103977 -46.2416
85.519226 2.2138138 -37.402611
40.96619 60.655899 -42.094566
85.651596 8.4678421 -29.586353
51.808815 46.961899 -40.701767
77.030853 -31.219864 -87.260757
58.151772 5.0082054 -77.629684
67.168472 47.859116 -16.486324
49.386452 57.65229 -33.453335
50.355442 3.2968559 -90.766273
53.052139 22.501854 -64.876312
75.362579 -29.025612 -87.422379
75.037766 -15.734203 -73.352188
68.153625 -28.734848 -99.480576
62.777077 -5.2773781 -80.506287
64.067833 50.326878 -19.450272
60.795284 28.088821 -48.24564
76.79335 -15.135033 -70.351929
75.114899 -31.011826 -89.434822
46.46257 5.396244 -95.492935
75.069458 -32.366188 -90.879272
45.919312 57.160759 -39.29744
49.497337 61.996803 -27.827377
65.776581 -20.305847 -92.630341
58.55592 20.491875 -58.807388
57.354446 57.46611 -20.568123
85.657936 11.107056 -27.052414
52.145729 21.405323 -67.650307
53.777443 60.079567 -23.26305
47.66111 15.313898 -81.869759
70.25853 45.596222 -14.328888
63.44886 24.919388 -49.088131
85.28244 14.088572 -24.505035
55.569893 15.523233 -71.134254
49.557796 17.762096 -76.116562
84.648453 17.344799 -21.939384
51.981354 20.142742 -69.977669
83.827164 20.600842 -19.664696
81.882751 26.170734 -16.651035
42.753731 57.941101 -43.986214
56.664139 22.28301 -60.021805
55.157761 11.416506 -74.275063
64.536789 -8.7899666 -82.375671
80.312355 29.760099 -15.259991
53.946526 53.478321 -31.738525
62.811352 24.191147 -49.325733
53.877525 54.867752 -30.219154
77.530998 -14.492687 -68.709747
65.642448 -15.383217 -88.000641
44.512566 56.70166 -41.850266
55.332222 37.038033 -47.086769
79.748016 -8.8011246 -59.28532
75.103333 -21.250515 -80.24221
80.536064 -34.059326 -87.586273
45.920197 8.8496761 -92.319626
75.137405 -18.14983 -77.329185
50.238811 3.1088333 -92.374588
77.984756 34.682255 -13.889999
52.669827 41.929569 -44.876717
66.127113 -23.288658 -96.635094
80.043968 -34.026352 -89.071938
60.770866 -0.78409576 -80.43779
81.878769 -7.0857697 -54.956211
59.303318 50.96426 -27.476418
41.194374 61.323402 -41.387688
75.224617 -28.865143 -88.82338
53.308594 56.154472 -30.167793
57.973976 56.0578 -21.788315
51.800941 10.081547 -82.866676
76.152618 -31.260277 -89.738663
46.637207 6.7545738 -94.436668
83.997566 -2.7025757 -45.656864
63.330425 25.439161 -50.854542
60.149323 29.384142 -48.449741
56.374336 58.713955 -22.022667
85.506546 -1.0912819 -42.6493
49.431637 2.9058838 -94.269508
42.199913 62.85981 -39.981827
75.657242 38.710026 -13.253761
56.561493 22.515182 -61.239967
46.509686 58.170341 -37.487652
54.061638 22.366158 -64.74984
43.912598 64.435448 -34.241871
75.644775 -33.013924 -92.115463
56.296257 15.423059 -71.435997
48.673512 3.218998 -95.246552
63.223732 50.601135 -20.865547
79.294998 -30.607498 -84.895386
53.150604 21.50853 -67.110313
75.137497 41.485283 -12.819893
65.523636 -17.415718 -91.756042
79.705406 -33.185867 -88.845886
45.832726 7.9335938 -92.851479
52.493202 48.848335 -38.517429
56.419159 14.451807 -73.546127
51.302998 18.523682 -73.947594
57.129471 8.9185181 -75.868774
64.995392 -10.021255 -84.8694
42.471031 61.980431 -42.084267
80.155365 -34.681068 -91.33429
66.72084 -24.851425 -98.493881
80.78476 -35.391212 -90.345673
42.827427 63.682873 -37.814907
59.781109 50.256794 -27.050468
79.414116 -12.56868 -65.709976
51.28088 8.4222603 -85.87632
80.157677 -10.242901 -62.286179
63.063057 -5.1263504 -81.658585
76.608955 -15.944366 -73.456184
41.772514 60.991703 -43.417618
62.324371 26.765396 -48.42474
61.933517 51.077824 -23.704178
58.593811 21.154276 -59.717354
58.501362 52.380856 -25.800381
52.165985 10.3092 -81.008514
57.384285 57.716747 -21.95343
76.213684 -16.779392 -75.346939
67.214531 49.098373 -16.960602
41.837181 59.327919 -44.039482
54.657143 59.981884 -24.300564
56.554573 13.328302 -73.026054
59.346107 31.997433 -48.319664
78.512405 -31.824089 -89.138931
80.667091 -9.2585258 -60.52298
65.508598 -14.507542 -90.015114
76.21524 -29.208649 -88.436523
47.724499 4.2984161 -95.758804
47.705032 13.494967 -85.700211
69.122849 47.962143 -15.366394
45.297386 57.437603 -42.050526
49.057217 62.647789 -29.892029
51.987564 61.166164 -26.756283
87.407158 8.6886845 -29.718903
69.565964 -30.421951 -99.333023
50.686527 5.0756416 -90.825569
79.915497 -28.787239 -84.26474
45.908936 57.383858 -40.529312
59.859756 21.110851 -58.627377
53.016136 44.255566 -43.492916
53.238319 46.238235 -41.7673
64.485825 -8.0347977 -84.021973
77.927887 -31.256523 -89.215431
54.58588 52.861042 -33.175991
87.501183 2.6752853 -37.186161
53.974064 41.54493 -45.349377
62.540939 22.054333 -54.747406
53.33667 48.339241 -39.454414
46.478127 11.098015 -88.863419
53.887314 20.214361 -68.945282
54.668526 21.662529 -65.851768
47.444931 9.9832058 -92.52903
78.934753 -14.252899 -68.724976
77.220947 -29.774208 -88.161026
57.837173 56.528828 -23.204048
42.690506 63.589371 -39.329243
44.260948 57.939339 -43.507614
65.687889 -18.567406 -95.032837
43.414764 58.647964 -44.160271
80.175102 32.985298 -14.172829
59.474533 21.519798 -60.009758
82.609421 27.888056 -15.947109
59.165371 4.084507 -79.939323
45.05304 64.773079 -34.830711
55.872776 22.22678 -63.796337
49.184265 15.534185 -81.567276
72.22084 -32.110649 -99.030426
78.726936 -15.157387 -70.824875
48.049892 5.1548615 -95.205421
52.736877 57.527016 -31.572758
57.640656 35.203804 -47.810406
84.12397 24.398165 -17.64307
58.356979 53.265221 -26.403603
77.62085 37.695442 -13.124794
87.209755 11.52837 -27.0163
74.061623 -32.980743 -94.34111
56.916847 12.061573 -75.00061
60.029892 50.739616 -28.07148
85.201714 21.384716 -19.421967
74.360657 -33.29097 -97.710861
78.081757 -32.382782 -90.37841
77.085564 -23.288483 -81.307678
63.088612 24.782623 -51.364731
48.383812 12.531263 -87.447708
86.136932 18.052588 -21.74078
42.574474 59.804794 -44.227493
86.836349 14.716177 -24.331326
61.798485 29.113853 -49.107834
55.816437 39.424988 -46.511951
56.546814 58.387775 -25.305973
46.791443 58.687195 -39.150238
75.51725 -33.21611 -93.801552
46.017342 64.748482 -34.65097
50.862083 5.7377167 -89.491554
76.688286 -20.837906 -79.964127
78.691299 -16.050735 -74.209358
85.162582 -3.9110832 -48.365822
58.691849 21.413277 -60.730507
88.237755 6.4844856 -32.37849
52.656387 11.357937 -81.181381
73.273857 47.903328 -13.108341
71.349167 -30.532318 -100.86377
85.993027 -2.7004242 -45.862579
49.469978 4.1729126 -94.499954
63.267742 -4.1092453 -83.340492
63.434074 25.832943 -49.227833
72.291161 -31.667542 -99.180222
47.480736 63.676701 -32.554577
50.943886 58.71751 -33.644524
62.385567 -2.4196396 -82.413574
56.874092 14.507933 -72.496078
80.572357 -31.855148 -87.090469
56.356419 12.986668 -73.865311
62.856224 21.81929 -52.667122
67.694237 -26.275574 -101.54755
54.351517 55.692421 -29.935005
56.85046 22.288319 -62.955799
59.710457 33.761429 -48.201996
68.424332 -27.715614 -102.15604
65.55574 -15.666256 -92.465698
87.566864 0.38078308 -40.664291
78.989838 -26.49176 -82.569893
49.459694 14.70455 -83.37706
74.090874 44.121071 -12.857334
61.063343 22.004673 -57.827854
54.110756 43.676899 -43.975471
65.150307 -10.552601 -86.077957
47.342712 7.8176651 -94.743851
73.804779 -32.83519 -99.64151
51.283123 8.3925457 -87.285431
46.156918 58.712444 -40.710461
51.344597 5.826046 -91.409706
56.049171 55.970413 -29.736431
78.834564 -33.057716 -91.763664
52.88282 60.66151 -27.573521
56.581871 20.209108 -67.001244
43.028172 63.226875 -40.516953
54.263306 18.538328 -72.26963
48.402805 11.461496 -89.446365
77.669891 -17.349281 -76.31498
67.514801 50.270203 -17.438946
58.640381 7.9252243 -79.471687
81.000153 -33.339645 -89.090019
58.922188 52.011391 -28.426189
49.52454 4.623394 -95.207611
71.515373 48.342293 -14.024437
55.127419 41.430321 -45.539459
43.234768 60.539772 -43.46492
56.663338 21.455475 -65.013374
57.176735 57.355114 -25.919361
51.527752 10.762392 -85.273743
64.832321 51.646835 -20.354462
54.155037 57.373177 -30.258488
52.141289 11.650047 -82.839211
79.290108 -32.792709 -90.26963
48.12764 60.002922 -37.093456
60.358608 1.4314957 -81.087677
52.756859 17.189596 -76.442474
60.767799 22.521458 -59.641148
57.912144 54.058125 -28.197685
77.608612 -19.335533 -78.802689
48.421368 6.0827789 -95.678246
77.077057 -33.276299 -95.025322
55.310184 56.483589 -29.488503
60.896889 31.328453 -48.821793
50.83387 5.0009346 -92.740311
71.652359 -30.661835 -100.10755
53.92371 12.762493 -79.029388
55.082001 46.250496 -41.479919
59.7784 50.905128 -28.697693
83.782578 -7.4111671 -56.108158
49.180355 62.664879 -32.466427
71.393875 -29.49633 -102.90874
58.75132 21.554821 -62.006672
44.479042 59.196381 -43.420647
57.018559 13.989395 -73.200493
50.376583 14.41164 -83.438652
63.293251 28.622665 -49.938698
80.065598 35.90078 -13.469368
66.958351 -23.406322 -101.01572
82.565315 31.061232 -14.898071
54.811192 44.54707 -43.213364
63.423969 27.168854 -49.641472
55.458477 49.801197 -37.070595
79.890694 -14.350403 -69.853317
59.094292 5.7600517 -80.30024
62.180664 22.900898 -56.604774
48.497784 10.752649 -90.308533
44.206425 64.256081 -39.643837
58.833141 51.93071 -29.976257
77.420082 40.484871 -12.681652
80.76786 -26.237427 -83.256538
78.025902 -20.348717 -79.833923
63.402611 24.799515 -52.657631
51.246017 7.9499474 -89.156616
72.339249 -30.155067 -98.763115
49.78653 11.76548 -88.25235
72.98349 -30.667496 -98.3908
50.097702 13.157345 -85.676414
59.864227 22.086781 -62.075607
64.492065 -6.5538673 -85.354042
70.132599 -29.311256 -102.09335
57.670738 11.454109 -76.218811
53.885643 59.583984 -28.584045
57.321262 21.719555 -64.531715
84.767014 -4.9244156 -50.756496
84.848534 28.036642 -16.314713
52.158424 12.577379 -82.747803
66.098862 -21.603661 -97.467621
79.815414 -33.627815 -91.290123
49.561989 5.6739197 -95.577934
63.451023 23.97084 -53.999039
44.073742 63.448555 -41.970787
47.10976 59.149467 -40.42955
67.491272 -25.041634 -102.16785
75.362411 -33.37693 -98.616341
58.33136 13.550282 -75.806847
53.475063 16.38693 -77.141441
73.321297 -31.87056 -99.869476
85.915169 25.497597 -17.582474
81.008202 -12.636253 -67.247818
76.231674 43.814468 -12.495029
54.462555 57.657639 -29.909988
55.6684 52.332596 -33.866402
50.937809 8.8332748 -89.358971
81.097885 -30.150925 -86.350189
55.747288 42.576893 -44.834229
57.286751 19.141024 -68.67865
55.07056 14.216019 -76.800407
50.161457 61.665134 -32.939209
62.066025 51.804424 -25.493015
46.135429 59.236687 -42.23484
51.330132 12.754637 -84.311028
87.152443 22.544466 -19.360771
82.064789 -10.075104 -63.002499
65.846077 -17.124657 -95.504913
63.319981 23.532499 -55.208542
50.354591 5.207222 -94.507553
60.037666 50.851292 -30.013683
50.335335 60.040234 -34.377899
54.515442 58.339321 -29.418411
49.214123 11.198738 -89.878654
57.734943 20.333368 -66.190926
69.494492 49.647591 -15.709869
58.071983 36.899132 -47.389114
48.561577 8.7621441 -94.444092
88.827942 11.580896 -27.526371
51.268562 6.6988297 -92.104324
48.420856 60.932663 -37.09544
79.648643 -33.236458 -92.410347
56.554611 56.927162 -28.23597
88.305664 -1.4079018 -44.140373
43.910824 60.502232 -43.917763
56.826973 14.83856 -73.679001
88.21022 19.108021 -21.74659
51.426311 14.108788 -82.762848
53.701263 14.621933 -78.841873
53.672359 15.58461 -77.944237
64.513161 26.819241 -51.859207
48.742496 7.1294899 -95.587921
56.932659 17.240005 -71.241821
50.783577 60.51239 -33.426991
89.031105 15.730343 -24.350113
57.41243 54.362598 -29.786633
79.503464 -32.944458 -93.432434
80.493027 -33.309746 -92.579056
57.128895 15.398579 -72.673744
68.949509 -27.997383 -103.48045
60.332787 22.496403 -61.129288
65.75695 -12.473629 -90.719139
83.187706 -8.9267426 -60.971245
79.583466 -22.843124 -81.568916
49.792374 10.831844 -89.819809
72.051636 -29.60984 -99.873215
65.041122 -7.9376602 -86.57077
59.044853 21.509724 -64.808937
89.356171 2.4255333 -38.372063
78.791321 -18.316101 -77.898415
73.646027 -30.850571 -98.583824
60.177364 3.6818161 -81.640945
49.162178 10.257107 -90.809235
89.765404 4.6632843 -35.476925
47.303722 59.565399 -40.793854
56.439152 15.688444 -74.082687
43.87075 61.857742 -43.726051
46.699272 64.540169 -36.029724
56.789387 53.363621 -32.017647
51.015358 6.0130692 -93.321518
58.140507 52.331486 -31.391251
68.049103 51.171448 -17.704556
56.423161 46.740036 -40.490349
64.549805 27.245773 -51.183113
89.411919 8.9572792 -30.177002
56.632004 18.070024 -71.144836
49.881523 9.8127003 -90.540947
59.804062 35.890255 -47.637135
90.09214 6.8931465 -32.751675
62.462032 0.051681519 -83.55175
45.395363 64.433395 -38.045494
57.709526 50.783566 -34.142288
44.733776 59.808922 -43.893959
60.732437 51.016678 -29.565582
56.703468 41.182568 -45.670692
49.297592 61.87952 -34.936993
67.643448 -26.226852 -104.42937
57.403854 16.334919 -72.884109
65.909058 -13.676792 -93.002678
56.466442 16.921879 -73.115517
44.721237 60.506752 -44.057133
56.417873 43.940174 -43.685368
50.206642 7.8769264 -93.220505
58.196739 19.588121 -67.734108
58.307381 20.935909 -65.675926
43.247612 62.972298 -42.144493
48.327404 61.814735 -37.100021
80.985947 -33.225914 -91.965424
81.168213 -22.622368 -82.068893
66.462845 -19.072651 -98.146713
65.472687 52.663887 -21.747391
44.941082 64.134468 -40.127205
59.202835 50.680004 -32.342144
49.732586 6.895092 -95.0327
58.430511 49.207207 -35.677898
81.120506 36.695015 -13.497765
72.238914 49.856045 -13.54171
57.776264 18.627214 -70.050156
63.921814 26.599888 -52.863892
71.068687 50.234985 -14.520409
87.407669 -4.2480698 -49.978367
47.940228 63.166115 -36.67321
74.880096 -31.609222 -101.86649
83.552963 32.021919 -14.861458
67.02533 -20.833466 -100.79138
78.720932 41.813507 -12.670425
74.681831 -30.589607 -99.256302
68.208679 -27.15226 -106.25811
58.491783 39.580883 -46.303837
81.389496 -32.305908 -89.391479
65.397659 -9.9616852 -88.039108
58.818008 20.29921 -66.678665
62.155159 51.986397 -29.112679
72.156586 -29.409866 -100.31532
76.168686 -32.825119 -100.97575
81.050102 -14.680485 -73.03595
79.800461 -16.40324 -75.507568
57.403343 17.662561 -71.303925
71.078743 -29.106293 -104.20001
69.714401 50.946903 -15.937592
58.83503 10.755789 -78.689873
62.106834 52.015976 -27.29858
60.234077 50.143112 -32.096443
44.45895 62.610756 -43.250435
62.136929 23.757856 -58.612446
81.955421 -28.803665 -85.903305
46.187336 60.435783 -42.796219
77.91124 -33.107796 -97.721664
57.706459 44.513916 -42.927574
60.002171 37.27755 -47.065311
61.49081 33.455696 -48.84087
88.58519 -2.9796791 -47.541306
60.060921 21.952389 -64.266953
47.022984 60.664551 -41.391373
64.8246 29.396568 -50.89238
68.104919 52.006454 -18.475258
58.762695 19.882645 -68.387314
63.568493 -1.7116051 -84.673782
58.951748 41.98159 -44.833523
73.091782 49.690277 -12.879753
63.700073 24.261566 -56.305901
67.953491 -24.404083 -103.37569
64.689606 28.224045 -50.999702
58.574005 47.745945 -37.858921
44.997417 63.386253 -42.005432
80.541183 -19.586975 -80.023277
66.544899 -15.654243 -96.959846
46.674473 63.860836 -38.068542
82.203552 -30.557335 -88.337662
72.329391 -29.219505 -100.67343
71.173431 51.545597 -13.846191
74.764099 48.124176 -12.633614
58.101345 19.126062 -69.853371
46.659889 62.88649 -39.783958
61.566231 23.583805 -60.665337
70.510269 52.029095 -14.862595
89.495064 0.33031082 -41.757622
60.135044 6.1407814 -81.845642
65.939697 -8.490818 -89.356995
63.305397 24.564663 -57.468918
71.996002 52.726021 -11.662834
85.433075 -6.9671211 -56.042366
60.20504 49.039768 -34.443207
65.197861 -5.5985336 -87.080818
80.689728 -15.27758 -74.043282
90.822884 12.978556 -27.328758
91.223801 9.9544678 -30.204586
59.146469 45.374901 -41.40036
60.081139 21.520828 -66.223579
68.876244 -28.024437 -106.66063
76.832245 -33.109062 -99.470383
61.074017 49.956264 -32.876316
45.35862 61.537586 -43.439663
81.762047 -13.29121 -70.028511
62.971233 52.502541 -26.774643
67.580025 -24.721291 -104.34608
70.477455 56.199333 -11.090057
64.193611 25.001785 -55.277115
74.374992 49.849968 -12.221771
72.560745 -29.013542 -100.95427
75.925362 -32.182945 -102.04013
64.308586 26.176094 -53.904076
72.59375 -29.687378 -102.46829
69.65834 52.215153 -16.610977
61.106369 23.185627 -62.271053
74.299774 -31.412743 -101.06965
59.127426 18.542877 -71.662384
59.318874 21.232924 -66.461433
58.644455 16.945103 -73.232941
67.987839 -26.330742 -106.49514
66.620483 -11.055302 -92.588577
72.943939 52.716663 -11.105637
59.039673 15.942053 -74.490005
62.068283 51.417419 -31.188931
69.569931 57.853531 -11.313103
60.646404 39.16983 -46.025997
80.874809 39.574242 -13.220665
83.096985 36.837196 -14.040943
68.365997 52.618229 -19.120804
75.057457 -30.044609 -99.998611
59.63797 9.2059288 -80.618912
82.696121 -25.896652 -84.463631
84.321701 34.433128 -14.711327
81.343246 -20.379093 -80.901642
71.971893 54.81472 -10.522045
59.330849 19.789612 -69.617081
69.818512 -28.597366 -106.70459
67.580872 -22.056717 -103.71028
60.405228 53.274738 -30.28017
80.638794 -32.566498 -93.652382
60.745071 48.164124 -36.061611
85.582062 31.994492 -15.577271
70.066734 53.451904 -15.146721
66.40094 53.703964 -24.288967
67.861465 -23.346333 -104.58436
73.175545 -28.714951 -101.38509
67.962326 -25.029243 -106.09776
84.121613 -9.6526566 -64.271912
83.240936 -11.843452 -68.695389
76.897606 47.644459 -12.596634
66.365135 -13.004883 -94.302505
86.783478 29.562603 -16.609123
71.568115 56.818932 -9.4851227
63.613907 1.0344543 -85.019455
82.568275 -31.121964 -90.28981
69.292435 -24.249443 -103.00376
70.066139 61.849136 -6.7535286
81.243065 -17.959946 -78.631645
86.021118 -7.2016525 -57.668793
87.979607 26.847473 -17.952782
68.74337 -24.638443 -105.81271
69.027237 -24.331146 -103.96809
67.555794 -18.076439 -100.43735
60.246346 11.545506 -80.152573
82.080673 -31.879112 -92.084206
59.552467 20.507679 -68.956108
60.180702 53.20335 -31.437168
71.147636 62.068657 -5.2993393
69.557617 -24.832512 -102.811
69.356873 -25.214462 -103.34773
64.946396 53.294411 -25.755741
69.749672 53.0355 -17.19701
89.240402 23.716364 -19.812706
69.499481 61.391117 -8.5052567
88.392159 -4.9124451 -52.710979
70.199471 68.007668 -0.17247772
68.852165 -24.641045 -103.79659
73.719299 54.009502 -10.348335
61.102524 47.552528 -37.193436
91.089722 0.51939774 -42.721153
90.530952 -1.4629555 -45.905415
91.55661 2.775177 -39.532234
91.865723 5.002697 -36.594139
89.521683 -3.3868866 -49.239075
90.335732 20.232752 -22.211109
92.546982 7.5765152 -33.723549
79.288528 -32.479401 -99.190147
61.032696 41.00235 -44.928154
71.106613 71.817726 5.2496567
59.69508 43.354759 -43.665939
74.564293 -30.478569 -101.87337
91.196053 16.781517 -24.828461
69.841339 54.890045 -15.366291
73.933228 -29.3237 -102.4771
72.593094 74.889297 10.708061
59.807938 52.577522 -33.813507
71.230621 67.306412 0.29748535
69.815376 -24.377419 -103.98712
69.310997 64.186966 -6.1607475
68.817734 53.217842 -19.89806
76.534996 49.505821 -12.284149
71.835297 70.479828 4.4962387
69.193352 58.217991 -12.53698
69.012566 -27.262917 -108.00029
74.758072 77.219872 16.355202
69.556602 68.734337 -1.0206985
70.629791 -24.557777 -102.21414
81.57093 -15.696728 -75.616035
68.555038 -24.561356 -106.18228
75.013596 -29.627701 -100.50552
72.940163 56.837769 -8.9039536
64.296768 34.615681 -49.077042
73.019608 -29.34153 -104.8222
73.377937 73.977509 10.582382
70.512894 72.620895 4.6266403
64.958984 31.804981 -50.356659
66.640434 -7.8980408 -90.823929
60.118538 20.635639 -69.00309
59.861683 44.999512 -42.217209
76.199608 80.273712 21.718903
64.689102 -1.2709961 -86.261948
71.985672 75.686356 10.059502
75.704727 76.590164 16.832947
61.929966 50.232327 -33.473549
83.107567 -21.879707 -82.972008
59.571037 48.750553 -38.686729
76.994118 84.018448 26.780457
65.761566 28.785355 -51.829239
62.806126 53.682251 -28.922165
59.795105 46.775093 -40.567719
69.203018 62.442852 -9.370224
65.987816 -4.7113075 -88.409798
71.06546 -24.548271 -102.96896
59.644569 51.042706 -36.263931
74.806946 -29.299316 -100.96432
59.94738 17.454214 -73.698189
74.254807 78.093224 15.851036
77.095276 79.675323 22.130981
70.254745 -28.218582 -108.27206
75.16774 -30.610878 -103.21864
69.155586 60.355827 -12.232124
78.202179 46.979843 -12.792206
80.878052 -32.14949 -97.416016
77.299782 94.440872 38.35022
86.248695 -8.0268555 -62.075943
82.388565 40.556686 -13.731476
70.497856 -23.545483 -102.33718
61.347473 42.855057 -43.600666
60.266926 19.590187 -70.973495
62.935005 24.473381 -62.650505
72.435974 62.223045 -4.5000153
77.846107 83.29966 27.008011
75.733856 81.155174 21.308784
63.001266 53.473122 -32.728947
69.841286 -22.125671 -101.606
74.017746 -29.399902 -103.21285
74.01783 -28.920395 -101.6982
69.670792 53.659325 -19.108471
78.117035 94.282814 39.136421
72.46273 66.716324 0.24246216
69.498482 -25.341164 -107.03876
69.742142 -21.725216 -101.76259
70.006859 54.112282 -18.227303
76.519821 84.691978 26.166924
69.949203 55.183037 -16.219059
81.554703 -32.206039 -93.330536
75.223228 54.006805 -10.30864
70.250931 -24.935966 -104.50185
61.601528 6.5983696 -83.256142
68.406441 -23.335884 -107.96062
77.658508 98.89949 43.03714
68.895607 -26.085243 -108.35788
73.115128 70.232193 4.8811951
76.835327 94.7472 37.403381
61.438263 14.399767 -79.124557
60.712746 47.498478 -39.812782
69.128815 65.703178 -6.3677826
63.570827 36.958302 -47.723106
74.542953 73.413956 10.434052
61.832874 23.227974 -65.046936
67.698761 -11.029778 -95.770676
76.739952 75.767113 16.279907
67.884445 -9.6902618 -94.029037
78.325264 98.510689 43.435211
69.392929 69.644073 -1.7636719
60.485676 50.063667 -37.496315
69.418869 58.872971 -13.987522
70.405457 73.57235 4.006073
85.337372 -24.822296 -86.300117
71.929893 76.780975 9.688652
78.249039 79.232269 22.212708
77.293503 99.381401 42.503632
68.7742 -25.001732 -107.66762
60.95702 9.3987408 -81.905884
69.757896 -24.354965 -106.35757
78.982407 82.899475 27.129097
93.032883 10.594553 -31.013191
60.828499 20.806108 -69.603065
92.675117 13.723425 -28.081413
74.637024 -29.962418 -104.25022
74.343727 79.208954 15.778549
79.174995 94.035858 39.372971
68.377304 -22.191006 -107.68754
74.368347 56.982353 -8.722847
75.865829 82.639183 21.716202
91.642929 -2.1352425 -49.094372
71.716164 -28.952011 -107.16407
67.038177 -13.112141 -96.362885
62.425602 52.534946 -34.765984
70.514511 -24.951622 -107.8669
66.833771 27.578674 -57.537827
66.832474 28.215565 -56.807102
68.249161 -17.257786 -101.56401
66.590378 26.987576 -58.59211
66.957977 28.603622 -56.21677
62.366821 51.058834 -36.968449
76.466095 85.80114 25.936546
70.227188 -23.426056 -104.22398
66.072815 26.912409 -59.303371
79.215179 97.950554 43.331917
63.000671 41.160664 -44.811764
67.014267 29.217846 -55.455128
67.621078 31.477701 -51.866188
83.167778 -16.145786 -77.676788
71.500542 -28.376503 -108.2603
66.798012 28.857943 -54.651005
76.754517 95.185089 36.467087
70.864372 -22.362015 -102.18524
65.974777 28.153275 -52.847626
86.586502 -8.1835938 -63.847748
73.772095 62.353546 -4.2900696
90.757263 -3.431839 -51.605522
63.614571 53.917351 -30.5653
71.169769 -25.248901 -105.00484
87.025597 -8.248909 -65.511749
83.47084 -18.915367 -81.096878
90.193146 -4.3358002 -53.974888
70.22673 55.567986 -17.065926
72.087112 -22.799053 -100.84708
77.206406 99.745239 41.728371
69.340302 63.266861 -10.253906
73.821365 66.991913 0.6783905
78.549431 99.896667 43.977486
68.82254 54.108589 -22.687794
74.430435 70.174103 4.9378052
76.79837 53.055145 -11.094524
72.095978 -24.013092 -101.82543
83.385284 -12.896179 -72.853851
69.278091 66.521637 -7.250061
79.779572 44.859253 -13.040871
75.843948 73.286079 10.430061
64.663155 54.048058 -28.049179
85.673065 -27.700989 -88.935493
71.582191 -22.499039 -101.98158
76.702789 -30.136879 -104.40761
85.205154 38.025829 -14.948708
85.460365 -28.725388 -90.245575
77.827766 75.414833 15.799316
83.243378 -13.92041 -74.90007
86.927383 35.94413 -15.889957
69.452019 61.247166 -12.673649
88.194702 33.498669 -16.791985
78.035156 101.10808 43.084175
61.266769 47.283981 -39.984116
69.673088 -24.669243 -108.61198
71.696442 -20.243065 -98.705826
78.867836 48.822281 -12.953697
69.572662 70.510742 -2.366333
79.465118 79.099823 22.202309
70.86882 -22.818897 -104.09459
70.789948 75.034615 4.2595139
89.394806 30.977257 -17.873497
72.476097 -21.885361 -99.423653
67.497299 -6.4133606 -91.387817
80.128326 82.83519 27.150879
77.971092 50.955711 -12.223122
64.920944 1.8562241 -86.296555
89.893738 27.816275 -18.878296
84.597488 -21.611168 -84.132683
72.407814 77.936478 9.8009262
78.959694 -31.059586 -103.01311
70.072189 -23.757904 -106.57613
71.068176 -22.505985 -102.72983
70.138939 -25.229706 -108.23431
85.005035 -29.85022 -92.372604
80.249405 94.124489 39.532837
72.198288 -21.752815 -99.94622
74.200623 79.651085 14.281448
92.013412 25.064674 -21.284225
66.875916 -3.1956635 -89.230904
61.748718 17.003799 -76.958099
65.956123 -0.034030914 -87.523712
75.072182 80.934776 16.992401
92.798012 1.2202034 -43.72459
93.393745 3.9184723 -40.038795
80.618507 97.89875 43.26033
72.402321 -24.682831 -102.97946
71.916039 -28.577553 -109.05579
62.020229 12.375458 -81.324211
93.011353 21.486145 -23.661987
92.420013 -0.53477097 -46.580933
76.19252 83.750793 21.703476
93.006248 17.597485 -25.75975
78.759651 100.93546 43.792572
61.675159 18.723375 -74.879951
76.678566 86.709641 25.597893
80.041618 100.51876 44.328964
62.838135 47.061642 -40.639412
76.856476 93.29937 32.968033
79.848755 99.038658 44.151985
77.200706 99.269585 39.981606
62.502407 49.095428 -39.033134
63.987129 43.890594 -42.958408
83.246063 -17.510418 -79.589432
70.641151 -26.903526 -109.61742
74.888382 -29.342087 -106.46123
72.087456 -21.40694 -101.14648
71.092026 -25.131218 -106.9164
71.698685 -27.670715 -109.33912
86.206375 -9.7886086 -70.012589
68.003593 -12.158875 -97.402664
70.277664 -24.246246 -106.48563
77.895676 101.28358 41.994934
75.901443 56.230553 -9.5478516
81.855515 -31.323982 -99.526993
72.015396 -29.024223 -108.77235
75.38588 58.50045 -7.9166794
73.013931 -20.488873 -99.106323
65.463432 34.508728 -49.585709
71.716309 -19.412113 -100.45322
73.176773 -21.679607 -99.447044
72.360092 -27.991592 -108.15523
70.836441 -22.784897 -105.31895
68.094482 30.482925 -52.842308
71.088882 55.876331 -18.644703
74.881752 63.125664 -3.9096451
70.643257 59.050049 -15.956379
84.09539 -30.678558 -94.641273
71.001633 54.996796 -20.111511
63.955975 25.223137 -64.451729
64.930443 37.249554 -47.925926
68.814766 -23.243191 -108.62799
74.940041 67.777046 1.2013702
71.520981 -23.458698 -104.55586
75.697197 71.009857 5.8407745
69.636185 67.624573 -7.4563332
73.53405 -23.672386 -102.24149
69.905739 61.886711 -13.050179
70.194908 -24.992638 -109.13649
76.904785 73.370201 10.219566
73.04718 -22.571487 -100.90677
78.793945 75.417938 15.371704
78.116768 -30.660042 -103.86732
71.64624 -23.037758 -103.08037
80.34037 78.79908 21.383423
70.191681 72.430069 -1.3748322
63.944668 6.4057121 -85.214203
80.306458 48.048111 -13.581726
84.054138 40.963173 -14.555115
81.074188 82.831345 26.872559
65.770798 54.484921 -29.421227
71.458908 76.346741 4.7900696
71.949905 -19.047031 -99.358582
70.473701 54.768005 -21.980907
81.08609 86.357002 30.680176
70.316231 -24.565384 -107.8959
72.956627 78.795868 9.1463699
81.136536 94.110168 39.210983
62.768608 9.7846832 -83.302139
64.814964 40.430164 -45.734322
75.042862 80.817329 15.156448
67.711029 54.54137 -26.035439
72.932037 -28.9543 -108.99649
76.450294 83.936096 20.66124
64.786301 54.158894 -31.812336
95.06723 8.9096794 -35.237198
62.837753 22.986538 -69.151718
94.992737 11.599283 -32.22216
77.016113 87.037453 24.916611
94.633057 14.664476 -29.294296
68.824493 -16.726704 -102.04187
72.385452 -21.329094 -101.79294
77.280922 96.064827 35.129463
72.019211 -27.753899 -109.5607
80.542053 99.720657 44.329567
70.761047 -23.958244 -107.9291
61.983406 20.610415 -72.606422
68.193504 -20.02652 -104.08163
83.29525 -31.020012 -96.741859
69.753494 -18.615166 -105.12849
70.668198 -24.086754 -109.41174
71.409233 -22.864182 -105.72615
63.477463 51.81184 -36.597366
65.017776 41.706245 -44.716099
70.542847 -23.949905 -108.25838
63.840294 53.346245 -33.863201
73.139236 -28.449158 -109.86174
70.649055 -24.983315 -109.35793
71.61705 -22.253197 -104.87956
71.158989 -26.379288 -109.8355
65.723747 38.886944 -47.525696
65.47406 26.39208 -61.395565
65.052559 10.690842 -85.068314
66.128937 2.5764618 -87.177704
68.101334 -2.2619743 -90.048599
69.81945 31.002476 -55.002853
66.169731 35.728352 -49.63559
94.228836 18.327503 -26.563553
91.364899 28.773321 -19.789589
79.751785 50.275406 -13.333706
78.574509 53.037987 -12.211807
76.960983 56.548431 -10.10318
70.573647 62.442165 -13.538872
76.334137 59.181885 -8.1882172
70.171906 68.261154 -7.7848358
75.737076 63.802738 -4.0496368
70.696198 72.764961 -2.0374832
75.841309 68.657249 1.4313278
76.638641 71.688332 5.9878387
71.927979 76.765388 4.2541962
77.646896 73.647125 9.6960754
79.39875 75.54557 14.490051
75.307358 80.912872 13.222626
80.581352 77.713318 18.697327
76.129051 82.010971 15.636726
76.948418 84.459206 20.461807
81.483826 80.805161 23.483284
77.478828 87.514236 24.631104
81.830498 83.862473 27.370445
81.775764 86.63031 30.318611
77.5979 93.656754 31.546417
81.808426 94.19873 38.662575
77.911041 100.84006 40.41777
81.572617 98.650314 43.175262
81.515869 100.39082 43.775436
79.266136 102.26964 41.959335
79.460838 101.74762 43.298019
69.095947 -5.2766037 -92.432541
94.392441 2.2958794 -44.815002
68.855453 -8.9826584 -94.47438
