# .PCD v0.7 - Point Cloud Data file format
VERSION 0.7
FIELDS x y z
SIZE 4 4 4
TYPE F F F
COUNT 1 1 1
WIDTH 1602
HEIGHT 1
VIEWPOINT 0 0 0 1 0 0 0
POINTS 1602
DATA ascii
-3.9669914 41.730759 9.7118511
-4.6545086 42.532406 9.4728699
-5.4153299 44.597111 10.75619
-12.986832 58.704288 16.27342
-2.4546108 42.165478 17.461102
-3.9064274 42.430267 19.942867
-11.088522 58.427696 16.841106
-10.81284 51.856773 14.253607
-20.949667 61.92775 20.888126
-5.5576086 46.068508 11.809051
-6.4547634 47.621143 13.658785
5.0986633 49.400482 98.818848
8.883049 49.019314 95.80864
8.5911274 49.117119 97.164902
8.0234966 50.3703 96.91246
2.4258957 51.407501 101.4149
1.9044914 50.481705 100.2951
1.875124 51.314445 99.296921
6.357645 49.896564 97.265549
7.7649021 47.889698 97.531494
7.5775547 50.039688 96.566956
9.6860104 49.674309 96.615822
9.6727257 49.403419 94.35675
6.6873493 48.364235 97.556244
10.352573 50.463936 94.586502
19.610691 61.533772 92.335175
-0.63868713 56.303429 105.09286
18.455618 60.979183 92.446152
19.162315 61.572174 93.482117
19.44047 64.624954 94.521065
-0.0072250366 56.538895 108.40862
20.077099 63.50386 92.683838
0.65026474 56.996666 108.20776
19.929682 56.005554 89.00856
19.544411 56.828415 92.505295
19.824755 70.563225 100.32512
18.099569 60.343685 92.734886
19.346424 59.935631 93.436714
19.35656 58.854916 92.718491
17.94383 38.119812 88.706383
13.54059 48.802048 89.836517
14.239176 42.647331 91.230499
9.394783 46.034161 91.977768
26.393822 33.358662 93.613327
16.784674 49.226673 93.836182
24.325161 39.837086 92.749252
19.593021 40.709259 93.644379
22.334036 40.903023 92.410378
12.039242 44.481232 90.355988
20.696476 37.331512 89.431488
15.270741 50.359772 89.100479
13.078932 44.77018 93.49826
10.823462 46.805344 93.216805
11.701992 45.97348 95.473892
23.514248 35.662724 89.898232
10.502163 47.36097 96.5961
11.065874 45.147858 91.547096
22.955992 36.124306 90.78273
3.9964228 40.159405 61.095535
14.850931 48.712437 84.136086
3.4412117 36.74147 60.69923
5.2860336 36.675262 62.942055
12.934278 41.7164 85.626457
7.9519234 47.943138 95.781288
5.3783855 40.800926 62.697777
13.984009 36.069271 71.092468
15.118814 44.322243 57.447388
16.676165 42.649754 62.775192
11.930298 45.669968 89.029968
18.351061 70.590286 100.87785
6.7650623 50.678879 98.321716
2.8708477 50.636314 98.843124
1.3641758 51.072868 100.95384
1.0911045 53.685814 102.11417
8.0455208 49.78194 97.849609
0.68505478 55.204647 104.21078
9.5057774 47.359314 95.774002
10.238375 46.930206 96.711014
18.779478 69.585548 99.767365
18.405897 66.676338 94.717651
7.1827259 46.469269 95.345673
8.5458241 46.932045 93.385727
6.3506145 47.839104 96.835373
19.273247 30.702671 44.691486
-8.3513851 39.636833 26.635288
13.979353 6.515214 32.422539
2.3634763 26.104506 -1.50634
-4.7115574 32.93079 46.957958
-9.8528042 41.538528 24.0109
-22.821686 48.461037 19.153868
0.80020905 29.399382 42.991367
0.56056595 29.692709 41.217194
18.778202 31.253405 40.277138
26.150696 8.7526894 24.779282
-6.5681782 44.071106 10.210602
12.285845 48.072334 94.890076
11.097351 49.34066 93.616852
11.11585 49.818481 95.475143
18.247913 60.079823 93.60952
12.342329 46.622417 88.12133
0.39700603 48.327637 26.075676
6.5530872 49.854168 98.822647
12.277685 46.475891 59.959839
0.89253235 47.31356 54.445374
2.2025442 48.049385 54.505424
5.7748165 38.534504 63.958176
6.1237278 37.951622 64.542206
1.3930759 45.393669 56.877323
7.3335352 45.66954 60.980324
5.6669006 39.517738 63.625648
7.8608103 46.238186 60.48864
4.5754547 46.684753 58.17765
11.774622 45.963631 61.830299
6.9510117 43.71228 62.724388
6.3797016 42.797501 62.813965
4.8457079 47.312057 57.468521
4.3179512 45.450512 59.352852
0.66569424 39.086246 58.163811
6.3202648 36.895611 64.651497
1.411952 46.474041 55.788521
12.178165 46.035351 61.432129
7.4859428 44.428318 62.566154
1.1976156 43.418777 58.037415
10.893776 46.01717 61.741257
0.439291 37.996765 58.045631
1.2755804 43.992481 57.806217
6.1998749 36.241615 64.16507
6.707262 35.841553 64.824875
7.9292631 47.09494 59.162903
2.8648825 45.637756 57.900997
4.3188705 48.508953 55.294209
1.0847359 42.694759 58.19474
13.321907 45.711994 61.300682
3.058795 38.945839 60.202721
4.6530237 41.687675 61.433998
12.92767 46.639309 57.253632
7.5425129 41.223953 66.132141
3.0589037 47.884914 55.2976
13.762367 45.650364 60.477867
6.26931 41.783592 63.463253
12.137115 47.034565 58.241898
12.932107 46.641106 57.761452
1.3947544 39.296776 58.74855
3.717206 38.434204 60.920097
5.964407 40.622211 63.715256
2.2513742 36.478561 59.622963
12.540498 46.884228 57.923565
4.4253597 36.680305 61.786942
4.3577328 35.792366 61.603149
11.018863 47.244457 58.683273
4.1912479 37.630116 61.53952
9.6805401 46.726776 60.100662
2.3503332 35.825985 59.6847
7.5250874 41.916237 65.520126
7.4563789 48.537857 56.869057
-1.6809101 41.408638 55.744156
9.3495293 44.690025 64.568192
4.697506 40.451637 61.89817
8.3118725 47.576084 58.38459
10.005878 45.724758 62.289406
3.4978905 43.547047 59.8312
9.3174152 45.307495 62.858543
1.5883446 41.809441 58.758839
4.2580271 47.537582 56.674782
-0.47448444 44.820808 55.666725
-0.060323715 37.265411 57.597618
7.9834843 41.693291 66.585968
6.3586206 45.634926 60.463135
5.43081 42.017681 62.155594
5.6554174 44.62254 60.814819
5.2618294 45.410988 59.986282
6.8246431 48.864529 56.205555
8.4646473 43.7808 64.783394
-1.7045803 42.581059 55.603474
7.9188175 43.01593 64.956909
3.3210173 40.455299 60.361366
4.1678476 35.219845 61.252754
2.2464237 39.258389 59.467731
4.383172 39.355145 61.710548
8.4835997 48.672619 56.700951
4.7742109 42.614906 61.174709
3.7147779 44.321869 59.627579
9.2991142 44.966953 63.692307
2.7551413 37.35535 60.020275
6.5036802 49.290981 55.350937
0.17352581 41.549007 57.612732
4.2217636 43.161198 60.491615
7.4251986 45.009727 61.824036
3.2940168 42.424511 60.025238
4.4766846 49.044353 54.620667
10.886847 48.010605 55.327835
-1.0355015 43.109852 56.204147
3.2362766 41.378414 60.181316
9.0655746 48.864532 56.127666
1.6330709 40.763748 58.889465
5.0353327 39.689293 62.576866
6.1429796 47.955647 57.26519
6.8258839 41.711212 64.523262
5.141777 43.689529 60.971245
-0.53688145 41.311016 57.004566
10.393244 47.036373 59.422432
10.149185 46.408455 60.817123
-1.1411295 45.237972 54.696404
6.4164543 47.087399 58.72644
9.7668705 44.476097 65.746735
2.4444523 41.743126 59.474838
8.2557335 44.648731 63.107483
7.9827805 41.074841 67.221664
7.8358259 47.88842 57.819492
5.0421 37.637295 62.72084
10.569319 45.290474 64.296669
1.4372931 37.050568 58.893639
8.8852015 49.225094 54.78252
11.669434 45.403027 64.37455
-2.2786465 44.77964 53.864891
9.0224304 49.064354 55.51115
5.4915676 48.706665 55.756123
9.9331865 47.900963 57.340675
5.9994125 44.018066 61.518139
10.394987 47.585987 57.985237
-0.50850582 46.794342 53.836929
9.7172527 44.235508 66.352875
-0.9679985 43.783493 55.952431
11.099892 47.839405 56.183609
3.9613256 41.056675 60.910202
9.3393383 47.669174 58.136543
0.012249947 40.359276 57.545006
11.438169 45.568153 63.465572
2.6284542 43.63018 59.137264
8.8432608 45.604862 61.958214
10.91628 47.855343 56.561657
-1.1709652 46.054623 54.007683
5.3610973 35.816521 62.796509
2.5596266 48.879978 53.590694
6.8895473 38.493824 66.042946
6.708807 39.862389 65.436775
9.318821 43.682457 66.702164
9.5664911 48.213093 56.968327
9.9895658 48.487194 55.710484
7.666256 43.455212 64.044464
-0.88260651 39.284714 56.773369
-0.31521225 43.199711 56.859791
3.4896793 36.070313 60.746967
10.565096 47.941956 56.784172
8.8233013 43.051857 66.638687
9.4552422 43.498909 67.639069
7.8967924 49.563728 55.102379
7.1981697 39.750481 66.377411
10.70281 44.986176 65.99897
-2.4955635 43.345703 54.353443
11.369959 47.608982 56.789001
13.59166 45.354477 62.674461
13.574229 46.014145 58.895142
10.356054 44.606239 67.139412
12.700373 45.516701 63.279495
7.2835884 36.610016 66.335716
6.2016087 39.155266 64.700516
6.1017799 39.490059 64.453018
2.0511999 44.860085 57.878174
5.749548 37.386459 63.780884
2.2365885 46.108452 56.857658
5.4958782 37.58783 63.40625
6.3363438 38.836292 64.973885
5.3099136 38.555473 63.152187
6.4932842 38.55286 65.271309
0.59350967 44.640732 56.798416
7.8350792 45.355652 61.695824
8.3278418 45.910606 61.180576
6.7512007 46.071865 60.218536
0.43141651 45.785217 55.695313
11.461674 46.293205 60.979607
2.2467175 47.20837 55.580536
5.2329473 39.047398 62.987846
6.1083336 39.991741 64.278275
5.4055653 38.057705 63.305656
5.7836246 36.871914 63.711277
2.2473097 46.617245 56.261127
3.8196554 46.732494 57.451267
8.0946589 45.662216 61.430641
8.5352373 46.135311 60.915573
6.9664745 46.357948 59.965622
5.6375589 47.219635 58.142693
3.5686245 45.554012 58.641808
8.7528734 46.903885 59.652527
5.2954435 46.579254 58.849747
1.3574266 38.497311 58.758739
6.5679226 37.562016 65.321396
0.54637623 45.171043 56.35313
6.7706928 44.245697 62.036633
6.2247238 43.347633 62.208603
7.0683575 43.201252 63.407669
6.4994688 43.839455 62.115978
5.9259367 42.905033 62.195835
6.794651 42.730881 63.471611
5.8372221 41.825794 62.786476
6.4884624 38.04718 65.239243
11.720729 46.35096 60.739334
7.5646925 43.930496 63.270214
11.663954 46.903831 59.291641
5.8465176 47.505432 57.812416
3.970089 47.060658 57.125111
3.677619 46.166473 58.070004
5.4637012 46.90892 58.503487
5.1762629 45.979218 59.449947
5.7583599 36.142338 63.456474
12.044187 45.718071 62.714081
3.5218124 44.883728 59.154026
1.9352732 43.861874 58.451309
-0.0455513 39.664223 57.532276
1.2426577 37.995995 58.712666
3.6421919 47.662716 56.011066
6.6963062 37.130142 65.455208
-0.2487402 38.67989 57.436878
1.8265696 43.143459 58.684853
7.0461903 44.647644 61.907158
11.137312 45.740158 62.631004
7.8417301 44.273346 63.18174
7.3082771 43.570126 63.349449
0.48726749 43.623039 57.349586
-0.086462975 39.165047 57.537041
1.6619883 47.238911 55.135975
11.013136 46.331009 60.967537
2.0392036 44.206356 58.33239
2.1299438 45.509132 57.391434
12.305485 45.752647 62.469147
4.831007 48.319237 55.90731
12.253652 46.771355 59.131714
0.41532135 42.947575 57.573082
5.7772942 36.472961 63.597618
10.680636 45.731289 62.529922
0.44863415 43.290722 57.468216
0.5367794 43.939232 57.216358
13.181655 46.042442 60.187134
3.0916996 47.322937 56.035736
6.9736347 46.804962 59.348267
8.8582582 47.280392 58.963852
11.625013 45.76503 62.57859
1.8844986 43.512329 58.585621
8.6824036 46.5252 60.301025
2.7863245 44.982677 58.420616
1.8168421 42.746998 58.801178
2.9795876 46.237686 57.338966
1.322547 44.746441 57.345131
4.4004297 46.092251 58.795158
4.2229843 47.998634 55.96991
0.88709068 41.680466 58.189522
7.346488 47.370354 58.593582
0.36759758 42.561134 57.643425
0.7241354 37.185333 58.304401
3.5581093 39.552238 60.666588
12.655266 45.805302 61.950111
2.7811308 39.867451 59.909538
12.392548 45.798489 62.206951
8.0983543 42.330654 66.057678
12.46631 46.978916 56.554871
2.5321398 38.36145 59.751137
5.5081949 40.135616 63.170433
-0.27152824 38.166275 57.417175
3.2610111 37.860954 60.456375
0.64107418 46.363243 55.29554
2.8407421 36.278885 60.158661
2.8096018 36.738476 60.113926
5.061718 42.451332 61.53231
7.0429401 40.902847 65.51162
7.1349316 40.183128 66.061646
5.0419111 41.213192 62.066719
4.2762966 40.926991 61.264175
12.341389 47.085762 57.027344
10.127691 46.045372 61.584869
12.811937 46.121071 60.533989
11.456057 47.394627 57.779194
-1.0988455 41.896599 56.394508
6.3975258 41.14283 64.181007
6.6883125 42.201096 63.814804
5.81252 41.267185 63.104279
5.8913336 42.407326 62.478909
1.9242706 40.001362 59.167637
11.741037 47.347538 57.530472
3.8482113 39.310318 61.017654
4.6015863 37.608414 62.086533
4.2712698 38.485725 61.639301
3.9281178 36.27887 61.195202
4.8713694 36.254547 62.292191
1.0586691 39.972023 58.446663
1.3902292 45.933952 56.345493
12.001991 47.272709 57.249092
1.7157879 38.60862 59.040958
2.9129171 38.152557 60.108337
6.5332909 41.690392 64.000221
5.6503973 40.626724 63.194855
5.3599205 39.59441 63.091698
0.99287891 37.562897 58.520679
6.271368 40.573986 64.305008
3.9631138 36.697273 61.24427
3.586009 37.5779 60.808899
4.8522635 36.695847 62.341747
4.9975128 35.492802 62.262642
12.64673 46.680504 58.756294
7.3607693 42.356323 64.811302
12.856932 46.61039 58.50486
2.8933506 35.863754 60.185692
13.138751 46.422684 58.384407
7.1470222 48.093994 57.426247
14.822733 44.754272 60.900444
6.4494381 48.402237 56.732559
7.0129147 41.2127 65.264587
11.038528 46.985023 59.384995
8.7289505 44.411644 64.187523
4.0520058 38.877518 61.317474
4.4960032 38.095333 61.959526
4.4598799 44.879181 59.841751
8.1624737 48.298244 57.239716
4.892395 35.851509 62.234215
9.5372763 46.382458 60.781017
0.36170578 39.742699 57.875977
3.8300552 37.152782 61.094917
4.7209864 37.137146 62.21537
9.9970074 45.172203 63.999947
9.7444429 47.062389 59.429539
10.986983 47.494671 57.89529
7.8303862 46.6707 59.826927
2.9329576 35.442833 60.142014
1.7483034 35.998646 59.180344
15.221938 44.290031 58.383656
9.0914536 44.088646 65.282104
13.169977 45.657291 61.968136
1.5986481 36.46793 59.047623
12.23724 46.255974 60.688747
8.106945 42.622868 65.728378
5.1940823 47.778709 56.996212
-0.98955345 42.514946 56.441761
7.7577562 48.963848 56.340618
7.088438 40.551094 65.793785
9.9737015 44.915142 64.914551
7.560132 47.636257 58.201794
5.0392466 40.682159 62.269463
4.7125692 39.515808 62.146751
4.356431 40.292408 61.505318
9.0426207 47.485703 58.56636
5.0504818 41.828407 61.808708
7.1417561 47.090435 58.981911
9.1015787 45.450249 62.400322
9.6971474 45.876263 61.83548
10.555487 46.205311 61.278847
0.70278358 39.838219 58.163445
10.286251 45.585793 62.80761
-0.29368591 44.319542 56.243603
4.8649502 35.1003 61.987202
3.879405 35.624577 61.083206
8.7510691 45.20528 62.607948
8.7717552 44.807575 63.397789
9.408411 45.665222 62.140224
3.1244831 43.849831 59.41494
2.9911051 43.163532 59.592476
4.0919752 43.900089 60.098854
3.1302729 48.330296 54.769138
1.1754208 46.8437 55.215126
3.7525301 42.765804 60.275841
3.7356977 48.635052 54.738487
2.0183353 42.334103 59.043793
2.0066338 41.27 59.16317
9.9273186 45.402351 63.119087
2.1187067 37.186409 59.463951
8.3584633 42.545464 66.299088
1.1324434 41.320358 58.427071
5.5056648 47.646492 57.402271
6.7932968 48.254906 57.092018
4.8612919 47.882515 56.60173
3.6818399 47.173679 56.719707
10.328815 46.720528 60.119526
0.62009335 42.131256 57.917259
6.1215067 48.529827 56.383049
7.3331528 40.342388 66.339783
7.4886761 40.411591 66.606194
7.3725443 45.317551 61.422974
7.8064175 43.243111 64.50869
7.7160339 40.715614 66.896843
6.2077475 46.017952 59.989147
6.4789562 45.225327 60.918556
8.3323479 43.963219 64.338333
3.964098 35.953159 61.209942
4.8877258 48.601868 55.528774
5.4694538 45.002117 60.413658
5.4714565 42.579987 61.894157
5.4483891 41.469528 62.467159
6.2740078 42.236294 63.113422
7.5793285 42.840206 64.630829
4.8693886 48.862114 55.136322
8.0480881 43.609463 64.419624
4.3246574 41.819279 61.06472
6.1325922 44.744312 61.090851
4.6827478 41.082649 61.680458
5.5811367 43.880302 61.235901
4.9295397 44.854324 60.163891
5.1624203 44.467506 60.55629
7.1726017 41.80349 65.047104
5.6360836 45.93153 59.758228
5.832202 45.546818 60.227959
3.9869461 44.886086 59.510735
5.9857759 45.130592 60.674454
6.1431179 48.775005 56.025517
0.32743454 46.688046 54.693905
8.7020435 43.603668 65.427338
6.0583487 49.024864 55.598587
9.5468788 44.534607 65.157646
7.6561165 48.211777 57.344849
8.6843729 48.346283 57.109459
7.3033199 49.110157 55.990139
2.3552637 39.961685 59.533768
8.3551693 43.142303 65.491257
3.1874084 39.735863 60.286781
3.6767054 40.30769 60.724991
-0.95587635 41.229851 56.597363
2.9316387 40.594818 59.997879
3.6082296 41.204643 60.544559
3.5670805 48.09922 55.362576
2.6704073 39.159882 59.839661
1.4938211 39.993687 58.808712
2.1323318 38.554733 59.395432
-0.25875187 45.500229 55.343037
4.8677006 40.075619 62.231087
4.1929712 39.753426 61.397892
4.5789356 38.963043 62.038147
3.7655125 35.258625 60.884029
4.3838959 42.299309 60.951828
3.9721966 38.038242 61.254261
5.1153584 42.897781 61.35614
4.7007837 43.426739 60.745506
4.2936325 41.375389 61.167427
3.4107666 38.716476 60.557762
9.3201771 48.564121 56.568676
1.3328667 42.238678 58.48719
8.7994757 45.013176 63.009125
8.2851934 48.973755 56.307709
8.7196064 44.595219 63.782822
3.2338238 44.251949 59.293774
3.0112906 43.53566 59.471901
2.767065 48.445507 54.364632
7.0637541 49.350357 55.466702
9.9065132 45.254929 63.559624
2.3967695 37.634903 59.676804
4.1426373 44.281521 59.955048
4.7864323 45.441845 59.671043
0.44577694 41.074261 57.87529
3.1003637 37.086346 60.356644
-0.65911865 42.835331 56.66642
10.400518 47.327621 58.715675
9.9587078 45.044708 64.464462
4.4464293 43.749828 60.413689
4.0923243 42.535301 60.61758
-0.73486328 44.354042 55.801666
-0.091317177 42.026829 57.337097
4.932106 43.151165 61.064041
3.3857479 42.978336 59.937435
6.003171 49.242043 55.187969
11.357122 47.719616 55.607498
7.0365705 44.971615 61.565247
7.8506937 44.530979 62.832253
2.5997381 47.834251 55.062618
9.017375 48.462597 56.843876
7.8237944 45.046497 62.10392
2.9008427 42.640797 59.67598
6.9444141 45.285786 61.161327
11.663651 46.606731 60.056145
-0.25963497 40.843437 57.28788
6.834341 45.673737 60.706097
3.6599121 42.205978 60.367001
2.8468189 41.561543 59.825752
1.8388243 36.822937 59.246895
3.8410025 43.303448 60.165718
12.726192 46.398968 59.614719
9.6083384 48.599655 56.205914
0.092180252 40.963348 57.586185
1.9991922 41.850128 59.095154
2.0639381 40.747681 59.248245
2.8614798 41.055973 59.896851
3.6110249 41.683582 60.45285
11.60403 47.153355 58.520874
1.6154375 47.744572 54.470448
3.6368113 40.755219 60.635654
2.8589993 42.098621 59.751392
8.8853321 44.236908 64.713524
5.1947756 40.24157 62.653255
4.5354319 39.908596 61.817539
1.8218412 39.301075 59.104057
1.1527557 40.810436 58.483109
4.8997631 39.147209 62.477242
9.5383883 48.783424 55.529488
5.8148518 40.07711 63.710365
6.0832577 41.108818 63.636314
4.5574903 47.429596 57.071438
6.9998436 42.26543 64.295761
5.8219891 48.08345 56.902649
6.4852543 47.809418 57.63364
6.702179 41.113567 64.786804
8.5900507 49.123619 55.931927
5.8381405 44.305489 61.182156
5.3414927 43.405941 61.294582
7.1071043 48.694962 56.563942
4.9184628 43.965054 60.652039
4.5223246 42.854111 60.849331
-0.445508 41.877762 57.044575
7.7348309 42.487339 65.27552
8.5976906 47.802906 57.962158
12.752492 45.922646 61.331818
9.1568108 43.902596 65.765884
10.518561 48.181614 55.850121
9.9638824 46.565079 60.463303
10.650303 46.861828 59.761196
10.113465 47.205826 59.085526
10.698622 47.430832 58.319695
8.4599171 42.450687 66.713615
9.3219738 44.831047 64.123283
-0.63883877 43.491009 56.430595
-0.60342979 40.761581 56.971588
10.551139 46.559036 60.48167
9.7303286 46.220467 61.140892
10.48339 45.857906 62.109299
10.06468 46.888275 59.772728
4.6991539 46.99786 57.825172
11.021194 45.452789 63.895287
6.2276382 46.774811 59.091675
6.6338673 47.371342 58.380745
2.4467602 41.192696 59.535221
10.564741 45.380493 63.820023
9.5787783 48.69923 55.900185
1.5489454 41.300304 58.779785
2.4345407 42.32338 59.378506
1.724679 37.465981 59.107769
8.0747099 47.336029 58.792595
3.2428503 41.884621 60.103767
5.7124825 39.025883 63.808159
4.9274445 38.113647 62.575172
2.4801435 36.962524 59.801865
7.8465471 44.784317 62.476944
9.3584099 45.147331 63.286217
7.3338594 47.785313 57.913933
7.4577723 44.710823 62.202858
8.2739592 44.885185 62.741661
4.3054771 37.14547 61.666626
8.2417526 44.417545 63.471107
10.165331 44.84758 65.378799
9.23242 43.769665 66.195229
11.519472 45.482941 63.969891
8.337575 47.961014 57.709511
8.8194828 47.640625 58.260044
5.1840248 37.172005 62.877357
5.5148277 48.459145 56.137875
9.4741888 48.868301 55.128456
7.9645205 48.624931 56.804214
10.606964 45.181438 64.809792
-0.5415287 43.87011 56.318771
9.4253359 47.96981 57.44651
6.6516085 49.079922 55.785984
9.8567991 47.644089 58.057022
6.6729879 43.299603 62.76651
5.738431 43.585712 61.561142
6.2726564 44.423592 61.44698
10.083008 47.499359 58.381546
10.46646 47.793343 57.258461
5.3796759 44.155853 60.905716
10.694073 47.165718 59.055092
-0.68355274 43.160866 56.537964
11.414413 45.311008 64.795639
10.679888 47.655079 57.580574
9.6484423 47.794395 57.742317
12.046509 45.444599 64.108582
10.587952 48.058311 56.341019
-1.6739511 42.026199 55.740868
10.083529 48.086575 56.866432
1.0421429 39.174881 58.46994
8.5633526 49.249378 55.639526
11.320772 46.006714 61.768467
5.4715033 48.944778 55.386662
4.6816778 42.142426 61.291313
3.9710426 40.608337 61.004105
3.9626627 41.508881 60.808876
0.55600739 38.568565 58.120438
3.2621069 40.904037 60.265686
6.1598282 37.435722 64.513191
1.2052202 36.713966 58.706833
0.36300182 40.487526 57.83976
9.5565281 47.520134 58.448555
-0.1831665 41.43922 57.318901
10.978302 45.543072 63.381096
11.505303 47.610023 56.146179
9.1279364 47.836369 57.821404
8.076685 47.733982 58.091171
4.4131842 36.25174 61.726326
10.161905 47.732113 57.662697
-0.34305859 40.26223 57.23325
11.077948 45.373329 64.391388
10.502948 48.241566 55.47438
7.116333 49.53228 55.154415
2.7050734 43.990555 59.019348
8.9756088 43.395458 66.346451
3.6339979 43.959816 59.749825
2.5783768 43.275547 59.237007
9.1202383 45.826874 61.699867
5.9223557 38.212158 64.207687
9.6853542 45.521671 62.621338
5.3131733 36.242191 62.873657
8.5691729 45.368313 62.187531
7.5792255 46.003635 60.690987
9.1927223 48.158264 57.232277
6.7969236 49.466305 55.137714
9.0096159 48.581894 48.097778
6.3235416 39.827168 64.744896
6.5945835 39.065643 65.415916
5.9980164 38.70443 64.362877
5.684473 37.963745 63.76318
6.1386108 38.504589 64.616714
6.4683647 39.475693 65.103111
5.9442577 39.02565 64.243172
4.0730162 44.593243 59.742188
5.9009914 37.703896 64.102974
2.548172 45.87558 57.377346
2.452651 45.251278 57.89994
1.7240057 45.134247 57.378975
5.4606667 37.019375 63.259815
1.6564178 44.452282 57.839855
2.3919268 44.578091 58.381538
2.6765451 46.455818 56.810543
1.8061686 45.752903 56.878265
-2.7886076 44.329433 53.513191
9.3180037 48.526009 49.080147
0.95744801 45.570992 56.349861
0.92947292 44.340061 57.290539
1.7560511 50.403385 50.553986
1.8198643 46.27993 56.316414
1.423357 50.228138 50.80497
5.0590687 38.579414 62.763992
5.4812107 39.036304 63.393108
6.2495537 36.591236 64.398064
5.1615963 38.08696 62.924889
0.99096775 45.03759 56.838516
10.247395 48.198944 52.213249
5.8953667 39.515099 64.050797
5.5501308 38.541157 63.557549
5.2762012 37.606232 63.069519
6.2925549 38.283455 64.888435
5.9937515 37.128136 64.134918
2.6631975 46.962109 56.164001
0.97395897 46.14727 55.792789
7.6843767 45.572048 61.314831
8.339077 45.521957 61.793259
8.1441031 45.300964 62.009075
8.5953264 45.764793 61.548519
8.8957367 46.016026 61.255108
7.8336239 45.816208 61.070999
8.0515013 46.056343 60.835793
7.1139297 45.978485 60.516365
7.3254042 46.246582 60.265709
0.19478798 44.237965 56.738884
6.5497074 46.345688 59.787361
6.7300682 38.750645 65.707489
1.8265295 46.843266 55.697311
0.11137772 44.780815 56.279575
11.347426 46.497421 60.503056
6.4404736 37.249207 64.993828
11.632139 46.128761 61.372017
2.6829405 46.699585 56.504051
5.0071344 38.880547 62.668144
5.1086702 38.330231 62.847492
5.4534588 39.323139 63.299767
5.5119877 38.787987 63.47707
5.8879032 39.811062 63.944271
5.5641422 36.678226 63.338638
1.817338 46.021622 56.60247
6.3304214 37.741322 64.89621
5.9122868 39.262241 64.145401
5.2137051 37.844532 62.995499
5.9369831 37.397774 64.105927
0.9759388 45.302254 56.612461
6.3658848 40.261322 64.652298
0.080579758 45.329388 55.794693
5.5999203 38.280533 63.645111
6.0550289 36.824436 64.140762
2.6511698 47.527946 55.472313
6.7756443 37.903019 65.776085
5.3714695 37.341404 63.183098
1.6931362 38.20787 59.043968
4.3301268 47.030693 57.474796
3.3251801 46.199993 57.702053
3.4681988 46.761749 57.093777
4.177248 46.701866 57.813103
0.6033802 49.551239 51.427544
9.633213 44.946697 64.276283
4.0331774 50.573135 50.931751
5.4171772 35.438301 62.707745
0.5140028 45.462673 56.070175
8.7536297 43.89933 65.044189
9.9986725 47.852589 48.162071
8.253437 46.2332 60.650204
2.0652623 51.220287 48.116592
9.086709 46.449623 60.543747
3.9316683 45.504017 59.005981
5.0337219 46.935001 58.174023
6.0363874 47.158344 58.454971
5.1919775 47.259598 57.799118
6.2248297 47.453289 58.080162
4.0348148 46.134258 58.437496
7.5304432 41.597496 65.80545
8.2629852 46.603271 60.064198
9.1886492 46.815403 59.889027
3.1442814 44.933743 58.78754
7.3934708 46.734501 59.591034
3.2137136 45.596138 58.269485
4.879777 46.602688 58.529091
8.3211937 46.994072 59.414124
9.2596989 47.165642 59.208214
5.8556175 46.843445 58.820129
4.7725067 46.039608 59.141048
5.6412544 46.477398 59.177834
6.2975006 37.986378 64.865868
11.991133 45.836445 62.237667
0.98951721 38.653847 58.456478
0.15199852 44.509773 56.515831
1.8218708 46.547142 56.019035
0.95846272 45.846428 56.084396
2.6443224 47.23629 55.81789
2.1672888 47.580368 55.089787
9.3033457 46.182125 61.10741
6.383769 44.120579 61.782196
6.8781452 43.984383 62.385284
6.6533604 44.500908 61.7075
6.1128454 43.691666 61.845798
6.4121809 43.211731 62.525391
5.8439713 43.231491 61.89476
6.6173229 43.595516 62.445435
0.30191898 39.33358 57.848846
7.5496264 44.204987 62.906464
7.575695 43.661228 63.638252
6.9680052 43.389206 63.065586
6.6990194 42.962837 63.10495
6.3711147 37.492432 64.914871
0.2399168 38.982094 57.829689
7.0781212 42.903938 63.753571
11.346495 47.085232 58.981125
0.894701 38.283363 58.416946
9.4897413 46.553333 60.432671
0.84512234 43.529793 57.683609
4.9715929 50.656654 50.503616
11.753332 46.936951 50.970322
9.5977125 46.899292 59.771271
8.7223701 46.71917 59.980965
4.7682142 49.613853 53.691906
8.6345282 46.334843 60.616241
6.1636009 42.895287 62.470604
12.311352 46.362904 50.215355
-0.45387268 39.791977 57.154251
6.4970322 42.245716 63.450298
5.6552839 42.476448 62.159752
7.8100319 46.460529 60.145882
6.0976 42.330379 62.79438
6.0462151 41.762535 63.128059
5.6115398 41.882591 62.452614
5.5845947 41.293724 62.750694
7.1492157 44.357555 62.298717
7.2266922 43.768433 63.00856
7.3533287 43.326408 63.712036
-0.4054184 39.419628 57.227177
7.9067593 44.093952 63.527496
6.3195505 47.596584 57.892647
5.3759832 47.425922 57.664009
6.1298141 47.308041 58.268898
4.4081631 47.193192 57.302212
4.252183 46.867493 57.642685
3.3930302 46.485477 57.401581
3.9773722 45.828056 58.730042
3.5437479 46.927952 56.935753
4.1026964 46.424149 58.129288
11.935891 46.693138 59.623005
3.2662458 45.903515 57.99247
5.9457312 47.002079 58.640152
5.1809616 47.099674 58.034588
5.0171089 46.779453 58.38607
4.8381643 46.341248 58.833424
5.5710602 46.21492 59.438606
4.7449627 45.724415 59.410637
5.7656603 46.674847 58.992348
3.9274073 45.178951 59.261574
3.1455708 44.595604 59.027203
3.1736994 45.272259 58.535126
6.674202 38.311806 65.606979
11.933462 46.988838 58.785622
11.917255 46.196075 61.070004
1.6306047 37.948448 59.017658
5.5907192 35.940006 63.145016
1.6356449 44.044033 58.090706
2.2767982 43.773212 58.783958
6.0052547 36.114811 63.803799
10.8665 47.749046 51.784374
2.3765116 44.168842 58.642715
3.3783073 47.235615 56.380539
3.9458485 47.597153 56.341515
0.12330627 45.088253 56.042877
-4.1351528 39.644863 52.695457
-3.36724 41.327431 53.588341
1.4686136 46.793457 55.495064
0.067575455 43.126274 57.217979
7.8618336 43.872101 63.782417
1.4643021 42.801006 58.487671
0.1357832 38.514732 57.777321
12.156262 45.614052 63.17239
0.89254951 43.954559 57.499802
0.17272854 43.816837 56.984035
11.254195 46.162113 61.354088
0.83179474 43.114349 57.850712
4.5375195 47.939484 56.285084
10.968935 45.872643 62.161678
15.316073 44.510086 69.223434
5.547348 36.312366 63.219299
5.1485481 48.263088 56.203037
2.3657141 47.507805 55.309464
11.64509 47.047539 58.899227
5.1590891 45.705833 59.689072
10.780432 45.6166 62.965714
0.84123611 37.993763 58.391758
1.5215254 43.330231 58.355133
2.1611843 43.065842 58.988556
2.2173538 43.419613 58.899178
6.8347445 44.73613 61.648575
6.9639206 36.8312 65.845245
4.3797493 45.170219 59.604237
7.4162312 39.959091 66.704926
1.2660809 43.096157 58.229309
10.176813 44.580261 66.568207
11.404855 45.87294 62.189228
3.8993826 48.059444 55.648861
0.71619415 42.67033 57.900436
12.783159 46.256241 60.072273
1.6861134 44.802277 57.611923
12.34274 46.591167 59.542095
2.4953842 45.569408 57.644554
10.9875 46.515366 60.549187
2.6099443 46.171494 57.099297
10.90769 46.167419 61.369343
9.6673002 47.228893 59.083961
3.3378963 47.736656 55.681889
2.4176865 44.921795 58.144917
6.5483894 36.711956 65.011261
8.3686876 49.143051 48.801128
1.766593 45.45311 57.135689
1.9349375 47.619881 54.873344
3.1337624 36.505634 60.41671
6.4557562 50.244404 51.108356
1.5553722 43.640923 58.243324
13.304071 45.88295 60.612324
12.276882 46.888172 58.65448
7.4929285 49.700733 48.887299
11.351742 45.656013 63.018127
-3.1221552 38.584171 53.96936
0.098697662 43.416683 57.124641
6.0683651 33.059147 61.110603
0.040486336 42.611259 57.352322
15.748737 43.633507 58.769936
4.4919577 48.359631 55.622719
6.9477158 46.568672 59.670609
6.5522022 39.992973 65.107208
12.757282 46.528267 59.153397
3.6591177 47.418137 56.364868
3.0831795 47.044518 56.388031
0.96188831 44.692856 57.076233
1.3456516 37.522316 58.805058
12.202869 45.897461 61.911049
11.394215 46.789623 59.706947
13.092917 46.167213 59.82793
11.076158 45.641609 63.000858
11.695976 45.864517 62.197445
5.7367325 33.792309 61.764297
4.2380314 47.767876 56.32151
4.6387634 35.462891 61.85458
6.5332041 46.630341 59.416122
7.4555893 46.963898 59.25721
8.3913279 47.200203 59.067673
9.3400593 47.341141 58.850811
7.3781853 46.517593 59.90654
9.2211132 46.991474 59.552067
4.8440084 48.10503 56.24329
2.2357292 46.896099 55.929081
8.7899075 47.089447 59.3153
8.2443008 46.402054 60.377846
4.5075665 50.65601 50.653473
8.2880964 46.798409 59.743633
9.0041084 46.254768 60.878571
6.471981 36.347816 64.689941
9.142849 46.632786 60.212036
11.961752 46.42976 60.384769
7.2207937 44.059723 62.684822
12.480637 45.650532 62.7966
3.532548 45.221684 58.905685
2.8210583 45.317764 58.166111
2.7618914 44.629822 58.667213
2.1330423 42.761616 59.058342
2.0246363 44.515942 58.110477
10.201424 44.753696 65.814705
2.182559 45.816212 57.130905
2.0863285 45.190372 57.639854
2.9179087 45.943489 57.624893
3.7435627 46.45443 57.764896
9.1870003 44.373096 64.919174
1.2903605 44.39703 57.564774
1.6892166 42.276207 58.778961
3.0495367 46.521278 57.043888
7.8548117 46.875782 59.505833
7.261404 41.482208 65.466232
1.3600416 45.080605 57.11734
4.3449612 45.775997 59.083954
4.4674969 46.389771 58.488945
3.6181183 45.867832 58.362679
1.2446079 41.73938 58.479664
5.2183304 46.284508 59.166897
0.97874546 42.186832 58.200821
6.0017109 36.533241 63.963184
1.0876379 37.114136 58.608181
7.2967262 48.894966 56.345917
-0.54244137 39.085777 57.137676
14.949411 44.631432 58.719315
2.9867516 47.543011 55.679825
0.81003666 41.172653 58.17131
1.0997324 46.486786 55.539627
6.54632 36.96373 65.106598
11.300529 47.52887 57.404839
11.743634 45.65432 63.068092
0.53159809 41.618122 57.903778
0.56531525 44.291481 57.016228
7.6036749 47.223946 58.891022
7.0893354 47.516033 58.295017
6.8881006 47.231956 58.680847
6.6898289 46.935722 59.059597
12.956251 45.801121 61.607651
7.8195324 47.484436 58.495567
12.471834 45.915005 61.670303
9.3896656 44.251579 65.51004
0.26459789 42.086533 57.631115
8.5563936 47.424709 58.683613
2.5688715 36.073002 59.904243
3.6221075 47.901096 55.669029
12.219197 47.13271 56.189606
-0.71202946 42.183414 56.75935
6.8246384 40.36932 65.43576
4.1987133 48.235638 55.606487
7.8141842 41.798958 66.117233
7.065834 39.269917 66.272751
3.7692642 39.880173 60.869331
3.3050137 39.293549 60.421616
3.4361601 40.02282 60.506386
2.7912226 38.715836 59.963913
3.6301498 38.997818 60.781799
3.1645384 35.690117 60.42215
3.0486412 40.163788 60.132561
2.5155821 39.571663 59.68832
2.3975782 38.849861 59.613441
2.6301155 40.284363 59.753235
2.9282722 39.442024 60.062325
12.465964 46.311573 60.314236
3.4998503 38.12899 60.686153
3.1727333 38.434479 60.333672
6.8063869 40.790184 65.190918
8.3950901 42.823677 65.969315
12.602485 46.897179 57.422405
12.181057 47.11853 57.607758
12.532315 46.82468 58.377514
10.181067 44.661205 66.165085
5.1621952 35.673698 62.502609
2.6582413 37.885326 59.890438
2.2630749 38.156467 59.523651
8.021349 43.793812 64.129272
5.5868225 39.8302 63.400597
5.2700329 39.905342 62.878212
5.4384661 40.450222 62.945755
5.7433662 40.377277 63.461693
6.0443783 40.318794 64.016159
12.494747 46.088051 60.991528
11.286988 47.341335 58.185806
7.5066872 43.005398 64.333099
5.1297598 39.362907 62.785973
3.0105362 37.601563 60.235947
3.1032877 36.118145 60.398293
8.1386337 43.493401 64.689308
3.3533764 37.293694 60.583443
2.5746126 36.484928 59.915154
13.01017 45.930183 60.939083
-0.75191975 41.69698 56.769688
7.3111763 40.713711 66.07917
1.4860325 37.739357 58.910912
5.2959709 42.793736 61.58477
4.8839455 42.058128 61.528774
5.2499828 42.203911 61.851463
6.9809322 39.67746 65.993019
12.706306 45.701218 62.382095
2.2470188 46.36277 56.565533
5.2371569 41.579334 62.143425
4.8596792 41.426537 61.760429
4.5301914 41.222023 61.459396
5.2654285 41.148148 62.380962
4.84517 40.916412 61.937061
5.1023941 34.494175 61.761189
4.1872635 40.55196 61.246803
12.107365 47.230301 56.803135
4.646718 36.361053 62.025776
4.510313 40.768623 61.572701
3.7003899 36.492805 60.964161
0.9273262 34.681545 57.888973
4.1878262 36.469547 61.487831
10.162163 46.225296 61.202515
10.117366 45.887363 61.945862
10.58833 46.381344 60.877144
9.8081074 46.072002 61.459133
10.502844 46.031353 61.674889
1.3939905 45.66861 56.617104
5.0777283 36.465073 62.610367
11.782723 47.240383 57.955177
1.9531431 36.205643 59.370949
10.367093 45.720844 62.448715
6.2952404 41.431854 63.780975
6.184866 40.87289 63.967098
6.5369577 42.572136 63.223732
6.7409744 36.778633 65.405746
6.4633808 41.926365 63.674976
6.6190548 41.41983 64.39151
6.7637615 41.969963 64.1707
6.0638227 41.426559 63.393761
5.5997009 40.961861 62.953442
5.8592844 40.930389 63.374535
6.9418564 42.524132 63.931206
6.4901123 40.842247 64.569763
4.6917591 38.081741 62.234802
5.6158905 41.601822 62.623657
6.135046 42.61964 62.635517
6.062171 42.043472 62.952621
5.6573267 42.19738 62.328758
4.4064999 37.601616 61.821671
5.7089367 42.825832 62.012356
3.9281006 39.718422 61.071281
1.7676458 40.361851 59.02198
2.086463 39.64349 59.316856
4.1172533 39.315769 61.360943
3.7829123 38.837059 60.974991
1.3289413 40.34832 58.656815
2.194109 40.352173 59.377926
3.4859333 39.155689 60.612053
4.8088627 37.61409 62.377373
1.6601439 39.651749 58.957584
11.627565 47.446701 57.190708
4.68748 35.691467 61.960411
11.816467 47.384529 56.966999
1.9806614 38.945404 59.250137
8.3232002 43.381317 65.120316
4.3210669 38.919952 61.680763
7.288332 41.073246 65.805542
3.9970961 38.445103 61.273453
4.5333977 38.530022 62.007835
4.0756311 37.149189 61.381569
4.2310343 38.05592 61.597523
7.8010349 42.125175 65.76561
4.9371481 37.16164 62.518936
2.9966612 38.580513 60.158623
3.3384361 38.28299 60.50499
4.5168276 37.139061 61.939888
1.2282686 39.636635 58.599571
12.522043 46.594753 59.356506
0.90123272 40.298126 58.301064
1.5569468 38.953491 58.894909
12.815947 46.690666 58.159065
4.6494446 36.029583 61.975025
3.7131395 37.94862 60.937607
14.347041 45.280979 59.312965
3.9000139 37.582169 61.172375
4.1704798 36.167091 61.44725
2.4760218 38.029896 59.716148
2.8386545 37.743061 60.063759
1.873991 38.265114 59.187275
4.6411152 36.731537 62.068413
6.3831806 41.701408 63.726578
1.2109547 37.311913 58.702553
6.8483028 42.239811 64.06459
6.2445164 41.150307 63.895538
6.6831264 41.698631 64.275543
5.9458447 41.197376 63.357735
5.5285473 40.717232 62.968376
5.8214016 40.649029 63.464874
5.6635456 40.104958 63.438835
6.1252155 40.599014 64.024414
5.9645405 40.044128 63.999149
5.5165844 39.558453 63.357544
5.3508606 40.177059 62.917786
5.1953583 39.632324 62.835392
5.0658817 39.100456 62.733246
6.5475216 41.133282 64.48056
7.8078642 48.419823 57.073616
8.4696436 48.156727 57.406982
7.6206837 40.954582 66.493568
4.200613 36.71838 61.517685
3.7100544 36.759338 60.971931
5.8789063 35.744213 63.447884
5.0636463 36.803879 62.650673
3.1829004 37.449291 60.408062
3.1478138 35.923481 60.435165
6.7502155 36.516052 65.296074
15.581751 43.619003 56.754929
6.4347553 40.550537 64.64431
0.87645435 39.510956 58.319954
7.2905102 42.564713 64.471985
3.546566 37.114445 60.789543
4.2442102 34.713581 61.050888
7.0910645 42.031105 64.690529
1.3928213 46.196144 56.069702
6.296133 48.179337 56.997589
13.08933 46.402512 58.824417
1.2081919 38.842091 58.620667
7.6220341 42.626732 64.940514
6.9242535 41.468315 64.912407
5.9533386 48.313728 56.619781
6.63943 48.033302 57.360115
4.4945736 44.544464 60.056808
6.9488544 48.474117 56.823505
7.302412 48.315208 57.145836
7.44207 42.153008 65.155258
0.72474575 37.742825 58.298813
6.9248543 40.046646 65.753075
8.4466019 44.273499 64.02272
5.1037254 36.095078 62.556183
6.9906425 47.872635 57.70771
10.955057 47.955391 55.804386
7.4986229 48.000595 57.623451
4.8166065 45.163265 59.893166
7.6111383 48.758808 56.601997
0.53890705 40.16898 58.007111
12.714089 45.870598 61.631527
9.0209484 44.709991 63.969788
8.6103916 44.115368 64.515129
1.9035072 36.45541 59.330639
9.623455 45.059376 63.867805
-0.6859045 42.516071 56.737629
11.0314 46.835011 59.743744
6.5979815 48.626808 56.464661
11.038045 47.128105 59.029831
9.0148811 44.53772 64.366486
3.6041889 44.592632 59.393799
6.7151508 36.270054 65.092072
6.6595001 32.83783 61.129425
4.2186708 39.116718 61.520073
4.6445208 38.335754 62.170509
3.8807993 38.638851 61.111885
4.4248447 38.724583 61.844444
4.0151749 39.516747 61.204163
4.1112223 38.248856 61.435566
7.6191559 49.367962 55.579998
4.3483667 37.859344 61.753719
8.0076952 48.097561 57.520771
7.158205 32.641785 61.026897
14.310463 45.142914 61.352463
0.035837173 47.691139 53.303215
1.6147318 50.718506 49.70327
9.6269712 48.661674 53.301418
5.6124678 50.501225 50.782684
4.7715445 49.324898 54.262535
11.875 47.2365 54.274895
0.40948868 48.499378 52.584946
-0.60715485 49.33041 51.139114
6.0668674 50.376766 48.09465
3.3021951 51.111958 48.244358
5.509182 49.952881 53.286629
9.158865 48.986652 53.871872
13.271075 45.942993 53.526131
2.4106979 49.676895 52.115181
5.0921736 50.744839 47.325352
12.512963 46.681686 53.89827
10.558952 47.757771 49.9496
7.2317419 49.935745 51.655365
11.352126 47.654499 54.73156
-3.0228252 43.751965 53.561016
4.224215 51.02087 47.895718
8.1700258 49.458851 51.684189
0.67686462 51.291279 48.174629
-1.5843439 47.295082 52.377029
9.1250448 48.903572 51.798035
-1.2458534 48.937759 51.174587
-2.4970856 47.459633 51.496876
2.5977669 49.295124 52.912048
3.7165065 51.123001 47.936684
7.2641344 49.886368 53.667103
8.8367977 49.062691 50.639599
1.242259 48.115021 53.694206
6.678874 50.08218 48.295132
-1.4308996 46.554626 53.202568
7.0826139 50.008709 49.937717
-0.67726707 47.451729 52.982582
12.7038 46.343269 52.290352
5.9516969 50.339909 46.419319
6.9037876 49.614223 54.815899
11.054873 47.851742 54.647041
7.5162277 49.76503 52.866386
8.6634903 49.300419 53.861618
-2.3378735 45.530006 53.214466
1.9343071 48.410633 53.795494
5.7183619 50.21743 52.503254
-1.7402382 46.176811 53.283203
4.1168318 50.33041 51.806183
1.5940218 48.282391 53.72142
-1.5616493 48.324341 51.529392
7.0303431 49.752422 54.448406
-3.2527409 45.507687 52.186249
-2.915638 44.742279 53.129314
7.8270102 49.289433 47.253963
0.20223427 47.055702 54.171646
3.2232704 50.578426 50.566921
5.2684383 49.36515 54.511635
10.800289 48.002266 54.473598
-1.7311239 45.446163 53.975639
-1.9427414 44.355892 54.48769
4.2297745 50.06076 52.542339
8.1985626 49.57914 53.701443
-1.0986319 44.408024 55.344028
6.3339701 49.901146 53.633266
-1.3798113 43.513412 55.628853
4.2387428 51.083 46.224312
5.6680045 50.573143 49.087574
11.449848 47.451706 53.309769
-1.4580183 44.556816 54.86747
3.4105415 49.961735 52.225182
-1.6982641 43.276203 55.365543
3.0549736 49.302967 53.247128
2.1103134 51.56031 46.846813
12.490168 46.845284 55.407303
3.5365562 49.330879 53.503983
-0.39334679 46.415401 54.341457
6.4027281 49.482544 54.891384
-0.81583691 45.016041 55.184902
-2.1196079 42.970039 54.972515
-0.70374203 45.681721 54.756248
-2.0147686 49.22963 50.480576
-0.10539436 46.721775 54.274757
10.333891 48.273327 54.169239
-0.72889614 46.056854 54.403122
-1.7473755 45.049812 54.241985
10.296555 48.366062 55.091629
2.0839109 48.853786 53.255428
12.675266 46.737801 55.766106
2.3469543 48.446415 54.064869
-1.1518211 44.125858 55.505028
4.9256115 49.121273 54.767616
-0.68484783 45.381561 55.032524
3.0392199 48.944786 53.816101
9.3900585 48.923286 54.781281
3.9608631 48.969772 54.384991
-1.1870975 49.964119 50.169598
1.5399647 49.543907 51.862381
0.51873589 50.253246 50.490898
8.4112234 49.489113 54.626583
-1.326746 43.856476 55.505199
1.2684431 47.270519 54.799866
0.11660099 45.926601 55.282791
-1.1594019 45.667133 54.356396
0.75041485 46.763786 54.967369
8.6397095 49.282017 55.266869
3.5753102 50.881088 49.371037
0.22594166 46.220787 55.087749
2.4693522 50.31292 51.048634
8.392909 49.441486 55.02467
1.5674839 49.194504 52.375237
-0.89702702 46.402985 53.895874
1.0184908 47.071941 54.834419
-2.0673466 43.537071 54.813599
2.664114 48.138885 54.714554
5.9552164 49.399727 54.838936
-1.3595257 42.256607 56.085907
9.9531374 48.557755 55.242096
4.4858437 50.885376 48.945316
3.3065271 48.647583 54.442844
4.3663073 48.787128 54.94149
5.715394 49.41814 54.67194
0.60337448 46.9981 54.580383
3.0642366 48.727428 54.166828
1.2534409 47.534039 54.462257
-1.310689 42.611694 56.076385
1.6225853 47.488846 54.805073
2.6617298 48.682312 53.956768
0.063075066 46.390186 54.776894
-0.18188953 44.801765 55.977539
0.081178665 45.648476 55.51944
-0.398242 44.558598 55.956223
-0.37314224 45.171127 55.499554
4.6535187 48.953018 54.881889
4.0071373 48.571869 55.006001
3.3643064 48.236221 55.050453
-1.4176731 41.916821 56.054688
4.1143007 48.857628 54.674706
8.6078072 49.115372 49.741493
9.1593637 49.065861 55.001503
-0.24081612 45.776962 55.105686
3.6813211 48.393803 55.043331
3.6448812 48.830681 54.38987
0.53330231 46.075771 55.498051
-1.3841877 42.913437 55.899956
8.027153 49.418633 55.452744
2.8826199 48.080082 54.939053
1.9396591 47.224068 55.354298
0.48191452 46.520023 55.004299
3.0962257 48.098869 55.055431
8.2753382 48.491837 56.98103
-0.62595272 44.12627 56.080517
0.90622044 46.605904 55.259956
-0.19328976 45.077816 55.742748
10.71538 47.762199 50.863445
1.1192007 49.16655 52.162735
1.9483232 49.864883 51.579926
9.5472078 48.50359 49.939613
-0.067865372 48.863907 51.889118
0.1019001 49.912903 50.804195
11.762941 47.054356 51.846535
1.0808563 50.548244 50.072319
2.5748277 50.970726 48.947319
8.1414795 49.400265 49.644821
10.329457 47.772312 49.043297
9.0748816 48.815506 49.836117
9.9368467 48.14756 49.491898
6.525794 50.154964 51.994579
11.473383 47.043041 50.01849
0.83937263 50.452381 50.24633
8.4970398 48.924351 47.927166
6.3690872 50.303299 50.252407
5.6888542 50.370598 51.652924
9.3953533 48.21088 47.611149
12.237644 46.64732 51.686623
1.1704483 51.000465 48.902504
7.1884699 49.99065 50.789371
10.324216 48.096058 51.292637
10.810887 47.852314 52.709213
7.6974258 49.66806 49.673073
2.448791 50.62669 50.123726
5.6324492 50.560616 49.94418
7.7103014 49.464417 48.050922
4.9471941 50.521732 51.340366
11.410606 47.39201 52.280098
4.9862051 50.750507 49.645359
4.5254788 50.789131 49.813644
4.1827869 49.684029 53.259422
5.4295101 49.631111 54.000965
4.4876289 50.456573 51.557358
4.711586 50.503674 51.420197
9.366683 48.780243 52.545811
8.134861 49.189163 48.057373
3.5738068 50.673981 50.312164
11.111729 47.397945 50.442871
4.0503511 50.759983 50.027847
10.5127 48.062061 52.925888
3.7916632 50.726952 50.141434
9.9890423 48.339439 51.540337
4.7523355 50.777657 49.728256
2.4864793 50.497757 50.548965
4.2778554 50.789627 49.861374
4.1314907 49.311275 53.897362
10.668988 47.413322 48.557747
4.8584156 50.025024 52.930161
12.633194 46.502579 53.144218
7.2596407 49.742226 48.091698
11.099673 47.639732 52.496681
0.85707664 48.297832 53.161438
0.49234581 47.507851 53.889282
6.8995075 50.042812 49.125107
2.4372554 50.751831 49.706753
-0.32960987 47.902294 52.773445
5.9637356 50.448891 50.085968
6.11061 50.271408 51.808056
5.3032293 50.651642 49.799435
9.7511425 48.629814 54.027008
9.0089922 49.016098 53.087013
9.7229156 48.532127 52.019516
10.256983 48.268234 53.454571
0.51910019 49.005039 52.041405
5.2806692 50.448799 51.492409
11.360567 47.576431 53.969646
1.9382973 50.990368 48.886761
4.9212594 50.811195 47.968105
-0.64242077 48.737617 51.706547
5.1036272 50.74424 46.434208
3.0839734 50.960857 49.002323
4.1212158 49.14901 54.177757
4.1576729 49.496525 53.581917
5.4067707 49.494556 54.306446
11.878967 47.162537 53.569866
0.65808296 47.904713 53.534798
0.91338921 48.619366 52.765316
11.878056 47.312374 55.053528
5.4758821 50.630253 48.406357
-0.48318863 49.796764 50.722557
-0.1725235 48.323437 52.405441
1.024334 50.716084 49.661449
6.0988431 50.314293 47.299301
10.166372 48.118637 50.36911
4.5172863 49.857037 53.09856
12.868608 46.441448 54.64357
-2.2932596 43.907219 54.348618
12.243078 46.860405 53.401276
5.2302742 50.139931 52.733929
5.8169823 49.777138 53.822968
0.019174576 49.394341 51.366287
12.220118 47.027531 54.894737
0.45689774 51.030094 48.87471
8.7908268 49.157276 53.367107
9.9788723 48.468884 53.741463
9.5163956 48.799889 54.328171
11.240383 47.411385 51.37838
2.0014858 49.295021 52.482292
3.0037298 49.65451 52.550785
2.8400784 49.99926 51.792889
6.1750507 50.359123 48.715855
1.0428829 49.895168 51.162338
12.53808 46.750626 54.768486
6.5803738 50.093624 47.710365
-1.1565247 49.491169 50.713112
9.66926 48.190666 48.616989
7.8499041 49.620937 52.268402
7.5922174 49.792358 51.022316
5.3932171 50.618073 45.859379
6.7787857 50.148975 50.514973
10.990299 47.843941 54.1441
-1.5860462 47.775753 51.97237
6.9063511 50.025536 52.248623
-0.25025845 47.251453 53.572411
-1.0735788 47.001637 53.08968
4.6384873 50.89185 48.408218
-1.0445671 48.505684 51.687885
4.1121736 50.995319 48.465164
11.63492 47.365364 53.763672
-1.1747475 47.737549 52.302185
10.948137 47.387932 49.545845
-2.5992851 43.796219 54.062088
7.3511286 49.853119 52.215675
8.2966375 49.383972 52.281448
8.0325518 49.544876 51.092449
-0.83296967 49.677876 50.691608
3.7972937 51.033432 48.501488
8.7789783 49.116142 52.345474
5.5506129 50.558369 46.91069
5.5483813 50.597225 47.71978
8.9820786 48.982864 51.22599
-1.8323698 48.744606 51.002655
8.5053082 49.270683 51.157814
9.9515247 48.420383 52.738354
11.59483 47.537624 55.276649
3.6435523 51.003807 48.756557
9.4520512 48.682449 51.257477
3.373055 51.010704 48.78973
-2.0006351 46.821419 52.421776
1.342557 51.258682 48.17408
-2.489769 46.963856 51.86132
-2.5055904 47.921013 51.167934
4.3562856 50.959908 48.417023
7.2959986 49.862858 49.399529
-2.0165644 47.854275 51.597431
13.018066 46.125523 52.821701
2.1074524 49.072083 52.912502
3.0878153 49.5154 52.878849
6.5367603 50.200104 48.846535
2.9296646 49.816525 52.190273
6.9189558 49.964882 53.247261
6.6776161 49.821846 54.037094
-0.98309898 46.700802 53.487362
8.6474075 49.186138 51.749138
7.8514395 49.665749 53.287125
8.3563395 49.360931 50.565304
7.6115341 49.831661 54.081753
9.3153038 48.749249 50.710594
1.4976788 48.51313 53.322342
6.5454273 50.038422 46.831696
0.21501064 48.119175 52.924492
1.1166372 47.737907 54.096291
5.8531098 50.498669 48.582127
-1.1318836 47.3494 52.70277
-1.5079861 49.304569 50.702194
-1.9090519 46.454781 52.829582
6.039135 50.055641 53.065361
8.829833 48.848495 48.940178
12.272141 46.740974 52.528519
6.8645277 50.09383 51.378841
-2.7506027 45.497421 52.757755
7.4824924 49.82888 50.211792
6.6958799 50.169991 49.654358
0.10435295 47.3582 53.75124
-0.63315392 47.119003 53.372807
-0.7248373 47.789776 52.592957
1.7235985 48.074539 54.107166
-1.3254061 46.298229 53.597931
6.9015298 49.920818 47.834625
-1.5372515 46.888103 52.776745
-1.7524862 45.815014 53.634109
7.4483128 49.675442 54.794792
6.5361958 49.676743 54.480206
7.6832771 49.725727 51.628525
7.0813713 49.897606 48.608322
1.9822779 49.580772 52.033707
-2.0694141 48.303516 51.207943
7.9717894 49.562122 52.880157
2.7120533 51.162552 48.170628
-2.4010983 45.874599 52.842567
7.9417334 49.428562 48.853302
7.0427809 49.944752 52.787575
7.7385397 49.771126 53.687637
