# .PCD v0.7 - Point Cloud Data file format
VERSION 0.7
FIELDS x y z
SIZE 4 4 4
TYPE F F F
COUNT 1 1 1
WIDTH 1707
HEIGHT 1
VIEWPOINT 0 0 0 1 0 0 0
POINTS 1707
DATA ascii
-6.7271399 50.452702 26.5814
6.6082301 54.985901 23.6971
-0.64884299 57.355099 31.8076
-0.23977099 58.053001 32.779999
6.0293002 56.139801 20.393801
-3.65573 55.218498 31.7633
2.07566 57.862202 31.750099
-5.13661 54.341 15.9992
7.0329499 54.4748 24.260201
5.5577998 55.342899 30.7199
7.1363201 53.729599 27.617599
1.22961 58.325001 32.5471
4.7742801 56.0942 30.628099
-5.3400698 52.774899 32.794498
-4.2071099 54.145802 30.1187
-4.0152402 54.294201 29.7659
-1.96174 56.003799 20.7474
-5.2472 52.428101 29.736
-0.78989297 56.322102 19.6705
-5.2063398 52.453201 29.243099
-4.37187 54.012699 30.505699
-4.7227201 53.107899 28.632401
-4.5075402 53.912998 30.912001
-2.8464401 55.701698 19.177401
1.48906 56.654999 26.7425
2.34253 56.629299 26.447201
1.54281 56.721699 24.7771
-1.97095 56.006802 17.876101
5.0097899 55.795101 27.9296
0.24803001 56.439899 18.3477
-4.4520998 53.415298 28.305
-3.6721499 54.576199 29.4743
-4.9788699 52.783901 28.9639
-5.4875798 51.986 29.868401
-0.30331501 56.371399 19.0576
0.57462603 56.619099 20.8097
1.94462 56.6558 26.587099
2.7123201 56.584702 26.289101
1.94915 56.7281 24.612801
2.0095899 56.790798 22.199499
-0.66295201 56.470699 21.956699
3.7177899 56.3909 25.2006
1.1609499 56.810398 22.753099
-6.3466201 51.874802 23.0853
-5.0230699 53.162102 31.3123
-2.4407401 55.870998 18.640301
-0.055069 56.3447 26.763399
-1.03073 55.933498 26.878201
-0.857714 56.222401 28.312599
-0.51539201 56.1674 26.8029
-1.50269 55.685699 26.8438
-1.35095 55.9884 28.359699
-2.3670001 55.223701 27.5928
-4.7847099 53.511299 31.0483
5.3172302 55.620499 27.873301
-0.025792001 56.540401 28.250799
6.0522299 55.247398 26.559799
2.4359701 56.7556 21.972799
0.97886097 56.637402 20.5396
-0.0513 56.5811 21.3843
1.58611 56.812801 22.4772
0.53933603 56.728699 23.3374
-5.8340201 51.2953 29.895901
4.5701399 56.1423 29.763901
-1.24043 56.262699 22.5373
-2.79564 55.602501 21.441601
-6.3640499 52.528801 20.9862
-6.7005801 51.504101 23.1478
1.42708 56.576698 19.312201
-5.2109399 52.866699 31.6259
-7.0405698 51.791 21.117599
-3.3572199 55.221401 21.790701
0.422297 56.489201 26.689501
3.9184799 56.405602 29.184401
0.406322 56.662399 28.2281
-0.44904801 56.3932 28.283701
-3.6768 55.2701 19.8666
-6.67697 52.164398 21.128201
-0.036623001 56.402599 17.6709
4.6931901 55.962101 27.656401
-2.4846499 55.764599 21.298
-1.38009 56.1996 20.211
4.8677902 55.946701 29.712799
2.7348599 56.634399 19.688299
6.4788198 54.8661 26.8118
-4.1830201 54.904202 20.2148
-5.6796198 51.6203 29.9072
3.5982499 56.4897 28.853901
-3.9311199 55.096001 20.0427
-3.41853 55.4202 19.690701
6.4355402 54.603298 28.3724
0.80897403 56.509602 19.1318
2.4050701 56.719799 24.002001
4.2320099 56.257099 24.6134
4.32094 56.237499 29.4102
-3.0739501 55.428001 21.628401
3.24193 56.489201 25.7775
-1.50818 56.164101 21.533701
-3.6247799 54.987801 22.002001
-0.306849 56.4506 20.4125
-2.40838 55.8535 19.969
0.223341 56.698002 22.366501
2.07143 56.621799 19.498301
-4.7341199 54.132401 21.358801
3.2504301 56.6064 23.4536
-4.4590402 54.6647 20.366501
-7.4187298 50.824902 22.807699
-4.6944599 53.0382 25.433201
5.3315802 55.582401 29.4967
-4.8647799 53.1045 24.318399
5.04459 55.806301 29.5471
-1.41821 56.713799 31.191099
7.5901999 53.508999 24.9009
-5.84867 51.9487 24.544701
-3.6905501 54.2579 28.246901
-7.33988 51.396 21.2558
-5.8022599 51.727699 25.652901
-1.35754 56.154999 17.502399
-6.91431 50.4911 25.7015
-6.6655898 50.826199 25.5014
-2.2013299 55.246899 25.9998
-2.84729 55.660599 30.6441
-3.35899 55.3913 31.347401
-3.0841701 54.610001 26.796
-3.5687301 54.1889 25.8473
7.4022999 53.896 25.1562
3.65874 56.377201 27.722
6.0858998 54.977402 28.4037
6.6581802 54.8395 25.1322
-5.54564 53.931301 18.806601
-2.77423 55.305099 29.1905
-1.8402801 55.811798 28.7327
-2.80211 54.984501 28.0016
-1.89993 55.476601 27.200899
-5.20263 53.067001 23.228901
6.9292498 54.571899 25.117901
-4.7227101 52.957199 25.9417
-5.4495702 52.017101 27.729
-5.0641999 52.541199 26.9193
-6.4209099 50.7215 27.101601
-6.0704899 51.013901 28.474701
-5.6455402 52.919701 22.203199
-1.36712 56.175201 18.861601
7.177 54.272598 25.0742
-6.1023302 52.002201 23.4655
-5.7912798 51.867001 25.098101
-2.3049901 55.5769 28.952
-3.31442 54.5998 28.1866
-4.0818701 53.8493 28.278601
-7.0719399 51.147099 23.001301
-3.2297399 54.982101 29.398001
-6.17524 51.056499 27.023399
-5.8274899 51.6049 26.1954
-5.8533401 51.384102 28.3591
-6.3924398 50.376202 28.769199
6.84863 54.459099 26.775801
-1.5628999 56.272099 29.819201
7.0506802 54.196602 26.724899
-7.1160002 50.173 25.885799
7.1989498 53.894901 26.851999
3.8819699 56.566898 22.218399
6.7321501 53.491901 30.253401
3.74774 56.637798 21.1987
-2.61639 55.7677 30.3389
5.5911498 55.563801 26.253599
0.83481801 57.045601 29.447701
-4.9073 52.7299 26.4244
-5.2156301 52.350899 27.4156
-0.75058299 56.342098 23.5893
4.8305402 56.2896 22.580299
-6.2619801 50.6675 28.572599
3.6579599 56.3736 26.669201
-6.12081 52.649899 21.4513
-5.97264 51.362701 26.6877
-5.6647902 51.691799 28.046499
2.28846 57.109901 29.7708
4.6342702 56.066002 25.5361
6.3194499 55.1325 24.924999
2.8277199 56.609299 24.891001
-7.3079901 49.814999 26.010799
-7.5877099 50.081501 24.4335
7.5891299 51.596401 28.7101
0.57590699 57.296799 30.5895
5.63481 55.3134 29.8472
-7.3954 50.412899 24.096701
5.67377 55.352798 28.155399
-1.1411999 56.748798 30.850599
2.3561101 56.716499 20.8964
-5.1305399 54.3936 18.7041
5.18643 56.422798 21.452999
-3.10128 55.536301 30.998301
1.8308001 57.435001 30.5376
3.68909 56.52 23.1891
-3.44982 54.320099 27.1206
-4.3137698 53.468201 27.220699
-3.9418399 53.814899 26.281099
4.61619 56.130798 24.3477
-2.6489 54.931099 26.405399
2.81181 56.677299 23.725
2.2793601 56.7132 27.9596
3.1547999 56.528198 27.725901
4.1733499 56.188999 27.677299
-5.90025 52.7738 21.8309
3.1263599 56.662201 28.8911
-3.52334 55.432301 18.3605
-6.6247401 49.965401 28.611799
-6.7891102 50.1759 27.200399
1.8077 56.756401 28.0002
1.3449301 56.890099 28.7421
2.71786 56.631802 27.864201
-2.20784 55.749901 22.8472
-2.75209 55.369801 23.1294
-1.6635799 55.859402 23.8951
1.81321 56.5536 17.8629
-0.65474898 56.3032 17.5858
-2.6161201 55.2043 24.205999
2.45544 56.572899 18.0809
-3.78146 54.744301 22.433399
-4.42629 54.004398 22.8617
2.64926 56.813301 28.9862
-6.7304301 51.025902 24.4736
-1.17748 56.928902 31.451599
-4.8261199 53.912102 21.7939
2.3880301 56.743 21.423401
3.8108301 56.616199 21.7132
2.2883401 56.681702 20.3755
0.95373201 56.5891 20.0324
4.6645699 56.004002 26.500299
-4.5964899 54.409302 20.855801
3.6824901 56.644798 20.7071
-3.2084701 55.604698 31.619101
-3.1372399 55.756699 31.886999
1.20347 56.622299 26.2873
-0.62777799 56.633801 29.5522
-2.8873 56.077999 32.137798
1.17265 56.727501 24.314699
0.63394499 56.557701 25.4312
0.232199 56.916801 29.4849
-6.5811 50.470001 27.2383
3.0590701 56.6189 19.340401
-0.097263999 56.4305 24.552
-1.9339 55.4156 26.4639
-2.76002 54.898701 27.246401
-1.90947 55.5788 27.954399
-1.06643 56.4688 29.648001
3.3180301 56.602798 18.947001
-0.20922101 56.784801 29.5016
-2.9665401 54.7411 25.434099
0.044364002 56.399899 25.5235
-3.3062401 54.409801 26.3423
-0.90765703 56.001301 25.603701
-0.51083797 56.3522 24.1064
-0.67738301 56.202499 24.6611
-2.0927999 56.044102 30.071899
0.763246 56.716801 23.8458
0.54488403 56.624001 24.438101
-1.00003 56.3144 23.069401
0.28393099 56.5079 24.999001
3.9521401 56.623901 20.367599
-1.21971 56.1661 16.763
-0.039949998 57.134701 30.6383
4.1658001 56.602001 19.914
1.2134399 57.419498 30.606199
4.3622499 56.4464 22.4041
5.2972202 56.0844 22.758499
5.0356202 56.484402 20.8836
-5.0148802 53.103001 23.7626
-0.58386397 56.931198 30.641399
-4.75105 53.084702 24.8764
-4.1989102 53.6082 25.3001
-5.8765602 53.491001 19.256901
-4.3703599 53.659599 24.2351
-3.68926 54.212399 24.834299
1.8244801 56.5695 18.634899
-5.32374 52.562 24.4317
-5.41887 52.998798 22.716299
-5.9298 52.025501 23.986799
-2.5428801 55.814999 17.312401
-3.9085901 53.891899 27.191099
-4.3342099 53.396801 26.2817
-4.6907701 53.029301 27.2416
-7.0169301 49.822102 27.103001
-2.6154599 55.0243 25.2262
-5.4187999 52.080799 26.602699
-1.85291 55.470798 25.7514
-1.6744699 55.665001 24.8825
-3.2725501 54.4706 25.638399
-5.2406902 52.388 25.537701
6.07868 55.741299 22.632999
-4.1773601 54.5807 21.655399
1.60708 56.819599 28.3951
5.6044598 56.241402 21.7208
1.06155 56.9613 29.0748
-1.85965 55.9529 22.6863
-2.4888501 55.579102 22.9286
1.73191 56.5317 17.313601
5.1571202 56.451 20.272699
2.4082699 56.955002 29.3578
-6.3356199 51.397202 24.6469
-1.36439 56.052898 23.690701
-0.13077401 56.569401 23.460699
-5.3090701 53.636799 21.0676
-6.32724 51.133499 25.737101
-4.7715602 54.657001 18.957199
5.51372 55.6553 25.274799
2.03758 57.2859 30.1444
-1.57964 55.807098 24.3825
-2.59709 55.110699 24.7316
-3.6972499 55.3531 17.764999
-5.0095901 54.234001 20.048201
-1.75588 55.559101 25.344101
-2.6668799 55.2948 23.673599
4.3783898 56.554798 19.5
7.4671402 53.900002 23.317101
0.70733798 56.547199 26.318899
0.67072999 56.659599 27.8836
1.03571 56.511902 17.948999
5.7020502 55.916302 22.7055
1.17502 56.652199 27.146999
-3.1412799 55.0476 23.3113
0.944031 56.5896 25.857901
5.6381302 55.450298 27.2381
-5.7862101 53.3592 20.2987
1.22508 56.665199 25.3239
-3.0304 54.858898 24.4044
-3.8366799 54.3269 23.7439
-7.0775399 50.717602 24.2686
-2.2113199 55.523499 23.997999
6.47368 54.700802 27.565399
6.43541 55.4716 22.506901
-5.5472798 53.504299 20.6847
-4.0843201 54.410599 22.6182
-4.70333 53.6357 23.127501
-4.1322899 53.976898 23.9697
-3.3886399 54.524899 24.6112
6.3957601 55.0242 25.858299
0.42686599 56.429298 16.9743
-3.9492099 53.9119 25.065001
-3.5018799 54.690399 23.5205
0.68586498 57.1572 29.992701
-3.7026999 54.149601 27.6427
-4.12183 53.6399 26.7435
-5.6532202 52.530899 23.3493
-5.1149998 53.5485 22.0128
-4.48488 53.312401 27.696699
6.7038999 55.254501 21.8929
-3.6642699 54.417301 28.8493
-2.8566999 55.075001 28.6101
1.65083 56.698502 20.7092
-1.72227 56.030102 29.253201
3.03579 56.693199 21.0791
3.1510201 56.680401 22.096901
-2.7543499 55.524399 29.8325
6.0423002 56.046101 21.557199
-0.45580599 56.212002 25.569599
-1.3754801 55.750301 25.6672
4.4676099 56.5536 21.344801
-1.17624 55.952301 24.759501
-2.1654301 55.3447 25.046499
-5.2685699 54.070702 19.6747
-1.3544101 56.5116 30.3405
4.6505599 56.177101 23.535101
5.67136 55.293301 29.042299
0.36489701 57.405499 31.054899
7.0092001 54.659199 22.881901
4.18817 56.196499 26.607599
5.10463 55.806599 26.362101
5.10712 55.8629 25.434799
5.9267502 55.415298 25.1071
-1.28737 57.056599 31.855
1.54281 57.137402 29.5961
-4.31183 55.017601 18.577
-5.9918599 53.2304 19.891199
4.6262498 56.012402 26.953199
3.59779 56.389801 27.104099
3.655 56.413799 28.3818
4.66959 56.022499 26.0336
1.27279 56.746899 21.502501
3.2600801 56.933899 30.175301
1.90273 56.7939 23.397499
2.77686 56.717999 22.8911
-4.2546201 54.0121 23.4172
2.89607 56.9841 29.885099
6.5675998 55.385399 22.225201
-4.6340599 53.960201 22.3029
-3.5785699 54.789501 22.925501
-6.7585702 51.166302 23.890699
3.7216401 56.4566 24.025101
-3.44346 54.601101 24.073601
-4.3639698 53.704399 29.2061
-5.0756302 52.570999 28.120899
-6.68996 50.9282 25.0063
0.92461902 56.654499 27.5287
2.0186601 56.896702 28.8766
3.6934099 56.545101 22.7946
0.67575699 56.570301 27.125401
1.22131 56.741798 27.9377
-5.7993202 51.524399 27.3925
0.69850498 56.805401 28.626499
1.78882 57.582199 31.0207
0.20911799 57.520802 31.4674
3.6325099 56.8377 30.5021
4.6227999 56.239799 23.1455
4.6321602 56.148998 23.938999
-5.5064101 51.9403 28.7995
3.25985 56.649399 20.2026
6.8322501 55.114799 21.523899
5.00387 56.358002 22.031799
2.4965999 57.374401 30.7272
-3.98874 55.2122 18.423901
5.54146 55.747299 23.5529
4.58812 56.5574 20.372
5.4900098 55.7024 24.365499
-0.896496 56.065201 27.5704
-1.05831 55.9086 26.035
-0.14406499 56.3102 25.9771
5.4762201 55.701199 24.786501
6.29637 55.170799 24.0511
-0.79974598 56.091 25.15
5.5367799 55.627602 25.7505
-4.5659199 54.840801 18.7404
3.18907 57.204201 31.1278
6.2772498 55.177299 24.461
5.5173602 55.7076 23.960199
3.96769 56.716 30.916
6.8341899 54.818401 23.3347
-5.69978 53.848999 17.943899
6.2959399 55.297901 23.442699
-6.1131301 52.330799 22.469299
6.1870599 55.986401 21.278799
4.48666 56.065201 28.5441
3.74225 56.611698 19.448999
-2.58638 54.9991 25.7027
-3.8961101 53.8988 25.580799
-3.3338799 54.478001 25.136299
-6.7108898 51.8298 22.126101
-4.03157 53.938702 24.5247
-5.1436601 52.744099 30.508301
-7.4468799 50.536201 23.536699
-5.6900101 53.196602 21.183701
5.0651202 55.924801 24.535299
-5.4035401 53.805801 20.172701
3.4442699 56.727901 29.730301
7.3444099 54.070999 23.8461
5.1188102 55.952202 23.714701
4.1732402 56.365398 23.363199
-6.2382498 50.842201 27.7873
5.8993201 55.449501 24.207899
-6.15837 52.912701 20.3981
3.0983701 57.133499 30.6108
7.1524 54.499001 22.567499
5.4002299 56.397301 20.005501
-2.3205199 55.770599 22.2649
-0.245472 57.403599 31.559401
-1.86616 55.856998 23.3528
-2.8887601 55.389 22.5907
2.73138 56.600899 27.314699
-4.7899899 53.240898 29.8913
2.69277 56.702999 28.4326
-5.9287701 51.188099 29.169701
1.89652 56.7034 27.525101
1.98265 56.667301 25.623899
5.5392699 55.845798 23.1982
5.1252499 56.440899 19.834801
8.5898895 51.100101 15.9993
-3.75139 54.6432 30.003799
-4.18925 54.3521 30.9133
-4.5061698 53.6786 29.8929
-4.967 52.879002 29.499399
-4.5932798 53.623402 30.229799
-3.9541299 54.529701 30.4716
-4.3281202 53.873501 29.6677
-1.17365 56.193401 23.3887
-5.0577302 52.8018 29.9638
-0.85120201 56.335701 20.316601
-1.44333 56.184299 20.8629
-1.89577 56.0382 20.094801
-5.50494 51.949299 29.2955
-2.4790399 55.799198 20.628401
-2.02314 55.961399 21.4133
-0.244489 56.418098 19.7693
-1.32406 56.2019 19.5595
-4.5360799 54.713501 14.8766
8.4759598 51.5093 16.9389
-1.902 56.041 18.7393
-2.9183199 55.640301 19.8381
3.29233 56.210999 13.2101
-0.83618999 56.2836 18.9688
2.85937 56.325901 13.2712
-4.77492 52.9893 28.188101
-4.4001698 53.5541 28.756701
-5.5121398 52.007099 30.7439
-5.02525 52.671299 28.527399
-2.3338201 55.898102 19.302799
7.9877901 52.718498 19.9533
-4.02844 54.154202 29.335501
-4.6787601 53.246899 29.0807
-5.25454 52.349201 28.8573
-4.6879501 53.557701 30.5947
-5.32059 52.351101 30.226299
0.23851401 56.445202 19.1056
-1.38588 56.161999 18.137899
1.61886 56.654701 26.297701
1.9349 56.6735 27.0459
1.59255 56.689301 27.1723
2.34554 56.638302 26.924801
2.8102701 56.567902 26.7887
1.9484299 56.655602 26.1168
2.3252399 56.636101 25.9823
1.67048 56.7005 25.237801
2.0631001 56.695702 25.078899
-3.35706 55.490299 19.038401
1.6823699 56.753399 24.247
-4.35709 54.231998 31.313299
-0.31478801 56.363098 18.3188
-2.9674301 55.673 18.4662
5.1914101 55.7201 27.436399
-5.1898899 52.781101 31.0923
4.9205198 55.834999 28.377399
-0.0037179999 56.429699 19.4606
-4.61447 53.181702 27.9886
-4.9039998 52.830299 28.3601
-4.2301302 53.729198 28.577299
-4.5432501 53.4021 28.9182
-3.83356 54.3223 29.154499
-5.6430802 51.700199 29.523899
-1.07557 56.248199 19.268801
-4.96594 53.136799 30.7971
-4.1880698 54.009201 29.4988
-5.1444602 52.509399 28.688801
-5.2031102 52.558601 30.085199
-2.1236401 55.977699 19.0366
-3.4454899 54.908298 29.8167
-2.5262401 55.828701 17.902201
-4.8154302 53.081402 29.2596
-5.44627 52.103199 30.3633
0.77053797 56.491901 18.389
-4.8203502 53.610001 31.6651
-5.3673301 52.180401 29.082899
-6.34552 51.705898 23.5846
1.12332 56.6945 21.017799
-0.18206801 56.514 20.8953
0.43882999 56.554298 20.330601
0.71292102 56.6833 21.296
1.65347 56.424702 13.504
1.7954 57.2108 29.85
5.00037 55.816399 14.7213
-6.24717 50.448898 29.3615
-2.2102499 55.944801 18.3123
0.28915301 57.128201 30.2798
8.9132404 50.260899 16.839199
2.63835 56.601398 25.8971
4.77425 55.3652 11.2627
3.42908 56.437199 26.2138
-0.53213 56.519699 22.4541
1.37965 56.786701 21.9764
2.1781099 56.790501 22.681101
1.8036 56.7724 21.6747
2.6083801 56.7439 22.406
0.083973996 56.6474 21.8752
-2.1809101 56.197201 30.917101
3.0427599 56.5513 25.336399
3.9236801 56.315399 25.653999
-1.38153 56.217098 22.030001
2.60691 56.666698 24.4454
-0.78935897 56.408501 21.460199
0.96106398 56.7826 22.2679
3.5165901 56.465302 24.747499
4.3944602 56.177101 25.062
1.7456 56.813999 22.9596
0.36546701 56.7318 22.8559
1.2611901 56.805199 23.230101
-4.8436499 53.317101 30.6763
4.7501502 55.982201 29.332899
-6.44135 51.943298 22.5979
-3.1649899 55.585999 18.756599
-0.58854598 56.319599 18.657
-1.66081 56.101501 18.448601
0.489907 56.4659 18.742701
0.55494899 56.473499 17.809
3.26179 56.479801 26.851299
-0.337854 56.231602 26.392799
-0.232582 56.306599 27.1738
0.105177 56.3923 26.3643
-0.80558401 56.028099 26.427799
-1.06659 55.947201 27.2687
-1.28457 55.791901 26.4629
-0.66902399 56.128399 27.1989
-6.3872499 52.3423 21.529301
0.234378 56.550201 27.876499
-0.287514 56.5383 28.624399
-0.71809798 56.206001 27.9349
-1.17509 55.9902 27.9517
-5.0806799 52.9445 30.9146
-6.6255999 52.083801 21.5935
-1.12897 56.186901 28.6777
6.0125599 55.3139 26.086399
-6.7087798 51.669498 22.6343
3.83025 56.323601 26.321899
-3.5644701 55.270901 20.3521
5.9005699 55.336399 14.8949
8.8284101 50.572601 20.2596
4.3204799 56.181 25.7668
3.48471 56.444401 25.493401
4.1297798 56.3974 17.546801
2.9967201 56.536598 26.052299
-1.4159 55.755699 27.189699
9.1753101 49.531101 20.183201
-6.4812398 52.545898 20.4277
-1.84315 55.702999 28.3332
-1.9378099 55.426399 26.8029
2.59115 56.6348 25.1905
-1.88794 55.5284 27.5819
-2.3536899 55.299702 27.990801
-2.3991499 55.1525 27.193399
-2.84658 54.879902 27.595699
0.211394 56.4547 27.1394
-0.289709 56.379299 27.914101
-0.66872501 56.3965 28.664
-6.6769099 52.287498 20.6308
0.243414 56.698799 28.586
2.8215899 56.717201 22.27
2.0808201 56.763802 21.6213
2.39346 56.769901 22.5434
1.32977 56.696201 20.8776
0.918064 56.689602 21.154699
0.126993 56.540901 20.6122
-0.226227 56.596901 22.164801
0.64075899 56.567799 20.1989
0.398031 56.673302 21.584801
6.03404 55.185001 27.033001
-0.48726001 56.4702 21.1793
1.96147 56.804699 22.8218
1.62933 56.786301 21.899599
1.21114 56.792599 22.1789
0.68423599 56.7677 22.5609
0.97609001 56.7743 23.474199
0.080416001 56.651901 23.147699
1.52676 56.811298 23.094801
-0.80046099 56.416901 22.751499
-1.64782 56.093601 22.322599
-1.08751 56.323799 21.744801
-4.6135101 53.859299 31.3472
6.4688201 54.941002 26.2981
5.27314 55.624599 28.285601
-6.5302801 51.513699 23.6133
-5.9746499 51.0205 29.6299
-2.80511 55.6357 20.9398
-2.6927299 55.611301 21.9154
-5.7736301 51.3895 30.308001
8.3455296 51.934898 20.119499
-2.34903 55.801201 21.735901
0.86686897 56.543999 19.583599
1.51482 56.614101 19.7556
-2.70926 55.7705 18.193199
-7.92733 51.120701 15.0118
-6.6863699 52.655602 15.5793
-0.550062 56.327301 17.9799
-4.2328701 54.9534 19.691299
0.002259 56.687401 28.8267
-3.7617199 54.9669 21.5478
-6.9503598 51.731998 21.6462
4.4490099 56.2841 30.2096
-3.23049 55.476002 20.1014
-3.6895001 55.314201 19.3489
4.6571002 55.9725 28.1408
-3.86184 55.052502 20.606199
2.1759901 56.652 19.934099
4.0162601 56.297501 28.689501
4.2809 57.818501 36.950199
-5.82268 51.359901 29.5418
2.8496799 56.654999 20.110001
0.59438801 56.477402 18.1112
6.2453599 55.1427 26.2038
0.29550001 56.660198 23.598301
3.4690499 56.6147 29.278999
-6.9039402 51.452 22.678699
-3.3782101 55.277199 21.307899
-3.24402 55.224602 22.235001
-2.9737501 55.4258 22.084101
0.394454 56.479801 26.3452
-5.30093 52.7714 32.169899
-0.57148999 56.456402 23.2693
-3.4783499 55.490799 32.067799
-3.6635499 55.110802 21.1443
1.26309 58.0425 32.019699
4.3396301 56.172298 28.955099
1.96279 56.592499 19.052401
-4.21523 54.779499 20.7227
6.2890801 54.830502 27.9921
-2.18628 55.928299 20.358299
6.3129101 54.930401 27.2327
-1.14965 56.269501 20.5895
4.9123602 55.875999 27.2637
-0.548159 56.385101 20.0438
4.39116 56.097099 27.9562
4.7806602 56.0238 25.175699
1.34315 56.5466 18.866699
-1.7341 56.0821 21.1364
-5.4148898 52.346699 31.3398
8.18927 52.129601 15.994
-1.6057 56.130798 19.830299
0.470065 56.457199 17.5009
-6.6471901 50.714001 25.9893
6.6044202 54.882099 16.322001
-3.14188 55.440201 21.1413
6.3018498 54.680901 28.816601
6.7163401 54.679699 26.4235
7.8072701 52.885899 15.3878
3.9094901 56.489498 29.6269
-8.1627197 50.700298 16.893801
-4.0159702 55.112202 19.5438
-6.5703802 47.529301 29.2792
-4.58603 54.645199 19.944901
7.4970899 51.142799 29.5123
2.5912099 56.615002 19.268101
2.1485 56.729099 24.309401
-3.6012101 54.898998 30.354601
6.7190499 54.5303 27.1896
1.1883301 56.5835 19.6703
0.53233302 56.498001 19.485399
-2.6263199 55.778301 19.579
-6.91787 51.1618 23.4291
5.05128 55.776901 29.183201
5.6483898 55.480701 26.7617
6.55407 54.525398 28.0086
3.6970301 56.557899 29.463699
4.55404 56.076401 29.127501
-6.6227598 48.562 29.354099
1.83972 56.6385 19.849199
-6.5506601 50.240299 28.2666
1.9495699 56.7672 23.8629
2.8908999 56.633999 24.1518
3.7977099 56.405201 24.456301
4.6697102 56.084202 24.778099
2.3715301 56.683498 24.747299
4.1561599 56.249901 25.358601
2.5159299 56.655602 20.0208
-0.048283 56.401199 18.708
3.9591601 56.331001 24.904499
2.8141999 56.580101 25.6299
5.49825 55.57 14.7488
3.2750399 56.511902 25.0432
3.14855 56.503399 26.4855
-5.5736599 51.913601 31.1698
3.68188 56.372398 25.933399
5.6596899 55.403599 27.712999
-0.026053 56.421398 27.57
4.8380699 55.996101 30.093599
-0.96227503 56.3773 22.2449
-1.21136 56.265301 21.250999
-1.80457 56.041599 21.821899
-3.4587901 55.0411 22.370701
-2.2502401 55.8806 21.0207
1.62273 57.743698 31.4034
-1.08342 56.270302 19.942801
-1.6725399 56.110298 20.4788
-0.61140299 56.406898 20.6908
0.25919399 56.607899 21.0958
0.92567301 57.2789 30.2747
-2.7000301 55.721001 20.231199
-3.97911 54.657902 22.065599
0.001005 56.478401 20.1353
3.0652299 56.5774 24.5938
-2.34096 56.005901 30.544901
-2.1186099 55.968102 19.7085
-0.089783996 56.6371 22.6576
0.54041702 56.731098 22.074699
-0.35886499 56.537102 21.670401
-4.52245 54.224602 21.761499
0.83424199 56.788799 23.0467
-4.3836999 54.4949 21.255199
-5.5929599 51.798901 30.2922
-7.2799401 50.8237 23.266199
4.7948098 56.522301 21.220501
-6.9397802 52.027199 20.593599
7.4646602 52.132999 28.702499
0.96758997 56.511398 18.7306
-5.072 53.760201 21.465799
-1.01765 56.2379 17.905899
-5.3059502 52.592701 31.329901
6.7360401 54.781898 24.716299
4.1909599 56.389599 29.8855
-4.9475999 54.039398 20.9617
-3.1343701 55.567001 19.440399
3.26805 56.578701 23.871901
3.23279 56.6329 23.0347
2.79531 56.698101 23.307501
2.3555501 56.7491 23.5805
5.66923 55.2897 29.406099
3.7065401 56.485401 23.607599
5.3438501 55.568199 29.1451
0.820894 57.452499 30.877899
-4.7999501 54.329498 20.4527
4.1736202 56.307301 24.1838
-7.1547799 50.279301 25.4216
1.65614 56.5728 18.963301
7.6063199 53.500999 24.4342
-5.20786 54.229599 19.209
-3.2885799 55.282101 30.6362
2.3034401 56.606201 19.131201
-1.95242 56.433998 31.2488
-3.9924901 54.836399 31.764601
-4.41503 53.333599 25.600201
-4.95332 52.7854 25.188101
-4.4714298 53.346199 25.090599
-5.5211201 52.254398 24.7377
-4.98803 52.6572 25.740601
-7.0832901 50.0858 26.2743
-4.56671 53.368999 24.5427
-5.1616302 52.840801 24.096399
-5.6325102 52.286999 24.2064
-4.6952801 53.383202 23.979799
-5.0408702 52.8186 24.6549
6.0002799 55.111 27.980499
-5.5440998 51.9837 25.875401
-5.5079098 52.124298 25.324499
-2.9870999 55.471199 30.3034
-0.88681799 56.943901 31.131001
7.3676701 53.889702 25.6647
7.11095 54.298599 25.497801
6.9648199 54.393299 26.3764
1.44206 57.876499 31.688801
-6.24299 50.595501 28.986
-6.0648899 51.623402 24.8755
-6.0952001 51.751801 24.2866
-0.032265998 56.770901 29.205799
-3.8764801 54.129002 28.5651
-3.90681 53.995399 27.965
-3.4944501 54.394001 27.9349
-3.4698601 54.529499 28.522699
-3.45257 54.698898 29.132999
5.6778302 55.3116 28.5849
6.3680401 55.081799 25.3643
-0.93281502 56.451 29.327
-4.2883601 53.575699 27.991301
-6.06745 51.487301 25.4282
-6.8819699 50.418301 26.083401
-0.29255199 56.818501 29.795401
-6.0913901 51.337002 25.9849
-6.9226999 50.597401 25.299999
5.9988399 54.9953 28.8853
-5.5146499 53.877701 19.3517
-2.9325399 55.748402 31.2882
-6.7233 51.341202 23.5184
-1.84761 55.461498 26.0606
-2.55635 55.0028 26.024401
-2.2999401 55.176701 26.4286
-3.7379899 55.0173 31.372101
5.17242 55.729099 29.8881
-0.54477298 56.348499 19.371599
-2.7546799 54.8689 26.845699
-3.00425 54.6595 26.391399
-3.2727799 54.4412 26.0432
-3.05196 54.6646 27.1819
-3.3587501 54.374699 26.682699
-6.71104 49.299999 28.768801
-3.84147 53.922199 25.9053
7.3776102 53.955898 24.807301
-6.0957499 51.018101 28.1112
-3.5790601 54.165798 26.2649
-6.3996401 50.8284 26.7286
-8.5351496 48.6185 23.414499
-6.2105899 50.947102 27.408701
3.90958 56.288502 27.391899
3.4454999 56.462799 28.042299
4.4270201 56.087002 27.3328
3.47085 56.430199 27.4382
3.9075899 56.295799 28.005699
-1.6009901 56.124298 19.156401
-5.8979301 51.286201 28.7649
6.7635899 54.715199 25.4995
-7.3770599 50.279999 24.626801
3.37976 56.537498 28.6194
-2.5606201 55.333801 28.7349
-3.01864 55.0481 28.995399
-1.55627 55.8116 28.077499
-5.3582401 52.556702 31.7269
-2.1206701 55.596699 28.588699
-2.5179999 55.562698 29.3857
-2.02757 55.8111 29.120899
-2.6147499 55.187199 28.311701
-3.08689 54.736 27.8659
-3.0428901 54.864498 28.3426
-1.5034 56.041302 28.859301
-2.99807 55.2644 29.635799
-5.1630902 52.431801 27.739599
-2.6087301 55.033199 27.416901
-1.64569 55.647499 27.388399
-2.12713 55.410099 27.775299
-2.1475301 55.307999 27.023001
-5.5164099 51.9263 27.419901
-1.65317 55.592499 26.6078
-4.4500899 53.2724 25.8955
-5.0725198 53.310501 22.9135
-5.3281798 52.825699 23.549299
-4.6256299 53.067101 26.352501
-5.0243301 52.5938 26.025499
-5.29632 53.237 22.3934
-4.8680902 53.365101 23.4272
-4.9544201 52.728802 25.4793
-5.3824701 52.117699 28.0651
-5.5322199 52.768101 23.0336
7.0082798 54.493401 24.7633
-6.4194398 50.458099 28.300699
7.1896 54.259399 24.719
-5.7790899 52.2906 23.6647
-0.35416299 56.915401 30.263599
-4.7959099 52.8792 26.838499
-2.6596799 55.876099 30.950701
-5.17764 52.393501 26.4998
-4.9587402 52.697102 27.332899
-5.8802099 51.441502 27.045099
-5.3226199 52.2033 27.003799
-1.66567 56.489399 30.868099
-5.5844698 51.811001 28.391199
-5.5035 52.194199 25.045099
-5.5220799 52.051498 25.597
-5.7302198 51.604599 27.721399
-5.7540202 52.695202 22.5233
6.5115099 54.771 27.1908
-5.5353699 53.137299 21.8985
-5.9825501 52.234299 23.153601
7.17628 54.0769 26.4125
-6.26334 50.736198 28.1812
-5.5641298 51.918499 26.245001
7.1784902 53.1558 28.606701
-5.7033401 51.710701 26.6472
-6.3804698 50.699501 27.465799
-6.0662298 51.694599 24.5937
-6.0633202 51.554001 25.1548
-6.22192 51.7715 23.7768
-5.9058299 51.326099 28.0208
-2.3247299 55.480202 28.655701
-7.1054702 50.987499 23.343399
-1.77739 55.929798 29.000299
-2.7943399 55.200001 28.884701
-2.2751999 55.689301 29.2432
-2.82164 55.030499 28.292101
-3.2832501 54.581001 27.916401
-3.2588899 54.7131 28.4811
-3.6761501 54.334999 28.5485
-3.2363501 54.8909 29.094101
-3.66208 54.505901 29.164
-4.0686202 53.920502 28.5807
-3.7054901 54.198502 27.9527
-4.1031199 53.787498 27.978701
-4.46731 53.366798 28.000099
-2.76213 55.4175 29.506001
4.6823101 56.403599 22.215401
4.9310598 56.176399 22.9259
-2.6954601 56.064499 31.6998
-6.0708199 51.1493 27.3582
-6.2451701 51.0327 26.653799
-5.9628901 50.9482 30.085699
-5.7315001 51.571499 28.6782
-6.07724 51.412201 25.705299
-6.9692402 50.276299 26.1994
-5.46315 52.292099 31.7334
8.01299 50.0546 27.8881
-3.22809 55.101898 29.7558
-6.0022302 52.556198 22.1534
-1.38978 56.2631 29.453899
-6.1114402 51.2537 26.3083
-7.0121198 49.345798 27.674999
-1.9119 56.043701 29.680901
-1.12883 56.219299 18.568199
3.4201601 56.666302 21.3866
7.00776 54.142502 27.166
-6.2221498 52.1082 22.784901
-1.2538199 56.466202 29.9769
-2.42662 55.7934 29.9382
3.35655 56.6674 20.8629
3.4825599 56.647598 21.9027
-0.981552 56.196602 23.8808
4.1391802 56.582199 21.525101
4.2151599 56.527802 22.0205
-1.7262599 56.284 30.1926
-7.1035099 51.2463 22.6236
-3.4959199 55.181999 31.0385
0.59542602 56.939098 29.2083
-6.0683098 50.9655 28.8578
3.5476 56.6068 22.416599
7.2295399 54.320099 23.165199
4.0336699 56.492802 22.596201
-0.33595401 56.472099 23.7369
4.8751502 56.460701 21.636101
-5.7888999 52.991001 21.512899
5.5160198 55.434299 29.2659
1.29513 57.056301 29.3493
0.472294 57.042099 29.7265
-7.2616401 50.463699 24.487499
1.98324 57.070499 29.496901
-4.9942002 54.462399 19.0996
5.38556 55.653198 26.5714
4.0735602 56.6105 21.0054
5.7858901 55.473598 25.936501
1.06559 57.1497 29.7038
-1.41857 56.148899 22.8603
-5.5620198 52.001499 31.6378
-6.25034 47.180199 29.696899
-4.7115302 52.972 26.594999
-5.0357099 52.6045 27.582001
-5.1052599 52.487999 26.2488
-4.8794198 52.7887 27.0846
-4.5399098 53.165199 26.1108
-5.2532501 52.2981 26.750799
5.5535202 56.348499 20.6651
-5.3940601 52.103298 27.252199
4.50913 56.344501 22.7724
-5.94731 46.812099 29.962099
6.41394 54.207298 30.184601
-0.429306 56.2439 15.2156
3.6365099 56.019199 12.3808
7.4231701 53.882401 20.2845
6.21138 55.1675 15.5175
3.7856801 56.496498 18.076799
8.0212002 52.616501 22.748699
0.54121703 56.335701 14.6169
0.70047498 56.485802 12.6761
7.3564901 53.416901 13.7649
5.6145101 54.954601 12.0894
5.0155902 56.188702 17.544399
7.06459 54.601501 20.351299
8.6007099 50.759499 23.379999
2.87868 56.3223 15.0018
7.06917 53.580502 12.5127
8.3175201 51.776199 22.999201
8.7091303 51.011002 18.5462
6.8455501 54.703201 17.274099
7.7098899 53.360298 22.667999
-5.0541401 54.376099 14.9682
6.37851 54.391499 12.3708
7.28337 54.052799 17.9769
3.7375801 55.9006 10.5046
-1.58663 55.9459 13.7285
7.6624599 53.384998 18.7792
-0.018003 56.412998 12.4715
-1.90517 55.8722 12.4924
2.54934 56.418301 15.8373
6.0358 54.656399 12.084
6.1923099 55.784401 18.8409
7.90659 52.9491 17.683399
0.60139197 56.3964 16.053699
7.5925899 53.107201 14.3564
-2.1522 55.795601 14.6829
7.3280501 53.8428 15.8582
-1.00335 56.112 14.6484
8.7926302 50.5541 21.9907
7.7895298 52.4856 12.4358
5.3937101 56.338402 19.601801
7.62146 53.5592 22.372999
6.5750499 55.160999 18.4116
6.8666301 54.9949 19.964001
-3.4222 55.3148 14.514
1.26184 56.4548 16.4238
5.5766501 55.8829 16.9795
-2.62602 55.653 14.6928
4.6452298 56.095299 15.5129
0.95454198 56.425499 16.2178
-0.71761 56.246899 12.7628
5.68648 56.196499 19.3482
-3.7994001 55.0163 13.2243
-4.27704 54.8536 14.3794
8.3588104 51.547699 14.4639
-0.939915 56.193501 16.176001
4.50422 55.877399 13.987
4.1063299 56.506401 18.532499
7.5680599 53.658798 22.049299
-3.25302 55.482101 15.4616
-4.1917601 55.007301 16.0853
4.34198 56.266602 16.2243
6.7206502 55.267601 19.4909
-3.79618 55.254902 17.1947
5.5028901 56.077301 18.2882
-4.60464 54.8241 17.542999
6.9646602 53.495899 11.0855
6.8419299 54.2528 14.234
8.1300297 52.376099 21.7052
-3.8324299 55.2169 16.5818
3.76476 56.277901 15.5548
-4.8953099 54.598499 17.240299
2.7937701 56.4646 16.346701
5.4098401 54.8969 10.2107
7.9042602 52.755299 24.0832
3.0933199 56.4744 16.803699
-1.8079799 55.9935 16.177999
4.91366 56.442402 19.420601
-3.18799 55.537399 17.0357
-5.2611499 54.2808 16.803301
-2.5903699 55.7677 16.5569
-0.215657 56.494301 11.4168
-1.3950599 56.096401 16.1898
7.4632602 53.8452 21.468
-2.2848201 55.8634 16.1525
-3.5739801 55.3349 15.7835
7.1887498 54.445702 22.119801
1.79913 56.440899 15.9531
7.8689799 52.814999 24.495199
1.50924 56.499901 16.8491
-4.0471301 55.147499 17.3787
3.62551 56.5751 18.613899
-2.83376 55.688 16.875
2.3968101 56.516201 16.8871
6.9112301 54.988998 21.194401
2.9291301 56.556702 17.8298
0.92772102 56.611801 11.4071
2.2223599 56.3605 14.3634
2.28578 56.461102 12.516
6.5331202 55.649601 20.3442
-4.3316698 54.998901 17.367701
-0.21007399 56.3652 17.183701
-1.9981 55.984699 17.339399
-2.8164699 55.679401 16.0012
-0.94332701 56.240601 17.184299
6.3839998 55.777401 21.027201
5.3288398 55.322899 13.1757
-1.68662 56.063999 17.157101
3.6251099 56.189201 14.0166
6.36377 55.842701 20.652599
1.88143 56.373299 14.8825
-2.0546701 55.896702 15.5598
-0.52314001 56.314098 17.1339
-4.8516698 54.606701 16.528299
1.36826 56.527802 17.6215
4.54318 56.494499 19.1562
-5.44241 54.1166 18.3088
6.9860902 54.787201 21.9797
6.16254 54.7929 13.3611
2.23106 56.555199 17.610701
2.9556301 56.5989 18.5404
4.4247799 56.492298 18.888399
-0.79874599 56.249401 16.731199
2.1805 56.539398 17.2386
0.03554 56.381302 16.832899
-5.2027998 54.366001 18.214199
0.18060701 56.419998 17.315901
1.91641 56.5172 16.867201
-1.61514 56.071201 16.774099
-3.08148 55.614201 18.064699
-2.2577 55.917099 17.589701
-3.3759201 55.4869 18.0056
-2.86536 55.689098 17.473801
3.2868299 56.598999 18.6026
2.5403099 56.5872 18.4575
1.84778 56.564201 18.239
-5.6673598 53.859001 18.3622
2.8894401 56.584301 18.172899
8.05198 52.559101 16.8536
6.7443299 55.295799 21.1866
-2.2971599 55.886799 17.0522
2.1800599 56.577801 18.3606
2.6087401 56.555599 17.701099
-1.6664701 56.084499 17.6891
-5.0323901 54.520599 17.941
5.9339299 56.1838 20.7808
1.42916 56.538399 17.9342
0.096027002 56.424099 17.9979
-1.2966599 56.162399 17.140499
1.5648299 56.549 18.1367
5.1088099 56.255402 22.384001
-3.8322599 55.3009 18.1122
-1.00782 56.2342 17.5457
-2.8593199 55.6964 17.790199
8.53543 51.476799 19.3288
1.59289 56.377602 14.478
2.80494 56.314499 14.2737
8.3602104 51.9006 17.729601
0.60706103 56.377102 13.701
1.6759 56.512402 12.6307
8.6184397 51.150799 20.8946
3.01492 56.269199 12.4173
4.75388 55.4767 12.2623
7.8878698 52.872601 16.4261
8.8353701 50.587502 17.7222
8.20891 52.2328 17.2848
8.6019096 51.252102 17.7223
6.3211398 55.288799 17.065399
8.9823198 50.209599 19.343
2.72089 56.371899 12.4453
8.4467602 51.430901 15.4709
6.8481002 54.474499 15.6022
5.9149799 55.531799 16.2656
8.8327799 50.419601 15.965
8.8032904 50.5975 21.170799
3.7151201 55.928101 11.4302
7.1233001 54.2729 16.5723
8.2861099 52.098499 19.3283
8.0622196 52.550701 20.759501
7.6907601 53.236 16.111799
4.0845098 55.915699 13.199
6.5309501 54.7356 14.8707
8.1105404 52.1661 14.949
5.5358 55.711201 15.5623
8.3994198 51.765301 20.917999
6.2417798 54.921398 14.2189
5.8580599 55.194199 14.076
3.8629401 56.397301 16.865999
4.5433898 56.3703 18.1479
5.07897 55.9319 15.4907
5.3203602 55.818401 15.4967
7.5356398 53.632702 19.524401
8.2774 51.8228 15.2812
4.9072599 55.693901 13.9588
8.7688503 50.835098 19.3486
5.41049 55.445801 13.9819
7.88275 52.928501 20.6894
5.1581502 55.568001 13.9339
8.0873203 52.5313 19.2502
6.0520501 55.064201 14.142
3.90341 56.043999 13.5858
5.6542602 55.301399 13.9732
3.4084301 56.487999 17.443701
9.0494604 49.931702 17.658899
4.6755099 56.253899 16.884199
8.55229 51.177601 22.5501
7.9099698 52.546299 14.6373
8.2315903 52.176102 20.8284
0.58274901 56.361099 15.3725
-0.37381899 56.285702 15.9776
7.4703302 53.471802 15.1253
4.2807398 55.780701 12.8344
-0.41796699 56.225498 14.5386
6.6747999 54.623001 15.2008
6.1304798 55.407001 16.652599
6.3780098 54.830101 14.5462
7.2653699 54.2253 20.917299
7.2206101 54.2318 19.6597
7.8378601 53.0331 19.403601
7.6327901 53.465 20.882
1.08425 56.380402 14.1009
5.69978 55.633202 15.8889
7.9187498 52.870399 22.1175
4.29953 55.663399 11.8525
6.7684598 54.0471 12.885
0.157446 56.364101 13.2802
7.3655801 53.076099 11.8404
5.1184602 55.335499 12.5932
3.21889 56.525101 17.704
3.63432 56.4436 17.158199
4.3506799 56.445099 18.412001
8.2105703 52.163101 22.2377
0.089796998 56.335499 15.6723
0.934174 56.365501 14.9984
7.8144598 53.110401 23.319099
6.9477901 53.976002 13.5887
1.19134 56.5672 12.2776
0.057053 56.289001 14.2103
3.1988699 56.1847 12.0183
7.6028399 52.912498 13.1971
8.4770203 51.6483 18.528799
4.26689 56.3307 16.875299
8.2127304 51.896599 23.844299
-4.66572 54.700699 15.9276
8.37286 51.7206 22.411301
5.08674 56.111099 16.9063
4.9780898 56.256401 18.1826
1.14011 56.459599 13.1801
7.9664898 52.693699 23.482201
3.1971099 56.165699 10.9989
7.0431199 54.567101 19.705
7.4408202 53.868801 20.879601
7.0846601 54.5998 20.959999
8.5720501 51.328899 20.1292
2.2339001 56.369701 15.1752
3.17713 56.358101 15.6738
3.4909301 56.248199 14.8931
7.22823 53.717201 14.3046
2.2670901 56.395802 13.4375
8.0941 52.309101 23.653999
7.7129698 52.8195 13.8519
0.50985998 56.5467 11.9912
8.70502 50.880299 16.8916
6.9416499 54.6077 18.189899
7.2442999 54.122101 17.040501
7.70117 52.563702 11.6058
6.98874 54.371899 16.0821
7.7304401 53.291801 21.9561
-1.18732 56.085499 13.2639
6.4563098 55.209801 17.5144
-0.98109299 56.1525 15.4022
-1.5925601 55.957298 14.653
6.4560599 54.446999 13.0355
-0.27309799 56.3069 13.1152
6.0947599 54.727901 12.75
8.07586 52.505299 22.1828
-1.00201 56.108601 13.7584
8.9285202 50.376801 18.576599
-4.8685699 54.554199 15.5734
6.7090302 54.916199 17.794701
7.1447601 54.2901 18.527201
7.41818 53.830601 17.421101
0.86812001 56.5723 12.0961
5.8645201 54.879101 12.5886
7.3411999 53.966099 18.9333
7.4477801 53.057499 12.5144
7.2063899 53.542 13.117
7.7829399 53.170502 18.237499
-0.51770103 56.358898 12.0737
7.6033101 53.5056 17.8249
7.71697 53.277599 20.1157
7.6530099 53.498798 23.257299
5.6483202 55.0494 12.7062
7.9621801 52.8074 18.6224
5.43539 55.160702 12.5774
-2.18414 55.744701 13.682
4.2266202 55.660301 10.8884
-2.2956901 55.696701 12.9344
-1.54634 56.041801 12.0879
6.2764201 54.595001 12.8618
7.5826898 53.3606 15.6151
-1.35005 56.074001 12.7112
8.7380896 50.5849 22.6423
2.0504401 56.407101 15.6345
3.05707 56.4091 16.0159
7.3723001 53.552502 14.6586
3.3281701 56.303101 15.3052
6.1090999 55.7201 18.301901
5.5896602 56.1325 18.8144
-1.82103 55.9221 15.104
7.47299 53.7272 18.3825
6.63872 55.2132 18.9524
7.7319798 53.289902 17.2607
6.2922502 55.863201 19.369499
8.0722504 52.595501 18.107401
1.13965 56.408401 15.7851
7.9393501 52.295502 13.1807
0.069881998 56.2995 14.8893
0.164038 56.375401 16.4114
7.1045098 53.852501 13.9769
-1.31671 56.023899 14.2131
0.14087801 56.512001 11.8459
-2.4519801 55.6647 14.1626
5.5485401 55.9715 17.6401
8.3303099 51.834202 16.454
8.6100397 51.130299 21.8013
6.7438998 54.787102 16.8062
-3.6073201 55.167 13.9449
7.4431701 53.7304 16.3496
7.2155299 53.931599 15.3731
-0.70880401 56.219601 15.703
-1.28264 56.063301 15.078
-0.723903 56.166199 14.2156
0.81190699 56.441799 16.6516
-2.34354 55.788101 15.1262
7.8204799 52.653801 14.1827
-1.9084001 55.845001 14.191
-2.95186 55.5783 15.0702
5.84975 56.197201 19.871599
5.2572498 56.316399 19.119499
7.0803399 54.382198 17.575001
7.6943998 53.012299 14.8806
2.5246601 56.341801 14.7303
-1.0122499 56.214699 12.2396
6.8037701 54.866901 18.743401
5.2171402 55.142502 11.6856
-3.1567299 55.389 14.0838
8.0073996 52.5144 15.7018
6.3407102 55.4067 18.0277
6.48241 55.554798 19.160101
-4.10847 54.9034 13.8342
6.9373798 54.772202 19.520901
-4.5201602 54.654499 13.8911
-1.79629 55.894901 13.1897
6.9632802 54.8466 20.7773
6.7936401 55.184502 20.385401
-2.10971 55.847301 15.1077
-0.634363 56.220299 13.3238
-0.136814 56.453098 11.9683
-2.79109 55.546001 14.1615
-3.70502 55.2201 14.9175
-2.57777 55.724998 15.1444
1.40422 56.421299 15.9007
8.4442501 51.337002 23.2194
1.15466 56.473202 16.791
6.6561399 55.485802 19.935101
-3.34251 55.230598 13.1421
6.4124599 55.026001 15.9202
-4.3638201 54.879501 15.5757
5.2610998 56.132702 17.906099
0.48985001 56.4118 16.5252
5.36133 55.9687 16.6173
6.8858199 55.001301 20.5856
-3.8477099 55.100498 14.4942
5.8059301 55.7864 17.3608
2.9942999 56.301498 13.7216
1.9204 56.388802 13.955
2.56724 56.3517 13.8293
1.93994 56.531898 12.1461
4.08705 56.273102 15.8701
1.96998 56.451199 13.0452
-3.32693 55.411098 14.9948
4.3826199 56.113602 15.1489
4.79567 55.8241 14.3504
4.9632001 56.0495 15.8722
-4.11099 54.987099 14.8274
5.86624 55.946701 18.553801
6.0532398 56.086899 19.6227
6.6894202 54.035999 12.322
4.5803099 55.9832 14.7486
-0.62206203 56.262501 16.390499
-1.16026 56.132099 15.8158
-0.75946599 56.178001 14.9743
4.9271002 55.931198 15.1104
-4.4980798 54.834999 16.331699
4.6746101 55.7285 13.5881
4.32377 56.012699 14.3744
8.2098398 51.851898 14.0773
3.3051901 56.541599 17.9533
4.49717 56.448399 18.642599
3.47702 56.116798 12.7872
8.5332899 51.1422 14.6449
-4.2083702 54.7644 12.9495
7.3365998 54.140099 21.833799
1.66641 56.474701 16.409201
-3.22647 55.501701 15.8967
-2.88169 55.6432 15.5383
-3.6758599 55.287601 16.1868
2.3236201 56.4547 11.4321
7.6575098 53.443802 21.7416
5.2041202 56.233601 18.550501
7.4588199 53.912899 22.392799
6.8620901 54.91 19.2831
-4.2649899 54.976601 16.4786
7.5848398 53.657101 22.9783
-3.0344999 55.494099 14.5904
5.3166699 56.0508 17.268499
3.9186001 56.333698 16.2195
-3.4913299 55.4076 17.3941
4.5931301 56.302399 17.5278
-3.6184399 55.309601 15.3853
6.7256799 55.351002 20.1693
4.2290502 56.1991 15.5152
-3.51208 55.381901 16.7903
-3.9793401 55.121101 15.7069
6.3926902 55.485401 18.620001
4.7419901 56.174999 16.230801
5.7739801 55.900002 18.032
-4.11134 55.080299 17.004
5.9531798 56.012501 19.089001
1.03379 56.5065 17.589001
0.79026097 56.486301 17.525299
6.5695901 55.606098 19.6978
-4.51443 54.859901 17.1766
3.1372299 56.282299 14.5843
2.59006 56.393002 12.9072
3.9221399 56.134499 14.3112
8.38729 51.635502 15.9894
8.5310297 51.309101 16.459299
7.8119102 53.085701 16.8461
1.6542799 56.561901 12.1034
8.3782396 51.893398 18.919901
7.9822798 52.762501 17.2659
3.55971 56.221401 14.4731
4.0661502 56.0508 13.9983
8.43785 51.7192 19.715099
3.46526 56.201 13.6005
8.1422195 52.432499 17.690599
8.1183701 52.3563 16.438999
1.6183701 56.466099 13.0946
1.05406 56.366001 14.568
1.4252 56.3778 14.9637
1.50073 56.3965 13.9645
2.2065899 56.361198 14.806
0.57014501 56.348598 14.1555
2.28654 56.428299 12.9773
8.2714901 52.033501 16.874701
8.2952805 52.094299 18.116899
2.8369701 56.3162 14.6633
2.24788 56.3759 13.9047
1.11472 56.4123 13.636
8.4837704 51.558998 20.509701
8.6310596 51.2388 18.937599
1.78056 56.556 11.7038
0.072861001 56.310799 13.7919
1.1760499 56.516201 12.7316
4.7440701 55.554501 12.7875
8.6795702 51.054901 19.797501
7.8792601 52.938 21.0728
0.68355101 56.4244 13.2667
8.1066504 52.479099 19.6213
3.1262701 56.247398 12.8292
8.4217796 51.698898 17.320499
8.5439796 51.4491 18.1276
3.1567199 56.190102 11.522
2.8763399 56.3311 12.8261
2.47964 56.436199 12.0317
7.7221699 53.244301 16.6322
8.2004204 52.258999 20.4321
8.5174198 51.422001 21.32
7.8985901 52.925201 17.056101
8.6589804 51.057499 17.308901
4.2139201 55.755299 12.3698
5.4349699 55.689098 15.1369
8.3101597 51.801399 15.7361
8.6519203 50.979698 16.4533
8.4230099 51.771999 18.1194
4.7859201 55.4086 11.8069
5.1806202 55.637402 14.3153
8.8537502 50.6063 18.957399
8.7769203 50.800499 18.138201
8.0631304 52.5989 17.4809
3.69649 55.960602 11.9222
8.9054899 50.412701 19.778099
1.0145299 56.633202 9.3285103
8.8067999 50.609699 20.730301
8.2195997 52.2654 17.900999
8.6979704 50.946999 20.4891
7.8572898 52.8717 15.907
8.0363903 52.517899 16.200701
8.26826 52.075001 21.237801
8.6299601 51.108101 21.368799
6.8066201 54.4049 14.852
5.2646699 55.441799 13.5985
-5.8126302 53.699699 16.9188
5.58496 55.2645 13.6185
6.2279401 55.045898 14.8808
5.1722798 55.2393 12.1663
8.2226496 52.091801 22.718
6.46521 55.0872 16.695999
8.1960602 52.196301 16.656601
5.9770598 55.596699 17.015301
6.7294898 54.6791 15.9611
6.1778402 55.487999 17.4335
8.45926 51.476101 16.2264
6.5461602 54.826599 15.558
8.5408201 51.382301 17.312099
8.6630001 51.125999 18.135799
2.21611 56.496201 12.039
6.2720199 55.2169 16.2876
6.0675702 55.3545 15.8971
5.7616501 55.714001 16.631399
5.5313702 55.8041 16.252199
6.96276 54.264999 15.246
8.3460999 51.8699 17.0944
6.5285802 54.623699 14.2062
1.38852 56.5877 11.8251
5.8832402 55.452 15.5411
6.9991899 54.4786 16.9426
7.3463702 53.9464 16.705999
8.1340103 52.267799 23.203899
6.6063499 54.992901 17.188499
7.6235299 53.4198 16.476
7.2274699 54.058701 16.2141
6.87428 54.580799 16.4419
5.9558201 55.2164 14.5075
7.99262 52.702099 20.348801
7.0981598 54.160099 15.7243
7.9647198 52.519402 15.17
2.8023701 56.337502 11.9994
8.0705404 52.178299 14.4092
8.1740999 52.361301 18.9212
8.1460505 52.164299 15.4893
8.7253799 50.830101 21.487
4.2532401 55.922298 13.6733
8.2915602 52.077801 19.726601
6.3866301 54.944801 15.1997
8.0939503 52.4762 21.158501
7.8401098 52.9995 23.738199
3.6939299 56.070599 13.1875
7.7567902 53.0513 15.7477
4.1635799 56.445099 18.1362
8.3498096 51.914299 20.5207
7.9497399 52.695801 16.067301
5.2948399 55.891998 15.8676
8.7741299 50.7281 17.299999
4.47299 55.7449 13.1863
5.72121 55.528 15.2233
5.84341 55.108898 13.6735
5.5475402 55.460499 14.3791
8.8901701 50.466999 18.1556
6.6594701 54.535702 14.5445
6.2200899 54.860199 13.8253
5.8509102 55.999802 22.1507
8.5131102 51.560799 18.927601
1.0981801 56.385101 15.3745
0.146752 56.355701 16.0287
8.5602798 51.3936 19.728399
8.05902 52.3405 15.3286
3.89429 55.9459 12.7845
8.1634598 51.995499 14.5442
8.4011097 51.7449 21.290701
8.23001 51.986301 15.6463
3.5905499 56.488098 17.7257
4.02179 56.391998 17.186701
6.3888602 54.724899 13.9188
3.68836 56.396 16.558399
3.2297399 56.484699 17.152399
6.0250401 55.002499 13.761
4.7300401 56.362099 18.4638
8.5001202 51.4123 22.1196
4.3446398 56.3829 17.8519
-0.153851 56.329399 16.253201
0.84154099 56.388302 15.589
8.5986404 51.2341 20.518801
5.6641402 56.322201 20.2349
-4.63695 54.6991 15.4898
0.54675299 56.3783 15.7219
2.6815701 56.371399 15.4667
-3.2363 55.313499 13.6138
8.7925501 50.746201 19.758101
2.29373 56.459099 16.144899
0.077004001 56.314201 15.3011
3.2442999 56.2607 14.1121
8.1673899 52.339901 20.036501
7.59547 53.5103 19.1619
7.2800598 54.094898 19.2994
8.7469196 50.916599 18.9499
7.4777198 53.759701 19.885099
4.4265199 56.3195 17.2031
7.7676802 53.1721 19.752199
4.1027002 56.3349 16.5492
7.6581101 53.406502 20.473
7.8913002 52.936798 19.022301
4.9099798 55.617199 13.5897
4.5076299 56.263802 16.555599
8.8232603 50.505199 21.5592
4.4902701 56.1889 15.8732
4.8411198 56.219898 17.215
0.485165 56.340099 15.0185
-0.35323799 56.276501 15.6071
7.8608899 52.7136 15.0218
4.7804098 56.278999 17.8524
3.0090799 56.523899 17.493799
3.63293 56.335899 15.9003
4.90769 56.154598 16.564199
7.9286199 52.8368 21.541599
3.48137 56.442699 16.8486
3.7809601 56.4445 17.452299
3.9448199 56.209801 15.1668
-5.5826201 53.9412 16.631599
-5.5619001 53.954899 16.2258
5.5048399 56.330299 21.2729
-2.6777 55.559399 13.7704
-5.5293498 54.021599 17.162701
-5.7372198 53.800598 17.477501
-7.5966201 51.520599 16.638
-2.5306201 55.604198 13.4176
-2.9372599 55.450298 13.7004
5.29106 56.326698 21.8524
-8.5541601 50 15.322
-9.1008301 48.819599 16.0438
-8.02561 50.946301 15.9915
-7.4276099 51.7677 15.6778
-7.36906 51.704601 18.807199
-8.5758495 49.6991 19.6439
-6.8903699 52.457298 14.7261
-6.4250102 52.9995 14.1233
-5.3457198 54.020199 14.2855
-6.5117202 52.855801 16.431499
-7.0641999 52.0933 18.642401
-6.7709799 52.446701 18.5581
-6.0098701 53.420399 12.6237
-7.9674702 50.853298 18.9617
-8.1910696 50.764702 12.0589
-4.43367 54.547501 11.557
-3.8020201 54.939499 11.8598
-3.18188 55.257999 11.6292
-3.5353 55.0779 11.6837
-8.7097101 49.6035 18.364901
-3.9829199 54.829102 11.5778
-5.3625798 53.9436 11.9456
-8.0378399 50.4604 20.8452
-6.4512601 52.920399 17.1122
-8.3301497 50.495201 13.1684
-7.7544999 51.269699 17.5833
-8.9395504 48.875599 20.452499
-4.9159002 54.3811 14.0131
-7.9956198 49.981998 22.769501
-6.2146401 53.097698 19.013201
-6.51861 52.975201 11.3895
-6.5854001 52.736198 17.701799
-2.5992701 55.552898 12.0789
-7.6814399 51.009399 20.995899
-7.7599201 50.451302 22.6332
-4.9338002 54.2299 10.2165
-2.2604101 55.720901 12.0382
-7.36057 51.9874 13.1699
-5.8124499 53.662102 16.1066
-5.94625 53.538101 17.501699
-8.0989399 50.1898 21.645
-4.7916999 54.524101 14.4326
-5.46766 53.990601 15.2363
-8.6633902 49.764 17.0686
-2.0613899 55.821201 11.8584
-2.9019401 55.424599 10.4237
-7.3374801 51.532501 20.647301
-4.62181 54.481499 9.1277199
-5.9742498 53.442402 18.695999
-8.3912601 50.312901 16.431299
-7.4844999 51.329498 20.719101
-5.1138501 54.356701 15.4949
-5.5205898 53.959999 15.7621
-6.1399202 53.124901 19.540199
-7.58638 50.796902 22.3111
-4.5276399 54.685001 14.3863
-7.2972002 51.675499 20.114799
-5.65698 53.758499 8.9024
-7.2234201 51.397099 21.7237
-5.8098698 53.661598 18.475401
-7.5942702 50.502499 23.1285
-4.39115 54.694698 13.4525
-7.4348402 51.079399 21.994499
-7.5458398 51.0802 21.5289
-7.2685399 51.099701 22.494499
-5.8985 53.595501 17.804501
-5.7132001 53.767101 15.8769
