# .PCD v0.7 - Point Cloud Data file format
VERSION 0.7
FIELDS x y z
SIZE 4 4 4
TYPE F F F
COUNT 1 1 1
WIDTH 1568
HEIGHT 1
VIEWPOINT 0 0 0 1 0 0 0
POINTS 1568
DATA ascii
-1.1764517 34.37915 36.611458
0.51919937 37.280128 36.119278
1.9078598 37.622734 38.106167
0.81345463 35.951557 37.924149
0.22550011 46.668327 36.661175
-0.34487152 38.482189 30.076113
1.8228188 44.837337 34.871262
1.6432991 34.103786 39.520416
13.050255 32.938889 23.619913
16.326895 31.416641 20.661261
11.798429 33.409107 21.701092
6.8571587 25.947773 37.675926
4.461236 37.958588 26.891415
4.2847958 35.695343 27.961163
7.8494415 25.176617 36.708885
8.4131994 25.300816 38.064087
-0.360425 41.663456 31.236845
7.8699265 36.270454 29.674847
8.1947508 33.377052 27.121748
4.6441288 40.387199 34.544502
7.6628017 26.001509 35.567493
14.263516 33.536228 20.343575
4.9055586 29.253819 37.303585
12.706308 34.517929 24.381071
11.758616 32.919491 24.190208
4.5289707 38.95401 34.164093
2.1812935 31.081642 39.594063
6.6214848 37.359455 31.046946
-3.9629087 44.748829 33.853573
6.4094 34.065262 27.32214
6.4622831 28.032707 36.188393
9.3810158 30.122623 38.195976
7.7498932 31.769171 39.843033
8.5977278 28.439882 35.710419
8.0361805 26.795464 34.977135
3.244895 30.710369 39.072533
8.867815 34.126457 23.303846
9.2096081 24.171766 35.134735
6.3924856 26.786259 36.630947
4.7288113 35.469921 29.163282
7.4655113 35.059776 23.560925
9.0977106 24.437773 36.586227
12.090078 23.890017 32.918686
0.99248028 29.169243 40.53746
11.370304 35.268337 22.786564
11.931122 36.568584 26.27092
10.442969 33.914463 22.666641
3.4087791 27.984871 40.232735
9.5263758 35.349968 23.130836
9.1904097 32.800533 25.121569
6.8513021 35.716621 29.656784
9.7348623 34.21624 27.961266
12.32285 34.008713 21.46669
5.5170822 35.452843 29.392956
11.047625 26.473791 32.874413
13.419981 23.452423 33.96278
3.5326519 31.83342 39.285484
11.957557 27.814262 33.557739
8.0736446 27.867901 35.482204
3.0956497 38.361198 34.674507
12.154382 33.681007 24.831896
10.198094 32.959538 25.736265
11.236423 25.147505 32.708199
10.710465 33.940865 27.391335
8.8547144 36.70752 23.771183
10.442122 27.087019 33.431782
1.5851078 37.223919 32.078682
12.024502 35.495121 23.261078
5.8038244 35.436916 25.298986
8.6043301 32.891182 26.224319
1.2252102 44.252769 33.475231
7.3807316 33.340763 25.521338
9.8604527 26.002737 33.246964
12.54656 35.359829 23.986073
11.554132 35.234695 27.31111
11.71809 37.177277 25.306328
7.7136698 33.554325 24.306677
9.187499 25.086546 34.061058
2.4157839 36.692787 30.346315
3.2602177 39.599068 36.519936
13.662984 34.007957 23.271545
20.746555 19.346821 26.180141
15.464906 33.138741 20.015263
14.807764 33.74633 21.50267
6.263998 40.476097 29.618303
14.236613 31.165432 21.147772
15.680883 32.446758 21.281244
14.163282 31.671907 19.715096
14.852832 32.385059 19.195044
6.9363632 39.276489 31.042515
8.5673027 39.21801 28.176395
13.362894 31.550312 21.02039
15.705918 30.911182 20.656519
2.7607803 43.156319 32.343281
8.6332664 38.863991 29.07531
8.0688496 39.142944 27.141857
10.598936 38.151039 26.382164
9.2448788 30.477379 39.570026
2.1663237 38.30521 28.749195
0.77105713 38.781998 29.529308
10.427568 37.887783 25.354319
9.1524334 29.043041 40.87426
11.290752 28.96195 38.618652
2.2342844 42.235779 31.277222
9.2810879 30.003042 40.51136
9.4278793 37.722538 28.579865
11.601261 27.742485 38.77182
3.9577723 28.007738 41.003067
7.9833136 38.408134 25.817171
3.880043 39.48354 28.087864
17.778709 22.89666 31.364544
10.192551 37.077499 24.136805
7.8151016 37.246555 24.603348
10.264536 38.06488 27.516125
16.874584 21.336605 29.5839
7.7031307 36.184258 23.962345
11.451486 28.805592 36.944611
24.284523 18.294865 24.538706
16.524439 30.046356 18.955095
16.421276 31.907333 18.393038
20.306536 20.618015 29.551456
24.875628 31.021603 14.31357
17.217548 31.572828 19.533234
14.996078 22.810722 30.960981
23.17334 19.008728 25.034803
26.599382 18.450829 23.842615
26.648817 17.624741 26.488081
19.066591 22.12949 29.694214
27.973747 20.750341 25.280573
17.290363 22.223795 31.681406
15.092665 22.555267 31.961636
19.101543 20.486235 27.488035
20.021576 28.222647 15.165704
21.29701 20.555737 28.563534
16.497103 22.833038 32.708763
23.245903 19.255558 27.412544
20.307606 29.956139 15.142143
23.725334 19.822239 25.572163
22.488571 18.385796 27.527206
20.726286 19.623535 28.993546
22.291313 17.96962 25.469452
19.336597 29.025988 17.496614
17.804808 31.04549 17.291351
21.016317 21.006096 27.537056
17.526344 29.506226 18.107685
20.92734 18.55085 27.390774
19.097525 20.453705 30.147167
19.372963 30.779293 17.496119
17.542255 21.016191 30.748011
21.667423 29.488815 16.571096
19.844254 30.634705 16.287088
23.194345 29.680855 16.124826
24.965382 19.550011 26.123322
24.408154 27.655714 14.908031
26.177265 29.233021 15.920315
26.041258 30.892157 15.94546
17.681923 20.506012 29.71389
19.904251 19.134161 27.223871
25.633396 30.781948 14.356777
21.655275 28.632446 16.554146
21.814476 30.182613 14.556119
28.363478 20.171822 24.952618
25.559952 29.296127 14.39419
26.655048 17.871338 24.313831
23.522602 28.372147 16.380154
25.558178 29.44054 16.599043
25.331703 18.905603 26.710869
23.095211 30.644398 14.632734
19.575851 29.978954 17.965588
25.549608 19.9552 24.97197
28.918404 19.988991 26.677206
20.004278 29.087616 14.835485
27.308018 20.359816 26.001726
25.731621 17.221607 25.818563
23.872213 29.287174 13.471666
27.14922 30.7113 15.808437
24.161236 17.438272 25.344231
21.196581 28.516006 14.309454
27.381012 18.645741 26.877451
23.810795 30.642029 15.384912
15.399969 31.535385 18.637417
18.278866 22.439842 29.421261
20.448059 19.053555 28.392897
20.895248 28.093464 16.024939
10.081001 26.353565 39.06324
-2.1582336 32.086761 50.449646
7.9192505 30.590132 42.238274
6.6944771 30.493929 43.375172
1.1571255 28.307713 42.44709
8.2402477 31.198748 41.355152
0.14786434 28.599983 41.865021
-2.991169 29.125484 45.83242
15.130075 24.44533 34.057873
13.796405 26.687532 36.731171
6.0260601 33.496765 43.877438
7.0412016 28.021585 41.675617
10.412238 24.390762 33.310139
4.6180086 28.508287 42.009415
5.9454727 33.998169 43.313236
13.175661 24.206718 35.434784
0.21801186 31.131321 48.200584
-3.662859 29.409336 46.839668
-2.1714478 30.991709 49.191597
4.8690567 32.391556 45.668343
5.0885868 29.468615 43.208088
13.230008 25.830635 36.919868
1.7671976 30.333776 45.905727
-0.84092045 28.892771 44.548233
2.8741074 31.933094 47.036411
4.7117043 30.938883 45.03022
-23.332268 14.130302 27.346699
-23.016373 13.999798 12.167701
-25.599201 5.9886045 22.762596
-21.463453 9.5952196 29.088383
-26.999008 13.708133 16.19607
-19.194866 4.9843125 18.111286
-18.855824 3.4007525 19.775646
-24.286045 16.785542 28.668461
-12.441734 1.3189487 13.903351
-29.373711 13.25671 26.605591
-19.874907 16.623896 32.968636
-23.988319 8.7096138 11.295286
-20.479309 14.596796 29.562107
-19.800119 13.673088 30.666214
-11.097443 -1.4000492 13.982149
-18.359554 1.2948265 14.840273
-18.867916 0.72178555 15.342913
-13.473648 -1.024931 14.692931
-21.026585 0.92140579 16.780994
-20.641161 8.8613825 22.204918
-10.656567 -2.7707024 11.635502
-0.62545204 7.8480029 -0.3001442
-20.693989 1.3522806 15.957719
-21.727652 13.669624 13.280876
-25.424843 7.4020958 27.520401
-13.014065 -1.5886011 12.4637
-24.749001 9.4280081 12.277294
-22.088596 14.514488 15.499214
-21.790104 13.474832 12.32317
-23.141037 16.092068 17.757132
-22.331173 15.706933 15.425067
-25.902718 8.2069206 29.321777
-26.179184 9.3629894 24.409611
-26.218018 7.7143745 24.622326
-27.038605 8.4241228 28.976479
-25.373554 6.8604717 26.159531
-27.952694 9.4946041 27.217793
-24.598465 13.972908 26.847393
-25.104286 12.033683 25.25272
-26.256962 11.836102 14.611797
-20.315071 12.582025 31.400175
-25.884998 10.616698 24.527803
-22.591957 15.676543 16.769857
-21.898724 13.25357 27.335131
-21.777634 14.967045 28.705658
-20.447985 11.793232 29.52577
-27.583199 11.554528 26.329273
-17.337729 7.0952196 7.0005808
-26.482555 13.250849 26.283552
-25.53093 7.3277464 22.819756
-27.003605 10.767847 25.734451
-20.704689 12.407836 28.230665
-12.77055 0.46161366 12.158286
-11.297688 4.8105831 3.1511564
-11.536041 -2.3707123 12.798711
-10.286234 0.012630463 11.44887
-20.655178 2.1802645 15.724636
-2.3606911 5.3597541 -1.4129353
-12.704247 -0.5399456 11.672946
-20.341167 3.3344822 15.944418
-13.024014 -0.28654671 15.159046
-21.973827 1.6697884 19.553314
-14.171738 6.068841 4.4663582
-0.81295967 -2.007865 7.4736247
-9.1302872 -2.939003 12.320482
-10.945381 -0.31078911 14.199989
-17.908888 1.0030012 17.555397
-13.76906 0.87313271 15.783467
-19.270475 9.2846794 7.3991208
-19.264296 0.49241066 16.795389
-21.87701 8.3871775 11.436322
-9.1217651 -1.1016417 13.082043
-14.793152 -0.79727364 14.513973
-17.525539 1.5409088 17.99369
1.6203384 -4.1767321 9.9289522
-16.075359 2.771843 14.989658
-19.263916 2.486063 19.754936
-12.155134 1.0570536 14.437046
-17.111584 0.35462856 16.384871
-15.267006 2.1399317 16.465567
-17.158012 -0.032551765 15.087451
-17.638639 3.2081871 18.225212
-16.839722 2.1520829 17.797815
-19.549471 8.3034086 10.549392
-13.248619 1.3696833 13.310417
-8.69417 -0.29377747 11.769676
-9.5887775 -2.9256973 10.546096
-17.206968 2.9407883 15.069212
-15.375633 2.5253668 15.706231
-22.186295 7.9290848 9.7692146
-9.1125755 -0.31719208 12.734892
-14.605999 1.2466946 13.257905
-5.0907431 5.6742578 2.014061
-14.928112 0.23329735 16.197803
-6.4476051 -3.0550623 11.46051
-8.0673447 -2.5142508 9.4271593
3.1346416 -1.0864811 9.4515762
-3.7160778 4.5383167 0.81561184
-18.255999 4.1356754 16.466724
-17.361132 9.3591185 9.3462811
-18.137188 4.1538858 17.455116
-16.313404 0.44549084 13.84541
-19.124512 9.7500057 10.936092
-3.5241985 5.263556 1.3674231
-18.615406 10.396897 9.8798027
-19.197487 8.8707628 10.911837
-12.185707 7.9957867 3.3780136
-15.385691 8.2932453 7.9622545
-21.359083 7.6821966 20.223703
-15.827118 9.5012884 7.1836119
-11.082306 -1.665144 10.790341
0.20284367 6.4578438 1.032176
-18.691814 10.703322 9.0798788
-10.075134 -0.88450813 10.485017
-20.480207 11.635217 11.614183
-22.780716 11.692886 25.043213
-19.752195 8.5668259 23.006775
-0.51085758 -4.5522575 10.010167
-3.7929039 4.393033 -0.13808346
-16.296082 6.8953104 5.7014914
-29.980328 9.6612644 28.765736
-19.380175 7.8970623 23.077139
-21.095989 11.535048 26.151552
-7.7308674 -0.98933411 10.221814
-2.1334896 -2.3865185 7.6093388
-12.103249 5.6979427 4.801156
-4.3600636 -2.3615646 10.613295
-20.185925 5.9955635 24.189837
-20.908634 10.19428 28.60602
-6.859787 -1.1855326 10.53849
-21.365673 7.3395634 26.722036
-6.7377815 -3.6689501 10.71873
-23.720104 12.128001 25.336599
-20.250305 10.371009 26.202093
-22.586704 7.5352855 27.618814
-17.70883 2.0179882 14.751911
-19.3894 7.3791318 23.601269
-20.625822 11.784724 10.271576
-21.87542 10.102598 30.622204
-23.604717 2.3445559 18.865044
-23.501083 9.1765623 12.777439
-20.284569 8.0050983 8.7043028
-2.7216482 -2.8413258 10.356266
-19.530094 5.8615894 19.998211
-9.3441639 -3.2265768 11.366386
-19.643932 6.807807 23.917395
-21.530796 9.3851795 12.656521
-1.8846664 6.9746242 -1.6581841
-20.531384 10.817572 27.857031
-22.309052 8.5990658 28.867435
-21.760639 11.463517 25.303284
-24.062225 3.1814728 18.788725
-24.829563 7.8940773 22.081223
-23.760487 7.3082047 20.759594
-24.67247 11.861164 35.490337
-21.38257 5.0793319 17.458969
-23.246841 4.5336275 18.046473
-22.0448 3.9447718 16.96533
-23.400928 2.2336893 19.401012
-24.108681 6.4057422 26.376957
-19.916735 5.1740413 17.538759
-22.730217 10.604962 14.185737
-24.862213 10.676227 13.939175
-21.735126 6.9143658 19.371635
-22.703602 5.6104808 25.27532
-21.540501 4.8511758 24.086327
-23.603085 10.71694 14.32496
-20.215 2.0021243 19.675274
-22.08358 11.110878 14.347222
-25.679565 10.796289 12.755712
-20.884296 3.4409857 21.659212
-20.489567 10.405797 12.393204
-23.991924 3.7391977 22.065205
-22.11235 12.543847 15.154953
-24.560883 5.1670876 19.929512
-23.135834 3.7655625 22.461838
-11.473167 4.9322004 2.4004598
-20.731461 8.8201761 8.2841244
-0.49569416 5.1620655 1.3084049
0.55425072 -1.7071571 7.1296082
-2.1892252 7.5910525 -0.91431332
0.18507481 -4.9484921 9.2288933
0.028542519 -2.690403 7.1295519
-5.0539932 -3.9465494 10.473488
-5.6501265 -4.1343527 9.6097717
-0.3585577 -4.6967907 8.2793274
-5.7974243 -1.9628143 8.893033
-14.260931 6.376195 5.933404
-13.92334 6.5621986 3.5992012
-12.399761 8.3117533 4.2893443
-7.0014076 -3.4206657 9.2759552
-5.4387808 -2.8782654 8.4047756
-15.875813 6.6536961 6.6970029
-7.6001167 5.4778137 3.0243254
-9.9200649 4.7225561 0.90569305
-23.444786 9.5374136 9.7037878
-8.849596 5.4657822 -0.29689407
1.2660637 -4.1820087 8.9361572
-5.9364815 7.1085539 0.63586521
-6.2113762 3.8048248 -0.23849678
2.5786729 -2.761096 9.3921833
-5.6511288 3.9770536 1.3383055
-10.324417 6.0739365 0.85524273
1.3365555 -1.9181252 7.4097118
-0.44161701 -3.6473217 10.65552
-8.503624 4.7231913 2.8488579
2.8139553 -1.3549967 8.8372755
2.0649424 -1.0994835 9.9393349
-6.9247189 4.472651 -0.8373909
-5.4507828 -3.9509163 8.8351364
-3.6957645 -4.381012 7.8424816
-0.63942719 -1.5755129 8.2511215
-0.08157444 -3.9210892 7.6329165
-6.2596016 5.432724 -1.2472858
-4.6237411 -1.7156773 9.9566565
-4.0039063 -4.6693134 9.4177427
-1.520649 5.4687176 1.4763527
-5.5067902 -1.5583534 9.448164
-14.55954 7.0382061 6.9231939
2.5242629 -2.4531898 10.613704
-0.39621544 -1.6228552 10.084285
-17.767448 8.3664112 6.3138885
-0.068875313 5.6195836 0.6408844
-1.9682207 -1.6305742 9.066844
-2.5431566 -2.0648918 9.8544827
-3.5007858 -1.5618677 8.3339977
-4.4954128 -3.2979536 10.765163
0.44248676 -2.1900301 10.442459
-2.2448187 7.2481718 1.1630669
-9.8368301 4.5677834 2.8754644
1.4576359 -0.69648457 9.009264
-4.2694063 6.6039619 1.2724371
-3.6941833 6.090034 1.5181456
-5.4378967 4.5180988 1.9376001
-5.211668 6.7998762 -0.46534729
-1.8428822 7.8420763 0.2968235
-0.6606884 6.9841986 1.3319397
-12.120935 5.840477 2.3316817
-25.224834 12.538918 12.210482
-0.52036285 6.986403 -0.97727203
-18.620506 10.285388 7.9220119
-25.107361 9.6810617 10.993937
-3.8947964 6.5378928 -1.0377026
-9.5564003 6.515934 3.8597856
-11.950874 7.3643627 2.5391564
-15.82296 7.8599443 4.9847541
-12.362459 7.3090572 5.8098431
-8.8208084 6.583374 0.23175526
-13.36986 8.6359358 5.5764647
-11.052799 7.6090918 4.5504069
-9.3660507 7.332799 3.0320315
-21.511911 10.032608 8.7049923
-19.977356 7.9237804 9.6939211
-17.792259 9.7542439 7.0512547
-22.601631 8.5007267 9.1628714
-19.512192 10.154248 7.9551525
-4.4077873 7.0819793 0.33180046
-14.97097 8.9025946 5.4958057
-5.6429615 6.0472355 -1.087347
-9.9952488 7.2447863 1.4724035
-8.729023 4.1691437 0.4936552
-21.60903 11.418508 9.6908932
-3.919138 5.6175742 -1.2787256
-29.932503 9.5562124 31.817087
-31.774887 14.858252 25.561649
-22.983913 14.61046 37.45755
-28.636353 11.800585 26.746016
-30.088207 15.930769 25.935532
-27.334244 16.099199 27.439003
-37.520935 9.9404402 33.765263
-21.334837 16.581532 37.432941
-35.863144 9.7867746 34.366325
-27.363861 13.751853 26.593849
-25.497356 12.674036 37.32687
-21.137877 11.974973 31.906031
-25.085846 9.8571548 33.008247
-23.600407 10.412673 32.682724
-21.700111 15.21081 36.444031
-25.266186 15.541098 27.691402
-31.25631 10.125277 35.259224
-26.186813 16.12199 20.481913
-30.682083 16.062836 24.713667
-25.638485 19.947506 26.687395
-30.311642 16.984737 21.652359
-34.536377 13.001577 26.564724
-26.247849 11.114617 35.289284
-30.463886 9.5716734 30.290531
-28.201206 10.387057 34.494942
-30.967079 16.367292 23.339907
-40.324013 11.370237 30.421465
-34.908699 16.018295 22.092505
-31.390808 9.9523087 29.161491
-29.255844 9.8389721 33.408829
-21.872589 13.844631 34.877571
-32.102615 16.845423 21.478878
-23.678459 13.280563 36.36834
-30.451797 14.306396 26.167906
-31.278534 12.838007 26.752396
-32.710342 13.800506 26.105793
-31.62553 11.188509 27.735996
-28.237537 16.883682 21.57242
-33.329769 9.6639299 34.036774
-28.991287 16.917931 23.081669
-26.233673 18.28447 24.104431
-26.261272 9.2456455 32.465553
-34.768845 9.7187681 31.135935
-34.995094 9.5059595 32.640945
-27.527802 17.071207 22.427792
-27.372112 18.096001 25.054298
-37.967617 11.305099 29.128099
-39.049774 10.63857 33.803131
-32.95303 14.999557 24.726643
-30.128498 11.433273 27.225529
-45.186806 16.05669 28.303112
-42.713673 12.977541 26.965958
-44.453136 14.217299 29.080502
-45.547089 13.701099 28.612202
-44.306915 14.909277 28.197124
-43.412216 12.770361 26.228542
-44.505695 13.255836 26.668966
-41.355633 12.686671 36.739029
-40.361359 13.21488 39.091923
-30.649082 13.5755 39.637203
-41.799183 12.164346 30.108654
-44.335663 14.103245 31.579256
-44.411629 16.037086 27.966217
-43.890419 13.973001 29.4133
-46.314766 16.072208 32.751991
-45.392242 14.995133 32.518768
-46.099636 14.825993 30.226912
-43.132324 14.71259 27.896709
-24.064392 19.709618 17.482983
-37.247791 26.049891 22.421608
-31.066483 17.480305 20.562599
-45.882271 19.050274 28.493328
-33.769753 25.567348 21.379652
-36.359383 16.523781 21.784821
-46.433037 15.252199 29.444103
-43.556206 21.789467 25.175335
-46.194912 16.36813 28.892572
-45.541603 21.202406 27.559692
-29.044144 16.972836 20.348663
-33.838051 17.564835 20.714867
-23.598915 16.641672 18.946529
-25.289497 17.644688 22.012211
-27.564037 15.196099 17.926304
-23.100018 24.051418 20.405884
-43.906952 24.734806 26.118397
-28.456001 16.494999 19.440201
-37.273613 28.255743 23.740257
-35.032555 28.662045 23.306257
-45.238041 15.254883 27.768719
-46.308136 21.154963 28.896235
-24.487587 26.549103 21.69684
-31.889641 18.469677 19.947422
-46.757118 21.650124 30.228077
-36.042023 31.113297 26.125406
-37.106613 29.73588 24.868423
-34.289017 15.376105 23.111996
-35.289894 13.721269 25.69993
-47.282509 18.696072 31.715027
-28.893837 29.777225 23.63467
-42.67572 27.585526 26.315275
-25.967358 21.408501 18.327204
-35.492371 20.021223 20.731178
-30.221088 24.980457 20.491743
-39.862572 15.128469 24.95223
-34.828728 21.817738 20.583364
-22.466728 18.845516 18.449686
-23.867233 17.770416 15.656586
-23.032059 18.822618 17.600681
-22.97612 17.339245 16.248055
-44.674511 20.616102 26.314098
-32.143406 27.189163 21.893841
-43.046326 19.849113 25.266788
-28.394012 20.888056 18.314245
-26.928169 13.918912 14.63809
-39.081955 20.532024 22.005478
-44.346794 18.092247 27.310154
-37.477478 17.995583 21.699417
-33.878952 19.217991 19.961611
-35.891399 24.214375 21.27993
-26.000084 15.78444 14.749363
-25.708408 18.51198 15.81332
-29.196835 20.001419 18.226284
-27.117332 20.903215 18.063187
-29.722458 18.037827 19.063473
-25.294235 20.11833 17.337471
-29.943474 21.053843 18.93626
-32.221775 19.491249 19.726952
-32.594376 21.095474 19.783024
-30.312401 19.927216 18.915785
-32.895756 22.720051 20.169849
-25.073845 25.81366 20.84244
-24.20628 22.054327 18.862474
-27.807579 15.41515 16.720152
-38.079704 16.8517 22.4505
-40.276844 18.695518 23.109085
-28.976814 17.407082 18.441217
-38.452061 22.40889 21.756607
-22.746975 21.402676 19.337322
-41.65419 22.20945 23.231253
-28.187481 28.196777 22.298122
-27.242722 26.870054 21.186148
-24.941765 21.012596 18.129801
-22.114159 22.430841 20.386459
-28.726662 21.703625 18.867876
-37.976357 24.143406 21.924294
-26.78146 18.424561 15.89134
-0.84226418 58.5131 54.254307
1.3810997 46.974617 54.150684
-2.1874046 64.353241 73.981667
1.4996014 52.263588 50.000114
1.4469795 45.251732 52.27317
-3.9011345 63.31781 61.624699
-25.609638 19.971455 44.040104
-18.789669 43.488625 48.360577
-4.781414 61.115059 60.07795
-6.0851707 68.297012 83.099495
-0.40156174 61.992233 58.513668
4.1269455 64.505325 67.755188
0.61694336 64.043488 61.07972
1.4918346 55.80648 61.449127
1.7967167 49.524536 49.020969
0.71791077 61.672417 58.746792
-1.1365089 63.668625 60.468887
-10.293388 67.022301 86.419106
1.4098854 58.187607 56.450195
-22.535172 72.412491 94.197014
1.9022675 64.432205 62.544804
-0.077644348 59.083267 66.619629
3.335392 62.238052 65.371452
-4.9619637 62.61208 62.525928
2.9455833 62.483803 63.510105
-8.7624092 69.294678 81.226624
1.3291359 57.405823 63.820183
-12.310226 67.934433 91.800575
-5.7618713 69.235497 81.156113
-21.990116 71.574677 93.463432
2.9299965 60.971603 65.434105
-5.6875954 71.733765 75.594643
-8.5443382 68.806335 81.178284
-8.0595207 68.850609 82.062897
-11.087391 67.510223 89.140694
-13.085957 68.839661 93.752251
-3.395813 69.452118 78.318695
-4.931057 66.892227 74.707382
-18.929455 71.283447 94.221359
9.7012634 73.565254 71.62365
-10.106743 66.18055 87.937561
-19.076572 85.636421 77.285179
-9.2886429 78.139671 71.528343
5.4648705 71.585167 69.287949
2.9164314 69.375427 76.939079
9.7047348 70.549309 72.868202
-1.7133141 68.946884 78.360924
-15.347561 81.151581 73.821426
14.351402 72.126671 71.096535
-12.565815 67.070869 89.171532
-23.640377 73.67894 93.144073
-16.297226 84.121994 73.653717
-2.3128891 72.657043 77.037064
5.4474678 72.408508 71.204697
-6.3133736 75.324448 74.166359
-7.3682709 76.576294 73.436111
-7.9472427 76.605453 72.532059
-10.512611 77.633858 73.64595
-9.3072586 67.949448 86.686363
-2.4110641 74.13649 75.254021
-6.4884491 74.823273 72.085938
-24.116409 85.33593 79.523674
-2.6949883 66.541656 76.894356
10.293217 69.700325 69.94548
-11.952774 66.759598 91.077415
-14.457638 81.494324 74.224792
12.726559 71.380844 69.807861
-12.500759 66.378929 89.659584
-13.813431 69.703552 92.922661
-6.77314 76.060524 72.925278
0.32966232 71.130814 77.513496
-4.9203796 68.472336 78.604073
-10.326427 77.711876 74.459335
-6.4570427 74.868469 75.017639
-19.022667 87.091751 76.490456
-15.908291 69.6269 93.618408
-10.558506 79.281113 72.876099
-8.7514381 75.206955 75.102356
-0.86694336 74.784248 72.928154
-25.47245 84.076073 81.322235
-6.5358467 73.848946 74.861664
-11.244686 75.438019 74.861099
-8.1817513 76.3153 73.386108
-16.594185 83.393364 75.010437
-16.932201 84.285774 75.817833
-12.715412 75.479088 75.432419
-22.793793 85.596252 80.252945
-8.7090836 67.011101 85.553909
-9.5160179 76.652863 75.035141
-16.92511 80.961655 74.248856
-23.885159 84.51403 80.519073
-0.96165085 74.660233 73.973778
-16.797066 84.960564 75.146248
-8.5483894 74.897781 73.480125
-21.061356 86.33168 78.384331
-7.6050148 78.522293 73.627319
-15.138863 83.504509 73.887299
-7.0113106 72.827408 71.4543
-6.436245 72.842453 69.946762
-24.277508 84.398277 81.737328
-11.044056 67.175484 87.773125
4.8476219 73.140381 72.736328
12.000191 74.563362 72.50074
-6.96035 72.857872 70.464737
-25.82346 84.739113 82.346603
-18.337559 88.054192 78.672417
-4.8442154 67.604156 77.433449
-6.4736671 73.603439 70.480179
-6.1176071 72.748039 73.913368
-1.5121231 67.6418 77.858116
-19.699657 89.701355 80.610847
8.1010895 72.112 74.143906
-13.085766 76.298897 75.121208
-18.360806 88.167015 77.736694
8.03339 73.2491 71.84021
14.42614 73.656036 72.99498
12.852882 74.291862 73.410141
10.034058 70.77829 69.587013
-6.6845398 71.638367 70.784142
-8.3319092 75.372955 71.137543
-4.5942268 68.909851 79.227859
9.78965 71.794495 73.789009
9.9888 73.839897 73.155205
-5.1184578 68.847481 79.430321
-3.4665642 67.966728 77.628975
-3.6853638 65.523056 76.390457
-6.7391205 74.94548 73.50264
-4.7105484 70.928085 68.850311
12.796059 69.735458 71.530746
0.72901917 68.710632 77.16188
10.634056 72.260925 70.195084
11.539234 72.268867 74.037544
8.021801 73.164909 73.605507
-16.361137 81.291885 74.805725
-7.6236954 75.408127 72.921982
-7.0714874 73.732651 74.057755
-5.1251526 69.897339 76.80307
-5.8621521 67.163528 79.482285
-4.4489708 65.51593 79.588676
-13.643764 82.083282 73.438522
12.52103 73.229225 70.240486
-4.7155457 71.342987 77.196419
-3.447876 68.930984 79.496323
-2.7001686 68.412651 79.424652
-4.1142998 68.295601 80.88781
7.7369385 68.291718 69.075882
-6.1020203 77.126289 73.161118
4.7726784 70.143242 67.530266
6.3151131 70.965637 73.509567
4.3254318 71.809425 75.821381
2.3459053 58.544205 59.762905
-4.8978386 74.688164 73.116341
6.4045372 72.095123 72.98539
7.6504631 72.098175 70.659233
-8.1968956 78.068336 73.022865
5.9684029 67.659523 73.036987
-0.85492325 74.411346 71.708961
-2.6286125 74.779724 71.778084
-10.951191 79.237648 74.700157
12.376534 74.199554 71.204254
-4.8339157 67.575943 76.01297
3.2178612 72.357834 69.56147
12.017788 70.196754 73.021049
-11.301523 48.841908 53.606499
-0.68058395 43.311329 54.188175
7.4874115 70.672455 73.176056
-3.3592415 64.152374 72.877533
-5.9592094 68.82283 69.085175
-5.1902351 69.238815 68.238091
-8.9900265 53.360985 47.580624
-9.609436 53.438217 48.549488
-8.6068153 54.184364 54.866539
2.8209991 61.966911 67.431396
2.3405113 53.030327 55.157681
1.831583 53.902039 52.020164
-1.3736973 58.35099 66.148514
-5.3935509 56.193939 51.624165
-2.8332424 46.825706 57.925598
2.3542252 58.223183 62.339024
-5.9053116 70.603653 69.410553
0.97352791 59.004719 65.951385
-4.4483147 71.963646 69.81456
-0.47371864 60.287201 56.491306
0.53255272 59.317635 56.292671
-8.3277969 54.235374 56.30653
1.0831223 64.310242 73.588272
1.888401 56.028534 60.522972
-0.11492157 49.521515 58.716293
6.5200615 66.976433 68.993683
0.50935745 52.767113 49.178894
-1.8308563 67.332458 64.539047
-2.3963642 64.569824 61.922684
-2.4915695 69.187775 66.366737
0.22101784 46.973991 56.463512
1.9105453 49.242466 55.483742
-0.22329712 55.015812 50.543694
-4.9416046 52.501122 45.270985
2.0026512 46.998753 52.467651
1.8425865 57.008217 56.269585
1.0548801 54.35355 51.215454
0.20911598 50.756264 46.732941
-1.3939533 61.889263 58.342545
1.0448875 51.562531 58.562672
2.0816593 61.278423 59.888283
2.4905586 61.602757 61.755852
2.7399864 60.193443 63.032364
-5.8319016 68.021095 80.514503
2.3750305 50.746155 51.981949
-3.4392776 53.208839 46.889969
-2.9018784 56.757637 64.370071
4.8217926 66.02475 67.561562
-3.3223 51.961849 45.50486
-1.1245117 52.802444 47.886055
1.1700974 57.155701 54.999306
2.2285728 49.941429 50.311775
2.1886292 52.497002 56.249306
-1.0778503 73.213989 76.187622
-5.8813114 53.273991 46.270416
2.3346062 63.293709 62.292198
-1.166153 65.597496 75.413208
-0.08568573 68.512253 65.370148
-1.8538074 46.707787 57.762119
5.7721176 65.729103 69.454498
-3.4369984 60.476559 67.713646
2.0545597 58.486389 64.063515
-7.5156345 56.230995 55.384312
6.7029266 69.76651 73.057495
2.6993408 69.167137 66.375076
5.7061996 68.876724 67.477386
-1.7160187 42.664928 54.879078
-2.6716518 60.408958 68.049843
-7.9698143 55.065067 53.022038
-0.78102112 65.798805 62.876602
-5.823225 59.877457 61.659447
-5.4954929 48.126026 57.839279
-2.3792839 62.234093 70.749123
-1.1666126 54.500999 62.735115
-4.2242279 68.180328 66.607674
-5.4828548 60.746532 61.349377
-3.3356342 44.071198 56.235909
2.08634 55.014557 55.04805
8.9424858 69.798973 69.140533
3.6415215 64.097015 65.560089
2.4424534 44.017712 49.898491
2.3992691 46.74387 47.894737
-1.070467 50.227425 44.220676
1.4094505 43.532753 51.925549
1.3060703 48.608528 45.217278
1.8868961 47.990501 46.209602
0.72827721 55.831894 52.681911
1.7388134 51.741146 57.28056
4.5277443 70.981277 68.080826
2.4235592 42.430824 49.628574
3.022768 44.203476 46.044628
2.4663906 46.114975 45.473034
3.3991699 42.490135 44.060768
2.4604359 39.585709 49.213993
2.1620712 63.772247 72.162155
0.14500809 48.465416 42.405891
2.7922478 43.45615 48.800056
8.1332359 68.020317 70.212692
-0.42615128 63.76947 73.41024
-2.5474758 61.147369 57.769733
4.3260498 64.42012 69.821983
-0.62545776 61.037804 69.110603
-15.656343 47.542046 49.704361
-4.1225929 54.121544 47.672062
-13.118195 69.415108 93.061401
2.3502007 62.412487 69.061615
12.944092 73.286179 74.016525
-21.709625 72.474121 93.373283
-3.2921257 66.773132 64.653778
-19.937084 88.912292 79.380814
-18.558691 45.258232 47.382072
0.25024986 57.490379 54.093529
-7.2636299 75.276382 71.35553
2.1639099 55.660404 57.812202
-5.4265556 73.127777 71.151932
-14.257576 48.913273 50.356331
-6.0549164 76.251999 73.429413
0.3945694 50.997856 47.487549
-13.578402 50.85503 47.321976
12.50246 69.784409 72.496498
-6.7890511 74.078941 73.404068
-2.7832718 70.785416 77.859894
-22.339264 85.062622 80.203888
0.81185532 49.894527 57.887177
7.3209305 67.396645 70.903061
6.8913498 68.79454 68.295769
-1.573822 72.508461 69.609543
-6.0450592 74.570679 73.388924
-1.5348206 49.17717 59.312729
-13.286591 48.359207 52.116802
1.8130341 60.895344 67.399757
-25.932808 85.168175 81.242134
3.8071709 64.408577 71.202026
-4.7568855 68.810959 78.033447
-11.95219 51.7122 46.633305
3.7413788 65.351593 72.696617
-15.588081 82.043297 72.898117
-8.0744209 75.986061 75.050446
9.9104576 72.939697 73.947411
1.3316364 48.766479 56.365326
-0.63214874 67.041718 64.115692
-22.02512 71.581863 94.605446
-9.8330078 78.713097 74.195915
-19.028721 86.963242 78.369873
-4.4671097 66.380882 76.762428
3.4323845 68.003464 66.136444
7.297966 70.645226 68.834084
-12.556641 67.869652 90.227661
-6.2828255 69.422173 73.795639
-14.440014 71.122086 96.835022
-12.477531 51.538113 47.595093
-5.2016373 70.602684 79.030327
-1.6446724 60.503502 68.447899
-22.253105 85.283173 79.009438
-1.2925949 46.080147 56.979652
-13.712955 70.50573 95.758476
-10.852432 79.923355 72.597755
-16.332779 73.694199 97.175507
-14.20388 50.157722 45.964581
-8.9219055 74.510048 74.457756
3.7165108 74.026123 73.264885
8.9402695 71.126984 69.638222
-13.833447 70.998817 95.273087
-10.486691 75.797661 74.972443
1.9700127 71.325363 77.349052
-2.3412533 53.941696 48.075706
2.0367355 57.93523 57.636574
-3.5741119 74.749008 71.731705
2.2301044 47.392094 50.195717
-11.571499 79.220123 73.12709
-8.0035744 76.341751 69.696159
-0.6881218 69.80394 66.259674
-2.1047325 63.240463 60.199242
-17.553589 83.904739 74.146667
-17.784245 86.619415 76.24379
-26.286842 84.365952 81.45076
-10.404768 51.671341 45.184063
-9.7872314 67.243019 87.844185
-20.957092 89.665344 81.801559
-14.464287 72.027184 96.317032
-6.5616875 70.140877 70.881233
-18.01725 85.882896 75.355713
-5.6840172 65.301712 80.944397
-15.645626 70.252563 94.117538
-14.471825 82.579224 74.132187
-19.18676 88.976074 80.371132
-13.498714 49.96661 44.710396
-4.215889 64.959763 78.788437
-11.998917 51.416866 45.964935
-12.007092 66.691246 87.913467
-15.456114 49.651039 47.676064
-16.975519 47.7402 47.507103
-11.956999 46.687778 53.68502
-3.3090591 74.949059 72.65995
-16.151943 49.157578 46.615326
-17.778469 45.363503 48.467106
-8.1217575 75.143326 72.145386
-16.825945 47.346214 48.262093
-12.344395 49.971981 43.493523
-3.2464485 71.677834 77.464783
-4.6437531 75.7705 72.495605
-13.672951 50.385307 48.918598
-7.6349106 67.988953 83.697456
-15.921562 48.617622 45.011482
2.4281502 74.748489 72.750023
-4.9098473 65.029114 80.261795
-16.654305 70.230949 94.118263
2.7348175 66.452339 74.364174
6.4802666 72.426987 71.882011
-16.48912 72.87381 97.369598
4.0617867 69.059875 75.365631
-14.779781 69.973244 95.493164
13.750275 73.608551 70.819656
-10.264206 75.606094 74.025101
-5.2651939 73.221268 75.493843
-15.606934 72.993195 97.563522
-4.3501282 74.165146 73.928864
-19.482639 87.747093 77.554024
-13.705502 75.841156 74.776749
-5.8455009 70.139526 78.591179
-14.159191 68.71759 94.454117
-10.463493 79.2612 71.758705
1.0227318 61.545128 69.121376
-17.494438 85.989243 76.79026
-5.7485237 66.915825 82.028481
-9.5936279 77.55513 73.398979
-6.5826187 72.769089 72.654022
-18.943752 70.107513 94.105492
13.430626 74.478874 72.564835
-19.014008 85.765427 76.384171
-8.6419563 77.164413 74.787903
-5.9272919 72.78775 74.822365
-10.509438 78.606537 72.139572
-13.308353 67.066498 91.294701
-9.3121033 77.860504 70.333107
-12.732517 68.553574 91.172134
-21.712559 70.87999 94.246826
14.31456 73.574234 71.53627
-8.2296829 77.276276 73.937332
8.7559586 68.896713 71.516891
-4.7860413 74.634537 74.300865
-6.5771446 66.594658 84.239159
-20.502628 71.291649 93.443459
-17.016506 69.722931 93.877777
-3.7200241 73.878326 75.179977
-2.5639324 43.314384 55.711021
-4.9136314 74.222404 75.283508
-17.769318 70.486168 94.39534
-13.280659 67.907272 93.02623
3.5427132 70.671646 77.090652
-14.467911 68.595139 93.17897
-12.272121 67.560226 88.497284
-4.4241562 68.207603 79.688103
12.848316 70.363159 70.484848
3.9341011 67.352249 74.368462
1.6253548 74.090363 71.168938
-9.088604 79.396576 73.425636
-15.369312 69.66156 94.899551
-23.325516 72.226593 93.846718
-9.6265068 78.716766 72.194443
-4.8889084 73.861893 71.939011
-20.122486 86.386337 78.307678
13.648792 72.314209 73.707108
3.3217506 65.350739 65.106667
4.1388779 67.033897 66.455414
2.1348114 65.755554 63.908852
0.70995712 66.516518 63.709087
-5.5116901 61.827805 63.769798
-5.6884556 59.727089 63.479717
-5.548584 61.29808 64.791023
-4.8461914 59.698761 65.550743
-6.0359268 58.184978 61.701324
-5.214489 60.764702 65.713509
-5.4947033 63.66983 65.909882
-5.2040138 64.062714 64.89679
-6.02104 65.212082 68.019127
-4.5946712 61.764633 67.970169
-5.5361385 63.064674 67.273636
-5.165062 58.595142 64.123466
-6.839489 67.809601 71.525505
-6.5281334 66.954987 72.310616
-5.6179085 67.162987 67.672615
-5.4818115 64.878838 70.94368
-4.1339073 63.464233 70.955269
-5.0862103 63.479233 69.67627
-6.2865524 65.989845 70.112862
-5.8591099 64.445557 69.151443
-2.9236889 58.549416 66.030693
-4.3726883 65.594322 64.592583
-4.1518116 58.913853 65.684258
-6.8367481 56.83326 59.94635
-5.7824421 56.548515 61.556587
-7.9464073 53.708591 57.287815
-6.0069256 58.399937 57.310371
-8.7647686 49.5065 55.820808
-10.954256 51.50827 52.205132
-3.5813198 61.281158 58.764046
-9.5753727 52.867172 53.414932
-2.7497311 49.15575 59.350456
-1.2640572 57.138947 52.48196
-4.6099682 56.588753 62.960152
-8.6748772 54.341705 52.811398
-2.2545586 59.266151 54.853958
-2.4804153 55.53981 50.071697
-3.3661098 57.11763 52.065678
-1.9932995 58.51424 53.842064
-10.993752 52.416763 50.226742
-7.1699047 52.125511 57.98209
-4.5523853 59.604301 57.256302
-5.2074165 49.309196 58.530708
-4.1173668 57.620129 53.232174
-7.7926292 55.033131 57.545677
-6.9319248 48.221073 57.070133
-5.5317078 51.397194 59.253014
-6.8095646 54.229843 59.086468
-4.6750221 54.207848 61.20636
-2.2737637 51.356678 60.608025
-3.8396339 51.084812 60.020992
-3.6645851 47.761497 58.361908
-7.5859776 54.915955 50.62915
-2.4880104 54.413029 62.520176
0.18759727 55.451416 62.855995
0.57372665 52.513947 60.011658
-1.1413116 52.172661 61.117649
2.9770794 33.654175 48.212227
0.56050777 34.416809 38.647495
-9.9234238 45.455738 35.606968
1.5792856 28.686489 43.541416
2.3957806 37.559654 33.389648
5.1646767 37.894943 32.67926
6.8501015 38.343094 31.23761
-28.841087 14.423317 40.481785
17.2356 22.035667 29.196835
-39.026115 31.338749 35.625751
-14.333435 26.721483 27.166218
-40.576378 14.418957 40.450546
24.224295 18.016916 26.927635
10.764907 32.949627 23.295677
-46.072891 19.413 36.811302
26.487143 19.315163 23.787544
12.217571 32.40554 21.72806
-22.532978 17.862642 18.811058
1.7162514 -0.61676216 7.9332714
17.715855 29.470407 16.933975
-27.313099 8.6891136 27.658987
-27.012074 8.8118401 26.149361
-25.590027 6.5669603 25.092642
23.193865 30.051525 13.575348
24.399803 27.882963 15.984952
-45.617081 14.114014 27.44619
-26.651508 12.137777 13.824523
-14.655848 0.37662792 12.90137
-6.4458485 -2.3077726 11.548973
-6.4481277 -1.611104 11.161403
-21.723043 12.523918 10.707683
-10.153786 5.6221743 3.962595
-41.943371 13.217833 26.135269
-3.4329958 -3.1236248 7.4009037
-2.7807255 -3.7330503 10.26145
-1.9178114 4.271575 0.13063335
-10.267769 45.168777 54.535423
-10.33045 47.288071 54.49403
-5.0132675 41.445587 55.262012
-21.766266 41.897438 45.850365
-15.568573 45.21785 51.138554
-13.186016 44.667435 53.37627
1.3562012 34.271736 50.189167
-5.5245228 48.556602 38.1059
-2.8276815 46.033802 34.874004
5.5857544 32.961037 44.870472
1.1676579 46.982124 41.18388
1.2765293 46.301025 37.84988
4.8358059 36.478043 43.051563
3.7858047 41.377487 36.563217
-1.356636 34.85434 52.300465
-5.0672216 33.619713 52.24559
-8.2103519 48.878834 38.826469
-6.2308922 47.305412 36.113091
-6.8337879 46.026119 35.201981
-6.8964119 35.740623 53.185577
2.1053314 38.476109 36.937195
-8.7631321 25.382618 44.620083
-25.405087 37.567673 45.651512
-25.824623 38.654232 43.488876
-7.689043 47.844322 36.782684
-4.7280626 30.162298 48.600208
-13.989843 27.555069 48.236332
-21.033905 42.951088 39.891415
-28.16111 35.66618 44.824619
-15.809278 27.792721 48.460114
-28.641609 36.059914 43.934078
-7.040678 28.074509 46.498894
-17.906212 42.062111 35.037689
-17.699919 39.74601 31.787161
-25.914433 33.896049 27.456856
-17.078737 22.050512 43.64851
-25.772419 38.510315 35.45089
-24.316872 27.130455 46.744518
-10.282759 23.773136 42.864845
-9.151783 25.993111 45.636093
-33.458584 33.195679 40.439964
-21.186079 22.165216 44.603477
-17.803144 20.572361 41.902817
-36.059933 32.471722 39.322655
-20.927334 18.86974 41.320881
-35.40451 20.607189 44.062313
-38.06678 29.675171 41.727928
-17.819283 38.834038 30.778149
-39.964539 30.199745 26.697054
-46.546265 22.067608 36.976494
-41.103268 29.13055 37.286251
-40.298298 19.612999 43.061699
-42.436562 16.851828 40.932175
-42.554775 30.229063 28.85944
-46.86776 22.84779 33.344009
-31.347279 17.058994 43.430511
-41.782471 29.634233 27.228069
-43.738266 13.643441 34.495262
-12.015087 27.863178 27.967476
-28.512611 12.41398 37.985718
-46.794502 23.02132 35.52578
-30.301292 17.873632 43.845451
-22.056484 22.399395 27.840916
-39.824749 30.585804 36.320099
4.9844131 41.128735 33.67947
-39.50724 13.650206 26.432095
-46.977852 17.505232 33.062069
-44.021416 29.792873 31.200529
-45.489609 27.770309 32.140293
-38.083733 15.461938 41.257866
-40.069748 17.667 42.069401
-47.201424 20.961798 32.178406
-23.233658 16.667103 39.65588
-26.2803 11.922544 36.671959
-27.099762 18.798311 26.813391
-24.566811 36.072643 29.733379
-24.367168 14.320758 38.436295
-36.430538 32.679337 30.980871
-41.119953 31.354412 30.438089
-10.357094 39.258278 30.961025
-12.678013 22.229298 31.317106
-16.012638 25.251753 27.2167
-20.513065 14.106993 33.016747
-19.925388 15.570267 33.098965
-17.059761 20.179417 31.376354
-27.536552 30.396923 24.788872
-15.120274 24.769806 27.763266
-12.231503 42.189163 33.348045
-25.336151 28.684217 24.335814
-7.9938965 39.504784 31.967617
-20.364019 16.697451 31.576412
-14.392626 39.820175 30.789322
-7.2734489 40.966976 32.155327
1.6357851 37.195282 30.081018
-13.549356 25.611813 27.986391
-14.3906 21.529747 30.93582
-21.754471 23.508324 27.163418
-22.158215 19.843908 20.119392
-0.14508247 35.980972 36.765629
-2.459425 41.553066 31.214939
-10.788563 31.054451 28.172562
-11.321514 22.185596 33.381561
-9.0817585 39.093269 31.358036
1.799304 39.450356 29.503546
-22.273384 30.76392 26.352802
-20.227617 20.250635 30.368891
-2.7793398 29.278706 41.907394
-5.3762884 28.178612 45.248795
-19.535854 21.918911 28.820602
-11.02803 40.976936 32.051765
-5.3397255 40.833294 32.11581
-11.268511 43.990273 34.729229
-27.284878 32.026192 26.051235
-8.2833824 31.308655 29.792618
-22.365143 17.018829 29.944073
-3.9755306 28.710022 43.272682
5.3975754 41.42054 31.690365
-16.390678 31.101362 27.142618
-12.892643 33.068279 27.714724
8.5338039 36.912331 29.389574
-8.1813526 25.173525 41.086357
-6.6213379 37.757519 31.986582
9.8848104 35.568573 28.52083
5.7473469 36.40712 30.732483
9.6328907 29.16367 36.209034
13.07057 25.623009 32.50399
5.8788881 26.716063 37.630138
8.367094 30.163162 37.577042
2.5807638 32.782242 39.731461
4.4017334 34.000721 40.44038
5.1125832 34.282951 41.11145
2.7761831 37.128204 28.271694
5.8543358 34.807114 25.750385
6.7972775 40.036892 30.527311
28.501932 18.656414 26.50441
27.450983 17.703995 25.474695
14.07053 26.267527 33.274475
17.218651 31.887323 18.884308
29.386415 19.941158 25.872612
5.514225 40.405357 28.791847
19.41254 28.409382 16.32243
5.9878206 36.277687 25.193916
5.0945759 28.02338 37.240723
4.0866833 37.042603 32.211304
3.7601509 42.332783 35.874825
3.9418182 42.467319 31.749083
4.9316568 39.707718 27.830685
3.9241772 41.263363 29.761543
5.5305891 30.204041 37.421062
4.4166393 32.502453 39.457848
12.692676 28.105265 34.241035
7.2789955 30.186335 37.339169
3.7654953 28.184685 39.410419
5.0558395 27.189306 39.657196
7.1074448 26.683596 40.078808
13.80161 27.224846 36.347954
22.560957 17.701561 26.151079
13.556154 24.132845 32.020958
20.772182 20.402515 26.580086
17.650026 30.432674 16.953476
-0.55765438 29.7374 46.112206
15.887504 24.407293 31.944908
17.683624 30.259903 19.153967
19.108992 21.726303 30.375698
19.207087 19.582996 27.922104
11.405827 24.797709 37.237995
22.704529 20.254234 27.166998
20.799053 21.194614 28.586168
14.33142 24.590509 31.959393
16.906918 23.141716 30.258186
15.163495 25.052271 33.511032
21.696228 30.178953 15.614967
9.956152 25.243753 38.23745
0.93293285 31.919363 48.588337
5.5607872 30.585926 44.036575
8.0780249 26.804558 40.203545
11.164777 23.346645 34.33506
11.118737 23.487856 35.688946
8.4786625 28.279573 41.050732
-14.844471 -0.52253342 13.276031
-5.8805485 6.7509379 1.6511908
-16.63839 9.1105165 6.2141838
-23.289948 9.0651865 21.887913
-24.985989 10.233482 23.625618
-25.628716 14.598417 18.708885
-24.236938 13.176875 17.072325
-27.503906 8.8809299 31.581068
-28.89896 8.9443521 29.540648
-24.638199 15.641329 18.878872
-20.205301 6.7806768 20.174524
-29.6026 10.206656 27.810246
-19.154995 5.2203102 20.789192
-22.479572 2.3421068 17.027393
-18.329105 7.8795795 6.8732204
-16.771107 7.8143797 8.7013206
-22.600235 9.1194019 21.806097
-24.887119 4.2230225 20.419079
-25.027412 4.7974415 22.50926
-22.936741 13.123185 16.463615
-23.862282 7.5649629 28.036438
-24.636303 8.4371672 29.999935
-21.612686 12.440596 14.036407
-19.67498 3.9517756 21.204523
-26.396416 13.784223 17.171978
-20.641869 4.8701663 23.541233
-22.849953 15.68365 14.070251
-26.877602 15.579549 19.648754
-37.728271 12.91068 26.762119
-1.2009754 4.9337769 -0.26453781
-7.6993198 3.8386297 1.4903393
-23.920967 12.073974 10.957927
-14.402157 8.6844244 7.0438752
-11.638559 6.5995617 5.2339363
-23.528908 13.315553 11.652048
-8.8708534 3.9786682 1.2796211
-17.449539 7.355155 8.4363461
-33.639694 10.75338 28.847723
0.76852894 -4.1264782 10.309126
-8.1267204 6.6039753 3.0133147
-32.864861 11.847907 27.494396
-34.013966 10.107522 29.917076
-42.109497 13.24909 28.529512
-40.147419 11.920344 29.025959
-36.205002 14.343213 24.426086
-38.641121 10.65416 31.515444
-37.923397 14.589107 24.282394
-42.119499 12.231624 31.438778
-40.324455 11.390397 32.974808
-46.571526 16.260969 29.528732
-45.287903 14.18119 29.83391
-23.880653 16.097214 14.114189
-24.943832 15.902981 14.18012
-26.821957 16.998299 15.507404
-41.438591 21.282421 22.908779
-22.003059 20.937851 20.078249
-22.445335 21.146467 22.923935
-40.17334 22.776329 22.496775
-34.941017 18.411285 20.621315
-47.136528 19.256382 30.55872
-27.939888 18.132153 16.378246
-29.336246 19.121326 18.304077
-8.5957069 67.089775 86.551727
-7.0293808 68.275604 82.116798
-6.9885178 68.729691 83.43071
-8.381546 68.849434 83.391472
-11.0924 67.362389 89.958115
-10.774029 65.997581 89.310921
-11.694023 65.95285 88.393158
-8.7140198 67.555183 84.548424
-6.2692986 67.662552 84.247749
-8.3828278 68.198059 83.33445
-7.0417633 69.563286 82.375725
-7.2593193 68.388367 80.439445
-7.1904564 67.135925 84.758675
-7.790226 69.533745 80.225159
-13.196419 80.949135 72.891373
-16.031296 69.332245 94.272766
-13.260265 79.874283 73.594727
-13.221531 81.163895 74.104324
-15.487873 83.412857 74.635445
-15.277679 71.417618 96.828491
-14.583218 82.462799 72.814308
-15.3895 72.04026 96.297447
-8.9773369 76.818092 70.271614
-9.1811447 78.550156 73.435654
-19.231632 89.390976 79.03363
-12.833836 79.418785 74.068718
-11.74527 80.432533 74.101578
-10.95903 79.556198 73.555908
5.2609138 66.00901 72.362305
-5.7603683 68.835739 74.668167
0.10084152 66.800034 76.014977
-4.9852066 65.367943 78.76786
14.370132 71.917732 72.87027
-3.7705727 73.226982 76.528122
7.6738396 73.365799 72.628006
4.8162117 70.78476 75.649147
5.7351227 72.315659 73.223152
-2.6988525 65.751343 76.187065
7.4067116 67.930916 71.709587
-6.3964653 70.562218 73.063095
-1.8273621 68.082092 78.388519
-4.7095261 67.366135 79.087677
-3.1331253 68.599632 80.685074
10.284573 69.328499 70.868607
-4.6774101 68.953461 82.139053
-3.5051651 65.92897 77.646133
9.7939377 69.562675 71.874329
-8.6299458 44.39629 55.013412
-6.1660156 67.153656 69.080147
-6.0603065 42.049366 55.204437
-4.6724854 44.373394 56.258411
-0.83315277 62.827858 71.85276
-6.5670395 67.031494 82.630905
-8.1951408 46.458511 55.681797
1.6469326 54.078747 59.143257
-7.5156727 52.967667 46.089535
-4.2927265 55.654415 50.08979
-4.0251999 65.683678 74.995636
-19.859314 88.585358 80.231552
-8.9775887 68.734261 85.207047
-10.722748 66.120224 87.564987
-11.410725 66.20919 90.101624
-13.544704 67.88588 91.041428
-7.685524 68.987236 84.24086
-14.626354 69.326416 92.944687
-5.3188553 67.855644 81.911064
-4.4150352 68.591728 82.401077
-19.012363 87.874001 79.134811
-17.699772 83.809143 75.152771
-5.7670326 65.514458 82.741852
-5.8861847 65.853714 80.336792
-7.046463 66.293106 84.337097
3.6152458 43.167046 34.026554
-20.902174 19.514156 31.127815
19.286785 21.27096 27.817701
-9.68437 7.539813 2.4806576
-9.4426918 27.923035 47.535172
-23.7644 18.213511 29.432489
-36.89333 10.160211 31.007092
-4.5406961 28.303909 41.669189
-5.254137 27.475821 40.221283
2.0418663 41.087769 30.388433
21.768829 27.797222 15.057818
-27.03764 15.641771 15.636729
-4.755497 69.841766 79.730133
-6.6615639 69.054962 79.105545
-6.6964722 70.158524 80.674889
-12.365772 79.787422 74.776985
-4.8162918 66.061989 73.930916
-24.194263 30.09959 25.697498
-8.2785187 68.382111 85.809799
-10.235262 53.155701 49.494102
-17.536049 42.814499 50.194706
-17.518391 44.173054 49.55035
-5.8232403 46.149117 56.75919
-5.0429115 46.366901 57.141602
-15.180069 43.291359 52.212845
-11.738985 49.611412 52.857594
-6.7793007 46.427147 56.446762
-12.0653 50.064655 52.12875
-14.487686 46.85955 51.689453
-9.675436 53.375023 51.405281
-9.9129047 49.115269 54.711842
-9.3913174 48.268883 55.139423
-15.030922 47.057655 50.892555
-13.329281 46.569077 52.932228
-9.8993435 40.092236 54.174267
-4.0255985 46.014359 57.222343
-16.305717 43.368313 51.173595
-9.6193752 53.524418 50.85659
-10.295977 49.801498 54.257706
-13.362783 42.65691 53.46949
-10.164577 52.722382 51.753822
-9.1025639 39.311932 54.266373
-13.859745 42.904636 53.186066
-3.6211433 45.368622 56.908886
-2.9052906 45.830261 57.265644
-13.022579 49.954674 50.876633
-14.476028 44.951126 52.365177
-16.732414 46.305565 49.167137
-12.768946 42.272728 53.717377
-8.8160648 54.128708 50.208897
-8.2229538 42.683685 54.789017
-9.5498333 45.815506 54.868805
-10.590038 52.483707 46.811699
-6.8369961 49.807835 57.577766
-16.808807 45.069843 49.833561
-8.7115173 54.043343 49.283363
-8.452673 47.960239 55.836166
-11.116135 52.562027 48.02618
-10.490015 52.718384 47.25082
-9.6118469 40.995903 54.310303
-7.3276043 43.223591 55.130714
-7.5600662 47.25386 56.293945
-6.6221962 40.560833 54.870174
-10.855101 52.632965 47.56414
-5.319191 43.226448 55.674156
-4.6304016 42.6357 55.616108
-11.749662 52.058395 48.93961
-6.2911243 43.434196 55.499908
-11.677895 51.462513 50.865189
-6.0055561 40.324001 54.926006
-7.5557995 49.874588 57.000717
-14.931253 49.314465 49.001938
-13.489164 38.487667 53.037037
-9.2259636 52.199074 55.067833
-8.3830242 45.420708 55.346199
-13.400335 50.127571 49.976036
-10.237286 52.175346 52.686455
-12.008488 45.208302 53.895702
-10.102907 51.718288 53.549622
-11.659695 42.437778 54.030327
-15.662937 46.386826 50.472076
-15.831646 41.089607 52.116695
-8.8080158 38.368248 54.177452
-6.9352512 50.576363 57.720646
-12.282234 48.650593 52.886711
-9.3139057 46.878342 55.090759
-11.689871 47.77702 53.614086
-12.715038 47.521858 53.025043
-15.645367 48.722946 48.708359
-8.8361893 51.184799 55.757301
-14.528318 39.0116 52.835598
-8.4137383 50.472389 56.23381
-9.3527527 43.72509 54.682114
-4.3024311 42.043274 55.448528
-9.0263882 41.921215 54.522591
-7.6363907 44.541393 55.421413
-14.582283 50.053871 48.34383
-10.332975 46.264301 54.512505
-12.60442 45.673241 53.552864
-9.6580429 51.907749 54.309658
-7.0487309 41.55957 54.901737
-16.331703 48.321915 48.089195
-12.346191 40.755394 53.74501
-11.199928 45.834812 54.146191
-10.966619 49.720516 53.597294
-11.111502 44.569042 54.250763
-17.244667 46.390728 48.463177
-13.123932 50.834663 46.028038
-14.538219 40.043159 52.990147
-10.216475 44.058144 54.49556
-14.576738 50.315411 47.546494
-10.720436 41.989967 54.202938
-7.4364281 45.580811 55.830193
