# .PCD v0.7 - Point Cloud Data file format
VERSION 0.7
FIELDS x y z
SIZE 4 4 4
TYPE F F F
COUNT 1 1 1
WIDTH 1590
HEIGHT 1
VIEWPOINT 0 0 0 1 0 0 0
POINTS 1590
DATA ascii
13.714993 13.670911 47.345444
-2.2193928 22.760302 40.87804
1.095582 21.360977 40.523968
17.279285 22.702253 45.562714
-6.6960201 17.413368 46.342659
0.0058488846 26.853502 40.644699
-5.5773907 28.750319 36.957825
-1.1796579 14.839235 48.54192
-3.8541946 30.420599 38.168591
-1.5496702 30.286831 41.8395
-1.6033354 24.807695 40.293053
-2.9125042 20.863527 41.293034
10.754305 30.356043 46.64304
-1.9998093 29.025497 41.149246
-4.2201738 31.962622 38.242149
-7.9511204 28.001387 36.589104
17.725874 20.979467 45.506649
7.9716163 30.448009 45.165924
-2.8482399 30.480967 41.675571
-1.9016361 26.599079 40.557014
10.895699 28.876141 44.47588
-4.445611 29.497215 37.430443
15.212786 28.66758 47.837818
-2.8050127 16.729136 45.834301
-2.1402826 17.720543 43.731968
13.219102 13.018153 48.150093
-4.7346401 18.730721 43.731426
-4.0371838 15.946691 48.261211
2.3960776 14.080339 47.98597
-0.89282322 16.121517 45.710819
4.632699 31.720877 44.431496
1.422699 32.385994 44.463661
12.404669 27.156248 43.6721
-4.0740623 17.780499 44.611572
0.53266621 17.743254 41.833477
15.929971 13.540403 47.622372
-3.824563 29.484055 41.432747
17.757813 10.249327 45.135174
25.227131 15.723155 34.209244
24.442696 5.6125135 36.840557
24.874424 24.598318 46.508621
17.217201 12.622179 47.105705
21.451506 21.900875 41.340744
21.571157 24.213428 43.181057
23.867163 18.141279 45.916927
21.275494 13.202063 47.962753
23.11515 12.476447 49.103626
20.431753 21.298229 43.693092
17.914925 17.234268 46.227676
21.110979 18.373703 46.369415
22.377188 16.739498 47.680748
20.447834 16.40008 47.249371
27.142157 24.148279 50.705006
21.260645 22.873045 42.074661
27.113472 23.067787 47.887302
19.83852 13.912527 47.552326
27.559811 15.366593 29.592123
28.988665 14.16988 25.31036
26.936882 17.398449 28.615614
18.297842 6.8590193 40.845516
24.495398 21.569317 37.453861
22.858091 19.668255 37.508389
18.524002 6.3399377 39.364338
19.02866 5.371243 40.352654
23.367952 24.255737 44.336395
25.917847 17.097164 37.893116
24.231625 16.473221 34.463398
26.255943 18.865789 44.80864
18.932777 7.5787439 38.801914
28.859678 16.829685 26.636971
19.042053 10.231612 42.562801
28.355066 16.141453 30.991476
26.583609 15.770349 30.529118
25.215557 18.234444 43.953651
18.228172 11.671413 46.20607
25.712521 17.741091 39.935265
22.73621 26.802143 49.075737
23.357719 17.797935 35.550911
19.389723 9.1933651 40.572998
22.960907 7.7894073 42.053772
22.841448 8.8499289 44.689201
21.253815 8.5109215 39.566116
19.739376 8.1871691 38.489639
18.774183 11.123484 45.235126
25.229107 18.626633 31.307634
18.868526 5.7953129 37.145687
18.508287 8.2101192 40.469738
23.040504 18.629402 38.27034
24.804264 19.860298 32.403637
18.963499 5.2423258 38.515102
20.828278 5.1998796 34.13036
16.068867 10.626196 46.659355
27.856155 18.221689 30.43096
29.143562 16.845592 33.685932
26.262766 17.954674 30.119316
17.083191 8.6923733 45.05761
26.53487 19.120255 31.41688
24.588888 16.63187 32.189278
24.789032 17.329329 38.02166
25.940331 15.685247 34.953701
27.72715 17.608082 28.470627
23.617573 18.053207 38.173355
21.770393 7.4321408 35.50658
21.530352 3.6166096 34.355324
19.736736 11.553484 45.762363
23.342411 7.3965855 36.293522
20.481747 8.567997 39.332535
23.751846 18.389364 44.660694
27.386494 15.681295 31.233206
25.447271 15.835791 32.408363
21.028194 6.5821962 34.76561
26.48447 15.273015 34.012199
26.938021 20.004608 32.743347
21.727325 7.8562322 36.440197
21.865086 19.920679 42.56102
28.495752 17.741852 30.68639
23.817024 20.090775 34.616444
24.21295 16.422371 33.365093
26.277044 23.78804 46.69173
23.598509 17.769638 33.393948
20.571285 7.6000757 36.057945
28.795944 16.973293 31.054728
27.97526 15.657104 34.161263
29.388885 17.867897 33.194977
23.987961 18.372562 32.337223
19.45998 6.9619408 36.617233
22.129707 20.055832 40.589996
24.700478 18.08003 46.653038
28.72839 15.883375 29.508114
24.256927 1.1290035 23.516428
29.491241 16.083872 25.768631
29.406778 16.031704 27.501701
27.519176 20.671356 40.113594
27.262108 14.920472 26.370876
29.192957 14.84499 26.47884
27.543184 16.052731 25.39443
28.531988 16.395319 24.995159
27.223669 18.772324 40.588844
28.399021 19.367859 37.565281
26.866228 15.720596 26.732571
28.188793 14.202518 25.326546
26.691898 22.849052 44.745533
28.213432 18.623482 38.1562
27.976112 20.157906 36.843246
29.203037 18.526745 34.894833
23.096798 7.3475661 43.402363
23.015436 22.070757 39.982967
22.292423 22.73134 41.333359
28.898926 19.011635 33.985146
22.074209 5.7941093 43.957317
23.613705 5.7619057 41.256268
25.68519 23.140255 43.667194
22.808949 6.5213299 43.991337
28.046028 17.727959 36.994392
23.033745 4.7386742 40.78339
17.508814 7.9837093 45.518013
27.421844 20.458359 35.463184
25.078024 22.208281 39.283348
24.410416 2.2269497 30.376343
28.182972 19.290569 32.718754
26.521887 20.477018 34.034668
28.897232 18.048265 35.935337
22.695499 2.7130709 28.575048
25.730539 20.217625 33.108185
23.627953 6.476511 39.72596
26.195124 -0.62891579 20.438889
28.222229 14.117996 23.251822
29.383585 15.648943 23.563669
24.778051 0.35626793 27.024509
35.098759 12.556477 16.731682
29.756176 14.377581 24.10293
22.276392 3.9493823 31.002815
25.841652 0.17477036 21.543238
28.025656 -1.4521503 19.082836
27.515141 -3.4261189 20.960648
24.859135 1.9241257 28.198238
30.583406 -1.5519581 20.723665
23.598377 1.9065762 30.548344
22.179365 3.1949387 31.708004
23.789173 2.0614061 25.667416
29.614141 13.05632 18.070045
25.474751 0.29512978 25.811338
23.413002 2.179842 31.943645
26.062387 -0.99320412 23.618555
30.981562 13.998641 18.644115
26.795631 0.087163925 22.124184
24.91836 -1.1776247 23.637894
24.428703 -0.20317078 26.004004
24.492144 -0.21885777 21.808804
29.640024 12.687843 20.602091
29.841196 14.9263 21.791941
25.564121 1.289175 25.228962
28.609482 13.674244 21.960785
23.8631 -0.12568855 24.150887
23.767063 0.60891914 27.894938
30.834354 13.770039 21.293346
22.981533 1.5097084 29.186367
31.686533 12.172336 19.170448
31.088625 14.067253 20.047638
32.953354 11.678423 18.322662
27.540266 -1.0759258 22.032858
32.509789 10.38158 16.047455
34.880913 9.8361931 16.897564
35.883949 10.941916 17.634556
22.745132 1.6685047 28.060272
23.48782 0.90418148 24.612785
35.504715 11.958012 16.399187
31.107359 11.649887 18.816322
32.256207 13.612989 17.699699
30.488785 -1.9570999 20.074791
34.460819 11.044843 15.859871
27.681873 -2.1018229 19.226677
32.327324 10.534039 17.893555
34.557739 9.9473705 17.775177
27.385193 -2.0031824 22.136829
33.519394 13.14454 17.489185
30.453405 12.899988 21.293991
28.244862 -0.52744102 21.016088
30.782814 -3.313118 21.253918
30.176737 13.787928 18.145882
29.827343 -1.8135252 21.413391
26.561707 -2.8046417 20.564724
33.194572 12.482251 15.686485
36.590191 10.281456 17.047976
25.533653 -1.5328741 20.817221
30.685415 13.04438 17.044333
28.741571 -3.4044018 21.435568
34.052509 12.336479 17.864239
28.374098 15.855406 23.987282
24.477669 2.7077413 28.376467
23.841072 -0.081679344 25.369184
30.180904 12.02223 18.42741
20.97497 4.5599012 41.017296
15.669472 8.8789673 57.311958
22.185211 6.7218499 46.171303
21.208321 6.734242 47.530495
15.620022 8.9623013 47.861862
22.829063 7.4010038 45.556847
15.060913 10.025385 47.852207
13.072161 9.9742603 52.533253
23.46752 3.2315874 34.219429
23.967537 3.9464302 37.851463
22.709044 8.7256441 49.400848
19.819561 5.9023643 44.980881
19.909983 6.2434545 35.26474
18.335672 7.3857436 46.329151
22.982155 9.390336 49.156281
21.851589 3.4337268 35.985912
16.804453 8.1602478 54.179394
12.760865 9.9856968 53.737103
14.929422 8.8764801 55.817192
21.111639 7.7129555 50.880798
19.327269 7.0793471 47.55526
22.974621 3.623208 37.86964
17.427341 8.0288048 51.369209
14.52055 9.316083 50.584965
19.319092 7.8043528 52.566044
20.026548 7.2320032 49.816143
-12.106682 21.912447 38.255898
-11.972347 29.84071 25.308174
-19.222687 20.536264 31.938551
-13.729542 17.07494 37.227432
-15.134544 29.715525 30.015518
-15.116726 18.826088 25.31472
-15.91633 16.742855 25.957745
-11.049515 23.403149 40.779236
-12.521568 15.008363 17.869146
-17.197132 25.147285 39.453636
-7.8613815 18.511036 42.748703
-16.220192 27.529818 22.796715
-9.6651077 19.412598 39.28278
-9.7721596 17.855858 39.596931
-13.328436 12.503381 16.359077
-16.952663 17.80291 20.776876
-17.713007 17.456301 21.152636
-14.851185 13.686949 17.963036
-19.189564 18.015383 23.220243
-13.611044 19.865753 30.840412
-13.914154 12.660419 13.673544
0.62873268 20.154966 4.2833304
-18.655327 18.544016 22.580561
-11.229427 28.310783 25.649303
-18.147053 18.760977 36.450367
-14.885609 14.277523 15.694018
-16.308638 27.877916 24.185982
-10.934214 27.847614 27.9867
-11.406622 28.739872 24.78702
-10.667183 28.211115 30.900658
-10.321472 28.77318 28.490822
-17.966148 18.563038 38.462616
-17.407537 22.094259 34.890396
-18.53381 20.964798 34.420815
-18.669491 19.522144 38.667702
-18.470646 19.125757 35.068268
-18.640644 21.655815 37.945847
-13.156788 22.792116 38.2276
-14.826721 22.716419 36.287239
-15.828566 28.977427 27.662096
-10.88205 17.062492 39.961624
-16.353292 22.653915 35.388046
-10.535019 28.174809 29.7048
-11.620619 20.564438 37.378136
-10.388273 20.834627 39.177399
-11.508133 17.652056 38.114006
-16.994461 23.223152 37.892757
-12.336283 25.105776 16.139357
-15.043936 23.697721 38.140232
-18.280209 21.309103 32.500404
-17.086231 22.724722 36.86721
-11.291777 18.880814 37.362823
-13.33934 15.59481 16.173351
-9.3537331 22.3622 9.8071423
-14.303034 12.777146 15.130138
-11.785091 14.303507 14.501966
-18.075392 19.168549 22.703144
-2.3236361 20.16288 2.9702458
-13.957077 15.189774 15.338234
-17.072487 19.599751 23.239218
-14.023666 13.647877 18.49061
-19.395546 17.521181 26.196215
-10.659483 24.053867 12.454106
-6.0649109 9.870615 6.9351358
-12.886612 11.330146 13.633728
-12.489628 12.985514 16.925653
-16.808048 15.902495 22.783787
-13.807018 14.457527 19.750525
-12.320587 27.350014 18.050175
-18.160097 16.7507 22.426079
-14.859226 26.068308 22.026485
-11.656376 12.069746 15.010481
-15.684425 14.665766 18.378441
-16.163481 15.789524 23.231188
-5.69065 5.8196011 7.255692
-14.264771 17.371361 20.674801
-16.829792 16.40757 25.719421
-12.481541 14.395294 18.110199
-16.64584 15.679588 21.250744
-14.080828 15.725174 21.372864
-16.939478 16.161982 20.019306
-15.137732 16.776217 24.136993
-15.245039 15.895235 23.065245
-13.179008 25.190184 20.408813
-13.090466 15.812079 17.680468
-10.800751 13.04598 14.076321
-13.221581 12.55242 12.309841
-14.996643 18.068577 21.216707
-13.906021 16.43792 20.927454
-15.396566 26.852766 20.549789
-11.127632 12.745026 15.030169
-14.185282 16.523464 18.075026
-4.1481819 20.041485 6.9643278
-15.097466 14.48106 20.259113
-10.962854 10.218234 11.898041
-11.81344 12.562346 10.985794
-2.5039072 7.1716313 7.5512023
-3.8797474 19.203674 5.0041323
-14.982655 18.653656 23.251099
-10.8444 25.276966 19.032984
-14.880928 18.06543 24.04797
-15.992172 16.659323 18.861801
-11.898516 25.653023 21.163063
-3.2532387 19.254507 5.6912918
-11.088984 26.344273 20.350512
-12.538313 25.154205 20.815466
-7.8957424 24.739824 11.597879
-10.081196 24.246763 16.728601
-14.933657 20.595203 28.956343
-9.6071281 25.673523 16.717285
-13.49667 14.049839 13.55938
0.32264519 18.098349 4.5485277
-10.942774 27.011187 19.827578
-12.225723 14.141107 13.253807
-11.654495 27.231939 22.979433
-13.319927 21.313538 35.138107
-13.143013 18.750076 31.077484
-7.5308838 6.7335663 7.9396687
-4.0347042 19.669779 4.1702976
-11.693321 25.097286 14.590435
-20.041256 22.061514 40.045586
-13.311209 18.082642 30.733717
-12.16678 19.672728 35.402
-10.546444 12.903947 12.146868
-7.3022461 10.299095 7.3721733
-9.3625488 22.481367 11.84296
-8.944252 9.9417982 10.712556
-15.17725 16.738377 31.196163
-12.917191 17.400942 36.862495
-10.026745 12.121821 12.021362
-15.160454 16.878401 34.292984
-11.588766 10.39494 11.131028
-13.730965 21.955076 35.897926
-12.310589 18.439899 34.672493
-15.940449 17.201748 35.565968
-15.985756 17.940695 20.7591
-13.662384 17.479485 30.9702
-11.664909 28.131683 21.961344
-13.697723 16.79739 38.87112
-20.16399 19.230244 26.474468
-15.544342 26.750999 24.057224
-13.927898 26.409634 18.999622
-8.0412788 8.8609962 9.7139854
-14.781059 18.547646 27.376823
-13.238564 11.78378 12.791655
-14.232353 17.092367 31.098297
-13.935329 25.843653 23.330597
-0.89362049 21.043768 3.2416248
-12.22147 17.985468 36.346649
-15.023895 17.041525 36.94511
-12.71118 20.457626 34.89801
-19.948315 20.053865 26.91116
-17.380535 21.67061 31.853893
-16.974062 21.416254 30.120987
-14.609558 16.844082 44.683273
-16.686581 20.46319 25.590477
-18.440434 20.847553 26.536369
-17.936501 20.387125 24.956947
-20.085217 18.757294 26.807922
-17.829296 18.01403 34.613636
-15.529634 19.65856 25.168514
-14.016865 26.457594 25.539989
-15.560574 27.829699 26.127834
-15.726231 20.782711 28.065466
-17.311279 17.32115 32.860962
-16.949978 16.833548 31.136211
-14.593531 26.941868 26.016178
-17.861736 16.679068 25.799898
-13.19739 26.326321 25.646748
-16.091698 29.00139 25.473526
-17.401409 16.888508 28.289583
-12.479172 26.044062 23.144611
-19.521441 18.597853 29.869051
-12.264145 26.807669 26.913246
-18.997488 20.966242 28.849255
-18.864691 17.920925 29.905724
-9.4044323 22.941874 9.2870102
-13.719168 27.399052 19.134167
-1.0609598 17.526012 4.5115285
-4.8448296 9.4793358 6.2745762
-0.70981121 21.200695 4.2253275
-7.2760944 6.5160084 6.8722115
-5.891675 9.1556959 6.0683904
-10.517345 9.409461 10.207325
-11.088032 10.091208 9.6189461
-7.5151062 7.4909644 6.3693223
-9.7530155 11.925556 9.9412498
-10.520029 23.505768 13.845071
-10.146523 24.692619 11.832872
-7.8442554 24.566826 12.569268
-11.621582 11.476921 10.110743
-10.095287 11.412466 9.0331421
-11.539602 24.172993 15.180441
-6.1505089 20.778774 8.6386242
-8.3864861 22.746296 7.3854489
-15.265049 28.6042 21.593819
-7.0940685 23.262554 6.2865229
-5.9594765 6.5502367 6.5450006
-3.8257713 22.160366 6.684516
-6.2310638 20.708925 4.7191696
-4.0336418 6.462286 7.0280366
-5.6968412 19.652866 5.9146552
-7.7886372 23.849632 8.0315971
-4.4012413 8.7573843 6.1442671
-6.8761711 6.915617 8.8219357
-7.3272419 20.905121 8.5125122
-2.9225464 7.5138025 7.0413342
-3.3103161 7.4995985 8.3414402
-6.3193607 21.851421 4.7398701
-10.817905 10.512687 8.9686909
-9.7955647 9.7945709 7.3287034
-5.6468534 9.6258564 7.7012081
-6.7926445 8.1721458 6.037179
-5.1843052 22.30352 4.5413971
-8.7116661 10.849753 10.514082
-10.215919 8.9362659 8.650115
-1.6214895 18.202381 5.1448598
-9.2663574 11.717604 10.466746
-10.301201 23.555374 15.052034
-3.8680992 6.0274792 8.1999645
-5.4951315 8.4710751 9.1383371
-11.811354 26.516083 16.226641
-0.43852806 17.934605 3.9798222
-6.6742859 9.8956242 8.843895
-7.3916874 9.5198021 9.5393467
-7.7728634 11.192623 8.8056335
-9.6684704 9.3469982 10.512733
-5.2465143 7.4514723 8.9103041
-0.97756863 19.895767 5.856781
-8.4255257 21.539906 8.9519682
-3.4961023 8.5948296 7.9386835
-2.9170876 20.565907 6.4181232
-2.8297443 19.78804 6.211556
-5.1769724 19.550322 6.5600805
-3.4914513 22.154243 5.3724575
-0.28310013 20.511232 5.221508
0.02895546 18.751316 5.3231082
-9.2832203 23.912872 9.8271675
-14.592808 30.13633 25.551315
0.13292694 19.91964 3.3290257
-11.168896 27.333019 18.658943
-16.408815 28.929976 23.335926
-2.6837416 21.560562 4.3115497
-6.9184208 22.076687 10.463034
-8.141655 24.663763 10.553242
-10.698788 25.825308 14.204472
-8.4824734 23.095409 13.433167
-6.3280907 23.663912 7.1705465
-8.3511124 24.619825 14.132328
-7.3066597 23.229706 12.022196
-6.2333755 22.930092 10.025894
-13.494019 28.37149 20.256615
-13.751839 25.65263 19.689758
-10.905266 27.004787 17.414318
-15.326527 27.771873 20.418373
-11.921545 27.732203 18.954853
-2.7030277 21.451315 5.8679628
-9.3684349 25.727896 14.747469
-4.3149223 22.258162 4.701292
-6.7629719 24.06846 8.9035206
-7.8665237 21.953409 6.3876543
-12.642937 28.76543 21.678804
-3.3148022 21.125601 3.7474217
-20.072586 20.322836 42.55558
-17.923748 28.062355 40.081963
-11.517422 16.565575 46.837559
-17.616135 23.743027 38.721375
-15.950787 27.59013 40.221245
-13.78219 25.342346 40.56443
-25.477501 23.764511 47.079861
-8.9747276 16.894268 47.015987
-24.342159 22.415028 46.927963
-15.367752 24.339027 38.919884
-14.682201 16.82663 46.853172
-11.899673 16.868916 40.439522
-16.254484 17.154522 41.936363
-14.776535 16.847237 41.351273
-10.160748 16.770519 45.763676
-12.610279 23.696836 39.808815
-20.678299 19.565554 46.158943
-12.91745 28.466429 34.302597
-16.307194 28.66489 39.459038
-9.955658 27.217234 40.868465
-15.419973 30.688187 37.118561
-21.219448 27.900974 41.173542
-16.282295 17.365675 44.780518
-20.460278 21.453625 41.467461
-18.225014 18.430954 44.521759
-16.318493 29.756931 38.527138
-26.620544 28.037243 45.847084
-19.493292 32.418377 38.754162
-20.899639 22.821157 41.003128
-19.377901 19.262995 43.766205
-11.200432 16.853146 43.957512
-16.849323 31.697445 37.560646
-12.92207 16.706045 45.635624
-17.303242 26.647228 39.89476
-18.897125 25.871918 40.094067
-19.325424 27.62788 40.451454
-20.253204 24.498728 40.384094
-13.939608 29.505888 36.264633
-22.533825 21.096394 45.689888
-14.477821 29.135597 37.820381
-11.509369 27.898308 38.239056
-17.539206 17.721243 41.656349
-23.573944 23.501678 43.786846
-23.883007 22.682854 45.049992
-13.28434 28.764828 36.805008
-12.483437 27.90521 39.372612
-24.906784 27.373894 43.884277
-26.153542 25.039425 47.942245
-18.709618 29.26156 39.859375
-18.97365 24.089334 39.514191
-27.131409 34.850269 47.69606
-27.33704 32.250237 44.442898
-27.807701 32.863541 47.347439
-28.968109 33.404419 47.139076
-27.238777 33.693161 46.829132
-27.996922 32.909046 43.989914
-28.489285 33.58926 44.949219
-26.507946 26.035204 52.067051
-25.412128 24.541204 53.903034
-17.924145 19.033142 51.013905
-27.192986 29.531591 46.433456
-27.793579 31.378252 49.363441
-26.566345 34.585415 47.125687
-27.55011 32.215225 47.32708
-27.958527 33.092247 51.854229
-27.987373 32.024109 50.893093
-28.63002 33.550224 49.149651
-26.493507 33.073555 46.074635
-8.9482231 31.150581 32.456009
-14.560291 39.858032 43.904854
-15.654385 32.010391 36.671608
-25.657333 37.019318 49.309662
-12.287176 38.168327 41.582546
-20.239592 33.714783 39.220028
-28.595833 34.427177 48.781715
-22.101265 39.228077 46.780121
-27.675777 35.29285 48.680195
-23.971317 38.685104 49.266018
-14.483324 30.673859 35.560104
-17.666134 33.533997 37.830666
-10.641842 28.171608 32.287804
-11.232723 28.095669 35.880524
-14.563965 30.034271 32.273804
-5.3354216 31.763477 36.31562
-20.40135 40.767616 48.884285
-14.363417 30.533981 34.391514
-13.109837 40.548058 45.911179
-11.167477 39.782181 44.902992
-27.70393 34.663116 46.942204
-24.573616 38.36377 50.648102
-4.7068691 33.414742 38.905716
-15.61058 33.425343 36.847347
-24.577747 38.208221 52.130116
-10.286232 40.368164 48.625259
-11.998802 40.77655 47.396046
-19.457417 31.117605 39.131618
-21.303448 29.242004 41.005638
-26.934921 35.843296 52.383785
-5.8440065 36.86734 43.419853
-17.58465 41.76395 49.753098
-9.2364616 32.829315 34.53421
-17.265341 35.996246 39.426769
-10.030678 36.290363 39.322609
-23.779549 33.091545 42.586327
-15.57431 36.833679 39.785728
-8.3303452 29.190914 32.348061
-10.093794 30.806089 30.06768
-8.7682571 29.951145 31.827282
-9.7153072 29.716799 30.071915
-23.71579 38.502617 47.669617
-9.9934311 37.999557 42.082466
-23.012413 37.673225 45.893806
-11.393734 33.868481 35.186909
-14.942854 30.648705 28.76285
-19.602661 37.640884 41.996208
-25.150444 36.195038 47.376003
-20.094212 35.312511 40.141861
-16.596855 35.002537 37.87558
-14.771156 38.560017 41.717834
-13.008299 31.241638 29.272598
-10.973879 32.219166 31.15996
-12.583134 33.808228 35.045204
-10.43121 33.298248 34.522408
-14.281738 32.416603 35.149944
-9.5939999 32.174965 32.940102
-12.438995 34.505192 36.334621
-15.178564 34.372581 37.19178
-14.388599 35.559631 38.017841
-13.464319 34.014599 35.997219
-13.53162 36.541183 39.104977
-5.6347475 33.741631 38.101501
-7.4918823 31.960106 34.611126
-14.601025 30.95899 31.433792
-21.304379 34.525589 40.531136
-21.715824 36.560368 42.617088
-14.145824 31.937992 34.104248
-17.883415 38.602245 42.314507
-6.8362923 30.476809 34.224171
-20.404238 39.475246 44.6278
-6.3703117 36.198936 41.405075
-6.5496025 35.435364 39.595638
-8.7348995 32.112373 33.839973
-5.6786156 30.202835 35.293274
-11.098494 34.268955 36.100563
-16.373598 39.335808 42.981808
-11.832722 32.723236 31.576466
34.247391 22.703793 70.664612
28.225098 14.259976 65.139725
37.150337 16.488434 90.107544
31.830482 19.757496 63.727993
27.125519 14.152596 62.842518
35.170425 23.462585 79.902405
-9.9016037 17.856403 55.479755
10.847282 26.490768 66.117752
33.045681 23.405125 78.031158
36.875916 16.233356 100.77245
36.89642 22.346821 75.491203
41.957458 16.405296 82.654495
39.024426 21.681808 78.110161
34.194168 15.813872 74.795639
30.22784 18.397152 61.695652
37.519096 21.392904 75.156319
37.465851 22.757866 78.07579
32.890289 15.998793 104.56898
35.713383 20.05312 71.572823
27.351101 22.049992 117.68811
40.243721 20.415934 79.037804
35.209351 15.964302 81.031143
39.855167 16.709026 80.020607
33.90987 23.127048 80.759178
39.726105 18.085867 78.692223
35.540508 19.370527 100.55933
35.139732 15.631613 77.493591
31.997667 14.79938 110.19254
37.740067 17.690498 99.396957
27.199373 21.613609 116.53758
38.709633 16.106113 79.710114
39.453297 22.219296 95.691338
35.378082 18.967422 100.2439
35.770184 18.246525 100.83222
32.625214 15.282358 107.34241
32.023293 14.750356 112.47884
39.647133 18.031706 96.243736
36.793922 19.230209 92.726021
29.290125 19.307158 115.9579
52.152061 16.892029 87.548744
32.470657 14.546007 105.44213
38.719078 37.548325 107.51878
41.026749 30.457214 96.137352
47.670418 19.280148 86.309738
44.305019 15.191604 92.780853
50.148087 14.32268 87.383209
40.56633 16.748775 95.471069
38.512787 34.50806 101.45815
54.663849 13.666972 84.854111
31.229548 15.817695 107.72354
27.368462 24.033264 117.70802
39.78141 36.998001 102.85248
42.587547 20.131285 96.063271
48.207375 18.77367 88.260971
41.375328 25.597692 96.157005
41.420822 27.369545 96.424706
41.007332 28.199837 95.883385
39.778717 29.682659 98.157425
34.243614 15.885117 104.81201
43.497471 22.078148 95.191818
40.909058 26.502819 94.266678
34.760406 38.975235 111.09564
38.231213 16.577576 93.622414
50.019249 15.035732 84.369179
31.481609 14.250587 108.9828
39.405411 34.007454 101.61549
52.95364 14.803378 84.053589
30.817924 15.082987 107.83298
32.054752 16.148464 112.38918
41.521072 26.987434 95.573181
43.543877 17.43445 94.90052
37.857513 18.115833 96.638565
39.970364 29.18869 98.80674
40.965382 24.932337 96.742233
39.727371 38.861748 107.41516
30.441189 16.898508 113.69769
40.840328 31.159241 98.187798
39.478699 26.384731 97.774849
45.078705 22.874928 92.938293
32.91153 37.972694 112.59146
40.227722 24.41964 96.229424
37.771801 28.056812 98.561325
40.639999 27.688129 96.570282
39.076057 35.974472 103.80886
39.418686 36.289391 104.96901
36.702221 28.598351 99.587906
35.921349 38.004639 111.33867
34.064232 15.570918 103.26609
39.870651 27.758327 98.574448
37.209576 35.041824 102.30914
34.386772 37.792068 111.52029
44.926476 22.28603 93.802986
39.968094 37.000168 104.62613
39.42284 26.951612 96.211533
37.7019 38.504414 109.43766
42.539814 28.62248 97.453064
40.234947 35.8349 102.38434
39.189617 25.881611 93.120621
39.627312 26.382072 91.650383
34.018097 37.281986 112.64072
32.433403 15.785275 106.04071
48.248444 18.74369 90.060631
54.532829 15.758627 87.861633
39.246979 26.405975 92.281265
33.091972 38.033646 113.8468
40.881397 37.906136 109.39294
37.33527 18.158751 95.276466
40.106491 26.59375 92.4189
39.806026 24.004702 94.837967
39.847172 16.086777 94.450722
40.963383 38.65918 112.17722
49.992958 15.515388 89.662354
36.971313 29.489086 99.788574
40.938263 38.494797 108.65872
50.697212 17.510773 88.203903
55.739548 13.562634 87.040558
54.989243 14.619757 88.211594
50.543129 16.051968 84.593842
38.641262 25.312489 91.960838
39.898476 28.392628 94.352074
38.392746 17.871735 97.222382
51.041271 14.561289 88.628548
52.550919 16.07753 88.845383
37.960236 18.016983 97.556358
38.604843 17.509502 95.091347
36.813606 16.763771 93.144875
40.80471 25.955929 95.598915
39.639587 24.803211 89.336937
51.911797 12.800704 84.817993
42.2304 15.87883 93.487991
51.978443 16.320011 85.486015
52.662849 13.745381 88.399231
50.634201 16.512165 89.660721
37.850784 34.633144 102.70795
40.452068 27.055511 95.614082
39.749836 25.080196 95.698402
38.651623 20.097864 95.768448
36.284302 17.346859 97.19072
36.242115 15.461992 96.109764
40.404049 34.345909 100.89742
54.031174 15.847232 85.234772
39.920036 20.565125 96.53344
39.262482 17.098042 97.04464
39.475311 16.391975 96.506996
38.343544 16.321362 98.200645
47.173176 16.051174 83.990158
42.731586 27.154316 95.958778
46.192314 19.709431 84.499039
47.896484 16.137295 89.309776
46.9757 16.535427 92.311264
36.652405 17.966152 74.168999
42.007027 24.971058 94.507942
48.714622 17.080038 89.290222
49.644154 17.638695 86.88456
41.795364 28.994665 96.974487
45.436405 14.507875 87.707619
44.838261 23.291363 91.757446
43.760017 24.479273 92.601677
40.520111 30.368023 99.847534
54.570229 16.018379 86.488319
37.322807 18.901428 94.065285
46.508312 20.877125 87.658836
51.639561 12.722851 86.538261
20.003761 22.832073 69.993645
24.247997 13.091578 64.440338
48.575775 15.476161 88.489441
36.141129 17.614143 89.518539
37.306553 24.052441 89.137596
38.156487 24.340107 88.314926
24.731255 27.628584 65.904572
24.321388 27.501537 66.974251
25.572311 24.001686 72.232895
39.292786 15.71562 81.83123
32.973331 16.986584 68.076721
33.170872 19.512039 65.968178
33.754284 16.484058 80.806252
29.304775 25.213955 69.154648
24.984793 14.491046 69.774353
36.447369 16.370155 76.206215
38.5326 24.966341 90.108009
35.940811 15.686509 80.058792
40.525566 24.787266 90.470825
35.705582 22.40612 73.12886
35.810829 21.339996 72.209946
25.815849 23.100748 73.365601
39.561829 14.841491 88.58268
34.637035 16.230877 73.962387
28.808611 14.236646 70.546059
45.38945 15.950267 83.829918
31.425964 21.071732 63.595032
39.390667 23.254904 83.225563
37.12706 23.246048 80.115356
40.134483 23.805637 85.747978
27.361231 13.661945 67.504257
30.131182 14.670155 66.983376
32.377541 22.159756 65.911674
27.177595 26.065903 62.157986
28.703365 14.834763 63.508644
35.250965 19.166666 70.791039
32.891094 20.665045 65.751411
29.860945 21.29501 60.835106
36.087173 22.930309 75.662651
31.032656 14.952981 70.819946
38.275543 19.765549 75.468651
38.798359 18.733067 77.024551
38.047516 17.01878 77.44326
36.878761 17.312309 98.393738
31.475456 17.24412 64.472008
28.771334 24.796009 63.265388
31.551527 17.297649 79.21788
43.48727 17.07575 82.85228
28.027163 24.693605 61.555733
30.229046 22.706547 63.108246
34.846111 20.321266 70.022545
30.828859 17.7211 62.794834
32.505997 16.147564 68.836189
43.879105 20.247765 95.12764
26.99184 26.539139 63.648209
39.808189 19.594233 78.211967
38.742088 15.926458 91.445816
41.47913 22.570738 83.771927
25.637001 13.956423 69.237015
44.001408 15.336504 83.985611
33.631138 18.13203 83.72068
36.400627 15.773342 77.871925
27.749516 24.397858 73.099075
47.387177 15.410003 88.307617
43.994263 20.880295 83.879669
46.045734 18.418751 83.609665
23.045689 12.892561 65.134712
34.15757 17.479458 83.701332
26.632179 25.193432 70.804604
39.151505 22.599287 80.831619
31.445898 22.357628 79.240128
23.863752 16.846462 71.181877
35.593327 17.007195 86.602753
31.342567 15.788704 76.309944
38.171127 24.012905 86.169106
32.278137 22.880589 79.205933
22.774582 13.952114 67.425041
34.104485 18.435581 68.873398
49.076218 16.288576 84.216835
41.321312 17.604515 80.816566
27.04458 14.099977 59.988827
28.825274 16.918886 59.412868
28.551647 23.034401 58.967293
25.952841 13.280398 61.872341
29.248281 20.147755 58.300991
29.271221 18.89859 58.67926
33.632935 20.986452 67.697952
31.668148 15.368098 69.562538
46.567963 20.076548 85.387596
25.97382 13.258474 59.130478
27.597599 15.970383 56.609585
28.45438 17.792118 57.096718
26.735989 15.752413 54.114979
24.106916 11.672718 57.6245
40.007446 14.668068 86.777489
28.283928 22.224602 56.293705
26.930714 14.143451 58.712341
47.289307 15.045368 84.695786
38.075432 15.443007 88.758247
34.731972 23.419029 75.296997
42.051285 15.125404 84.289009
36.104095 16.156406 84.111366
15.885089 26.559097 67.751633
28.869778 25.330765 64.536598
32.38166 15.502824 112.14
39.239662 15.380177 83.552414
54.38839 13.60932 88.285156
28.007368 22.070583 116.72232
37.928017 23.659954 83.622917
40.259743 38.959549 110.90969
12.196755 28.001717 65.922028
34.381645 21.535522 69.725197
40.631554 27.6159 94.112572
34.594959 17.307238 71.432686
40.57185 25.345791 92.41674
17.842327 26.285954 68.348701
42.184967 26.433558 95.81633
30.160881 20.935989 61.500942
19.638882 28.762941 66.329811
51.726219 12.475034 85.756485
40.190498 25.492283 95.185562
40.991367 18.774282 96.173019
35.905231 37.440983 110.91937
29.747707 14.399204 69.66449
46.268631 14.735933 85.318596
46.876171 17.261761 83.839493
43.033035 23.630131 89.483299
41.073009 25.39283 95.102875
27.520409 14.493858 71.420586
18.199718 24.444118 69.259178
37.827255 15.623637 81.736404
33.294952 38.960381 113.12857
41.65773 14.664445 85.633072
38.204391 18.544914 96.235374
21.422342 28.762321 65.509544
42.237843 14.488015 87.294319
38.926048 35.701431 101.1256
40.502502 26.5233 97.800804
51.893936 15.12816 89.178802
29.383169 14.219686 67.742622
40.091198 22.628963 82.32106
27.179132 21.021751 117.5147
41.004829 29.683832 98.809906
39.639099 37.770618 108.94827
36.801674 17.540375 94.084084
43.766369 19.866768 82.947327
48.412128 17.907146 84.890434
31.769161 15.745091 108.93064
37.468559 22.069794 93.461395
32.535271 15.281043 116.47917
20.915356 28.428391 66.4384
39.066238 19.382824 97.954964
34.987225 16.748894 83.705147
36.115204 38.175648 109.97124
25.637207 13.669492 68.124001
32.666466 15.066918 115.0634
41.048279 31.8778 98.317284
32.83548 17.774773 118.48054
18.706638 29.407082 65.131485
38.88694 26.389769 97.013245
47.994553 19.649094 91.268562
49.95911 16.856293 85.170517
32.904339 15.706232 114.89621
38.576954 27.798244 98.527023
44.89727 16.726566 94.250267
30.079691 24.002096 64.163506
36.014267 18.903387 72.244919
43.033985 25.014626 92.890335
29.132769 16.18008 61.671837
40.044056 31.552977 98.738968
40.787033 29.595234 93.409653
41.89032 23.240498 85.256844
36.458065 23.176502 78.024879
38.699738 37.299316 103.63213
40.336819 38.004093 106.57218
32.496925 38.541824 113.10912
22.548456 28.651487 63.716209
33.416283 15.085352 105.67565
40.002228 38.698685 113.61768
33.119186 16.14307 116.41553
37.73613 24.249832 91.396477
39.671791 38.150581 105.61212
35.179203 15.287922 97.609474
31.054184 16.875496 114.27501
40.116955 34.747421 101.97871
40.863049 38.045174 111.49937
19.104416 29.568396 63.744934
36.045033 15.413398 95.128525
21.190229 28.963326 64.844841
31.392553 15.944619 106.31062
17.436543 28.866871 66.819382
15.03052 28.607815 66.455528
18.080683 21.802607 69.429657
43.365837 24.491247 93.657059
16.587791 29.51857 65.978104
12.850075 27.045582 66.597382
39.903389 27.586927 95.032852
14.880573 27.869101 66.879112
19.968193 29.581495 62.307236
41.23946 19.807924 96.365616
42.916557 25.844002 94.328911
19.257153 27.659407 67.519463
35.51498 16.585289 101.70955
16.398716 29.915133 64.327667
47.513557 21.102669 91.588768
35.574764 15.05104 96.64666
30.287106 17.426565 114.62972
42.221104 14.844464 89.502991
48.991013 17.841402 88.46727
32.172859 17.241886 118.37044
44.948128 15.200301 90.917122
31.515648 15.472868 115.00967
55.201523 15.084716 85.432816
38.614544 28.06415 97.572281
40.758652 22.972231 96.052444
32.910812 16.718153 118.26443
42.068329 23.89716 94.784912
39.821423 38.95776 108.73961
36.203808 29.734268 99.537437
38.277031 19.689182 97.630592
31.141842 14.896241 113.4068
40.896904 31.696198 97.204704
37.671738 15.546265 83.731552
40.134087 37.150803 106.6748
36.206631 15.754107 99.194336
40.411819 29.251575 97.58728
39.47184 24.957695 93.953224
28.496513 18.638367 115.3928
55.544052 14.869633 87.367157
38.850784 38.080368 106.78944
40.863197 27.72366 98.257492
39.975342 23.432758 95.550896
40.427166 31.104916 97.278793
30.67458 15.085711 109.7767
40.822258 30.939533 95.027122
32.094116 15.764164 110.06411
26.944778 20.598829 116.81818
55.600437 14.360506 85.819496
41.244492 28.02182 97.43795
48.338661 14.544056 85.922295
42.055885 24.235813 95.443619
35.37661 14.823971 101.2248
28.120924 20.613176 115.87199
29.67841 17.439793 114.35329
42.348778 22.689034 95.496506
22.846115 13.327126 66.401283
41.687248 23.518158 96.151291
29.625244 18.062183 115.36667
31.256617 14.664832 111.56274
45.635414 15.573949 93.204254
30.828735 15.679981 112.39487
31.77383 16.324512 107.24685
38.052601 17.086712 97.266487
52.367661 13.730196 84.170792
43.715103 14.7361 89.436981
46.474876 21.991428 90.281609
42.014572 30.112003 98.168266
30.867674 15.927348 114.59657
26.637239 22.564798 117.60268
41.159451 30.650017 97.051735
41.462509 25.081617 93.181221
38.438808 38.054176 109.0574
54.266895 12.770375 87.380447
41.916885 18.816425 81.053711
43.648415 18.689392 82.57209
41.299519 20.381914 80.634705
40.742672 21.76626 81.284843
32.978752 22.271004 81.689072
31.448097 21.205772 80.663994
32.599556 21.407806 82.34935
32.059731 19.599064 82.093597
30.160519 21.390133 78.671593
32.494667 20.387749 82.79158
34.21973 22.265249 84.225449
34.697224 22.895855 83.425743
34.855679 22.39201 86.810799
33.625004 19.451984 84.870827
33.787258 21.172415 85.145477
31.085732 19.853701 80.56282
35.977497 22.592276 91.101845
35.641659 21.457094 91.307449
36.45491 23.579611 87.158195
35.039013 20.302986 88.945541
35.103127 18.652306 87.901901
34.401268 19.885067 87.173454
35.177322 21.900406 88.981972
34.467319 21.208639 87.397926
32.729645 17.540646 81.344284
36.336884 23.557161 83.486214
32.055489 18.644604 81.64077
28.661406 21.93552 76.938499
29.260122 20.297365 77.800751
25.750702 22.026627 73.842979
30.32106 23.87743 75.05011
22.341251 20.634491 71.212967
22.036579 25.069746 69.760468
34.050518 23.545977 76.559891
23.971306 24.499113 70.829468
26.599609 15.140615 71.880707
33.016159 23.03212 68.771553
30.163162 18.908802 78.57711
25.6243 25.247238 70.590065
33.695412 23.644945 71.980217
31.041637 24.008183 66.536667
31.432999 24.420792 69.168503
33.388844 23.571661 70.731941
22.61001 26.730143 68.473923
25.276924 20.221882 73.511993
32.20816 23.848965 74.965523
24.867027 17.056002 72.136078
31.208038 24.52837 70.622948
26.747456 22.634132 74.537216
22.854408 18.125751 71.089066
26.015732 18.160784 73.700218
26.947746 20.747334 75.15818
28.527943 18.394339 76.166687
28.421164 15.579396 73.653137
27.071152 16.602283 73.612747
24.98782 15.309741 70.816917
26.817045 26.175346 68.591652
30.297764 16.589552 76.568871
32.985912 15.562416 76.306686
31.315823 15.033519 72.591972
29.809904 15.183138 74.002945
20.542799 8.1944942 54.210915
19.238075 15.186723 47.332546
18.760693 29.639816 52.980186
16.188244 8.3736906 48.783764
22.694773 18.970516 43.508308
24.983475 18.013391 42.048988
26.538116 18.128593 40.408966
-16.009796 18.097803 51.415588
23.429893 3.1591101 28.400261
-12.353821 37.057243 57.789051
2.9902406 24.884838 39.928383
-24.769711 24.685841 55.608398
25.967434 -2.058466 22.360453
25.861301 16.828447 30.14539
-25.550156 32.867584 56.528267
28.517246 -0.81616783 19.424257
26.581589 16.518167 28.084179
-9.0337486 28.41518 32.281116
-3.2510777 9.0804482 6.9716601
28.725927 14.178641 20.889889
-18.699173 20.553143 37.763542
-18.394287 21.275936 36.433403
-18.828598 19.637951 34.129768
33.197315 13.286872 16.325008
32.655869 9.9482594 17.048635
-28.746571 34.332153 46.348366
-15.922905 29.812752 27.262329
-14.802032 16.19669 17.443005
-10.46398 10.639356 12.272276
-10.002274 11.287674 12.226769
-11.991159 28.97583 23.020338
-7.9590816 21.793976 10.405216
-26.603062 32.417854 43.562939
-8.7628479 10.676068 7.3677711
-8.6790848 8.3846073 9.2969589
-2.7160921 18.398079 3.6733327
18.330805 19.44264 68.927612
19.694828 20.832476 69.767159
19.773891 13.76648 66.152977
7.5644503 28.511803 64.43502
14.404714 24.275133 67.993515
15.818322 21.387436 68.799622
19.74629 8.4244194 56.706837
24.109861 27.777248 54.748684
24.439724 26.423668 50.043198
22.024788 8.0998592 50.180069
28.058426 21.378315 54.300659
27.683064 22.68742 51.180302
23.804741 11.712191 50.331856
26.276627 18.880348 47.21529
18.111809 9.1715946 59.694592
14.520978 10.503599 60.486717
22.320871 29.09573 56.450989
22.747927 28.46121 52.821758
21.445534 28.48609 51.757172
14.568832 12.354687 62.78867
23.091524 17.795914 46.968395
6.2722435 11.508405 52.083946
1.9665632 27.935356 63.835987
2.3747683 30.019978 62.602558
22.019238 29.255688 54.126667
12.46894 10.106191 55.905365
3.8217049 13.851605 57.882187
8.8066721 31.978119 59.577332
-1.3566408 28.729782 63.366638
2.6224456 14.899532 58.820549
-1.4539328 29.726835 62.947842
9.3513718 11.222504 54.128521
10.544145 32.285145 54.007923
9.15312 32.466732 50.265614
-0.87514877 35.7262 47.222343
-2.1520844 14.595841 52.917358
2.3102341 34.235794 55.757458
-4.1685181 20.174351 60.169659
4.065155 12.294542 50.505558
6.3896122 11.561919 53.324665
-6.9584942 32.509148 60.586823
-5.1397505 16.453732 55.244911
-3.6783342 15.013927 51.113777
-9.3826599 34.113892 60.290615
-7.1436462 16.007498 51.063065
-16.787394 23.731045 59.276947
-12.739582 32.182549 61.913719
8.4559736 32.504482 49.092319
-13.820862 41.682819 50.150242
-24.136032 34.712608 57.904663
-15.372244 35.936897 59.046791
-21.10198 26.387136 59.794914
-24.537746 26.997643 57.660923
-15.732136 41.985912 52.91452
-23.860031 37.342491 55.275124
-16.12252 19.568287 55.859436
-15.553383 42.059242 51.023937
-27.651108 29.181686 51.419212
5.4810171 23.871731 40.228149
-17.104706 17.996861 48.387943
-23.687759 36.233749 57.155712
-14.799288 19.270693 56.160072
-5.6493855 26.129963 41.536999
-13.45035 36.656734 58.35833
27.002687 19.607956 44.255905
-24.497082 31.164906 43.11047
-27.499054 34.197388 52.929832
-17.114697 41.270531 55.238045
-19.55582 40.314514 55.744469
-22.214581 23.509762 55.810909
-22.227856 25.570889 58.094925
-25.365654 36.972397 53.655533
-10.332556 16.812744 49.60519
-15.767345 17.146006 46.281235
-11.810989 27.245365 41.038216
1.5816202 35.111786 49.529503
-12.741543 16.630402 48.042789
-9.5289764 38.951427 53.483074
-13.910797 41.038155 54.180115
14.306928 28.492353 46.732895
1.2390051 18.894354 41.022614
0.75883865 24.874254 39.984085
-10.013063 17.260201 42.007061
-8.600338 17.806604 42.453091
-3.3952684 20.028229 41.824535
-4.4175434 35.874054 44.152679
1.1044121 23.776558 39.929646
14.86163 30.0975 50.595165
-3.9161825 33.809021 42.291321
16.235432 26.780569 46.829609
-8.1787262 19.582212 41.781853
11.669474 31.198877 48.265633
17.746611 27.195017 47.316284
21.881929 20.951788 40.849125
2.8373933 23.305573 39.890965
-0.50500393 19.619572 41.036327
-4.6864452 27.023392 41.303619
-7.4338951 28.745169 34.044403
19.751041 17.580418 46.630405
21.728151 25.373978 45.02853
8.5209217 25.080376 41.242447
2.2241197 16.99346 42.255547
15.149124 27.460049 46.542171
23.50462 22.589428 41.210487
-0.24430943 32.312885 43.724102
-5.7127037 22.390997 42.144207
13.328479 12.069011 49.213547
10.661462 11.029868 52.519066
-4.0873947 23.88744 41.262218
14.951441 29.360395 48.583504
19.100542 26.049044 46.533768
16.780561 29.945415 52.135818
-3.1439114 36.076496 45.780041
10.561085 22.963001 41.80777
-9.4595985 21.785713 41.256248
12.058596 11.64516 50.56485
27.503349 20.632851 42.549644
4.3708162 28.803619 42.408962
8.2910271 27.772089 42.423172
26.840269 17.282684 37.672123
6.5637999 12.95707 48.815037
16.096493 24.902954 45.649586
26.95302 16.149641 35.914536
24.425951 17.801651 39.602074
22.508574 8.1171417 39.904591
22.713207 5.963829 34.125092
18.079262 7.9147506 41.467632
22.230705 8.7167187 41.913563
19.658501 12.442689 46.861656
21.829159 11.806287 47.293434
22.548124 11.223557 47.716286
22.68652 21.2467 38.888435
23.435883 19.42305 34.725235
27.625601 19.606192 40.510685
29.584763 -3.8243999 20.722569
28.165512 -3.2790508 19.850655
23.889183 5.3932881 34.673294
29.96574 14.924704 23.682512
31.099436 -3.171382 20.388844
26.911804 21.492668 39.658901
29.285089 12.890975 19.338192
24.513931 20.572968 34.799744
18.363924 9.3860626 41.947304
23.611206 18.333809 41.700062
26.892776 19.866615 47.028831
27.113958 22.07478 43.543446
26.011744 21.898844 38.77866
26.297405 22.399778 41.39222
20.141144 10.41552 42.818863
20.841927 11.385937 45.858482
24.085342 6.7991791 36.721466
21.433952 9.4691296 42.113934
17.481609 9.0617104 44.317188
17.782078 7.5799789 43.660789
18.976749 5.885355 43.074631
24.328749 4.4880209 37.742874
24.515556 -0.90609264 22.178043
22.083073 5.0154891 32.944717
24.979219 1.5626364 24.268333
29.317417 14.809974 21.316774
15.295699 8.8448429 52.139542
24.005379 3.9230685 32.15247
29.229576 13.495628 23.088192
24.623018 1.2793102 28.594778
23.267052 1.2002907 25.631907
20.926073 3.8240952 38.378441
26.323002 0.070373535 24.007931
25.5285 0.96353149 26.2663
22.966198 4.9021373 32.797993
23.921955 3.4661279 29.856785
23.895985 3.8894043 33.990898
32.166542 13.105806 18.632376
20.142204 4.3775215 39.920738
17.862913 8.046051 54.565525
20.424225 7.0704088 48.532169
19.781651 5.3504171 42.8792
19.777435 4.6126375 35.437424
19.838379 3.9969449 36.650803
21.063354 5.5963702 44.041374
-15.54101 15.534967 17.464912
-4.0211325 21.356552 7.375618
-10.473576 26.405197 16.035688
-15.452221 21.648682 31.608088
-15.938416 22.395998 34.150963
-13.516941 28.152262 31.996456
-13.426287 27.36162 29.546396
-18.710114 18.665127 41.211903
-19.710844 20.587053 40.021
-12.08337 28.161377 32.202545
-14.67289 19.408615 28.137575
-19.397232 22.708176 39.324364
-14.927307 17.50771 27.650196
-19.327785 19.589611 24.521385
-12.554022 26.222952 16.70396
-11.433084 24.323151 17.656755
-14.901539 21.34053 31.312918
-19.868931 20.291397 28.999365
-19.589224 19.603718 31.040775
-12.492392 26.927841 28.544598
-16.872139 17.709707 36.388355
-16.867208 17.63258 38.670723
-11.961098 27.066175 25.750141
-16.159405 16.777451 27.677063
-14.633293 28.899412 30.651138
-16.267288 16.636097 30.361631
-10.725388 29.779919 27.527214
-13.794827 28.961758 33.631447
-23.661591 29.525404 42.451263
-1.7407246 18.625992 3.3489227
-7.3172245 20.631199 6.7237158
-13.930563 29.789219 23.840736
-9.087738 24.437092 15.758757
-8.415163 22.554466 12.402663
-12.81081 29.975775 24.783272
-8.0984097 21.489174 7.0239353
-12.2453 24.557407 17.493053
-22.0448 24.753822 41.869778
-6.2924595 6.1233063 7.9023943
-5.7937794 21.787725 9.2714252
-20.739269 25.737858 40.891457
-22.753017 23.980644 42.645252
-26.70393 31.239159 45.651348
-26.123894 29.03688 44.829582
-21.573498 30.832735 40.512123
-25.840416 26.054247 45.875156
-22.692219 32.027451 41.108021
-27.385952 29.035879 47.695751
-26.605019 26.672941 48.005413
-28.027542 35.093323 49.308266
-28.453926 32.902092 48.267578
-11.219151 30.593605 28.101162
-12.141745 31.031507 28.461006
-12.812786 32.056316 30.694439
-20.860792 38.94558 43.906082
-6.5899048 29.368202 34.393669
-6.7783394 28.212208 37.032837
-18.922539 39.398254 43.704559
-17.925774 34.734482 38.488834
-26.45409 36.73748 51.582817
-12.891346 32.925697 32.285591
-13.27298 33.291054 34.807095
34.202164 15.01866 104.09717
36.156151 17.278877 100.27597
36.490189 16.832771 101.55019
35.530373 17.709572 102.06631
32.523842 14.751323 107.97313
31.852234 14.064012 106.76505
31.135067 15.046277 106.30515
34.421783 16.458088 102.63988
36.317253 15.318274 101.55056
35.095734 17.331524 101.75693
37.004379 17.955719 101.01604
36.058025 18.383312 98.991554
35.279781 15.227618 102.10043
36.424145 19.516396 99.462463
39.982327 33.677399 99.819916
30.153873 16.429214 114.1745
39.219818 32.658035 100.00311
40.107716 33.172245 100.93664
39.914223 35.569252 103.103
32.106926 15.939612 116.89375
39.955078 35.447472 100.86224
32.437473 16.680138 116.73708
40.378059 30.129807 94.435936
41.382057 29.626299 97.869759
41.104485 39.052574 110.55602
39.235249 31.877121 100.06577
40.722435 31.886946 100.10939
40.725227 31.189873 99.014877
43.809059 14.230436 86.73053
37.468864 20.937799 93.772484
40.488647 15.648153 91.980194
35.742668 16.112076 95.551971
54.540428 12.568401 86.256973
41.878742 21.58069 96.388092
50.507351 17.360636 89.043503
46.65963 15.709189 91.577835
48.362144 17.465439 89.819847
37.70153 16.464375 92.710556
46.689087 14.588754 86.181641
38.141998 23.245321 93.343674
39.905556 16.254089 95.187721
37.278904 17.041401 96.525307
39.277908 16.072212 97.79924
49.766155 14.308887 85.00016
38.362484 16.375504 99.72123
37.219498 16.240744 94.300583
49.556892 14.188489 86.11763
19.039167 17.781679 68.430511
36.041046 23.121595 88.536812
19.394466 14.763664 66.723785
21.97821 14.878851 68.04628
37.143391 15.919094 87.214645
35.673428 15.960409 100.04251
20.737103 18.474113 69.665863
33.157532 15.884509 72.103706
25.568172 27.359663 63.960609
29.765587 25.085705 67.249817
36.665615 17.80747 92.15715
40.100937 38.251564 111.46667
35.010658 16.991764 103.76323
31.970472 15.054111 105.32571
31.518745 14.127224 107.74492
31.043442 15.869864 109.97778
36.1423 16.948162 102.5866
31.197104 16.354866 112.54852
37.15279 16.16761 99.318695
38.317715 15.859776 99.70211
40.258339 37.921455 109.95259
38.527977 36.778431 104.49348
35.260597 14.498665 99.238411
35.395233 16.075943 97.392426
34.825756 14.844469 101.35486
27.338259 21.46921 45.859936
-6.7056198 21.8965 42.729858
24.450117 2.2731767 26.193813
-6.3336239 23.535961 9.759304
7.4591208 11.913897 55.80418
-9.7089157 23.596588 41.808952
-24.865509 25.038813 44.619911
11.364979 12.571327 49.25465
10.279949 13.231344 47.959167
24.776512 23.005692 42.526539
30.634645 11.868263 17.179758
-13.876661 31.254538 30.335649
38.893269 18.27705 98.077927
36.94656 19.187023 97.92128
37.65667 19.053913 99.698891
39.830601 31.464651 100.642
36.326118 19.062756 91.697189
-2.1205654 33.32473 43.596153
35.298462 16.053646 103.87778
23.667217 27.164988 67.88121
11.335727 24.375397 66.940346
12.252693 25.567175 66.937485
22.302099 16.369766 69.595627
23.029737 15.863295 69.724518
13.413161 22.266867 67.984039
20.188869 23.964861 69.829666
21.773464 17.24865 69.78817
20.246405 24.825739 69.515488
16.304707 24.404621 68.728531
24.232798 25.958416 69.377335
21.222996 21.629848 70.534836
21.049168 20.574913 70.367081
16.030457 25.263321 68.332504
16.976936 22.902756 69.241623
15.225876 16.239447 66.450432
23.554249 15.028217 69.284904
12.623426 23.506372 67.544724
24.373558 26.316893 68.955193
21.393539 22.520824 70.566048
14.34808 20.172163 68.13356
23.433655 25.634117 69.584427
15.301068 15.252852 65.927765
14.141884 20.759172 68.173218
23.425886 14.564746 68.615921
24.267721 14.26154 68.844421
19.457659 25.968214 68.76123
15.043592 22.833801 68.526245
14.258466 26.67429 67.189278
14.53569 19.46426 67.974289
25.374664 26.596157 68.363762
18.202553 16.598013 67.406784
19.297384 19.267246 69.210068
22.952564 28.38809 65.47995
23.982059 18.796358 72.120186
13.379463 25.580732 67.281219
25.394962 26.983139 67.512489
21.544796 19.479244 70.492111
22.613285 28.076969 66.72332
23.183847 28.242744 65.908073
16.042118 16.573156 66.824814
19.230415 16.251583 67.589508
21.741058 18.288202 70.272614
17.983925 14.322888 66.046082
22.854855 28.224556 66.268875
20.731537 14.835176 67.32589
20.852198 14.109236 66.791809
21.806145 27.622541 67.517906
20.144405 15.604234 67.612244
21.464851 26.169086 68.874039
18.286465 13.798443 65.776108
23.489567 19.552237 71.91964
17.605404 27.646099 67.611786
11.47785 17.855022 66.139008
23.78886 22.991798 71.827087
19.905708 18.107906 69.033707
19.290014 26.774292 68.208237
23.01613 24.827881 70.176025
17.057564 20.78767 69.030899
22.812958 23.99968 70.670815
15.473598 18.777845 67.905182
15.111863 25.422413 67.936111
11.461129 21.299496 67.252419
14.892558 14.542515 65.36763
24.42049 19.257504 72.584747
19.143894 23.649412 69.663376
20.181192 19.683565 69.739326
19.00507 22.376032 69.71167
