# .PCD v0.7 - Point Cloud Data file format
VERSION 0.7
FIELDS x y z
SIZE 4 4 4
TYPE F F F
COUNT 1 1 1
WIDTH 1594
HEIGHT 1
VIEWPOINT 0 0 0 1 0 0 0
POINTS 1594
DATA ascii
-13.30875 29.931 29.699709
-12.386286 30.363213 31.646824
-13.964943 27.275858 30.947018
-17.979361 33.547905 28.552906
-9.2406158 29.795807 8.3536587
-16.047897 33.711285 29.13063
-18.673445 30.76565 23.437098
-17.993988 32.862663 27.637024
-13.356714 28.253405 30.055168
-12.278658 20.85253 9.854948
-5.8517933 25.255856 3.4115486
-13.631611 18.092104 9.1437578
-10.7714 18.973837 8.8179455
-17.20491 26.543259 14.457951
1.6297693 20.410591 -1.2308712
-12.811562 20.391647 8.9908457
-16.243591 26.895878 15.114192
-13.770058 19.609407 12.275469
-19.449944 25.956251 17.815544
-7.2064667 27.686996 5.3679624
-4.9035788 12.058321 3.5860977
-12.32155 16.126488 8.2723236
-12.164236 18.361109 11.224669
-16.713409 23.201283 15.390359
-13.609428 20.622196 13.388263
-9.0761852 32.362762 9.7930222
-17.763115 24.177364 14.602431
-12.496868 32.447968 13.284472
-11.224047 16.91769 9.7302065
-15.122692 20.856525 11.625945
-16.198689 23.075871 15.980048
-5.4825916 8.1735401 4.6936922
-13.578751 23.701162 13.658979
-17.145065 24.328608 18.113657
-12.059849 19.970495 12.113303
-16.334318 22.625027 13.993779
-13.884171 22.240412 14.660968
-16.292784 22.872185 12.662407
-15.160164 24.038038 16.897604
-15.264742 22.978331 16.00185
-10.78834 30.955185 12.253143
-12.259825 21.344822 11.317082
-10.024738 17.499676 8.846612
-12.142315 17.070995 6.711998
-14.22562 24.618053 13.896206
-13.482325 22.796591 14.145084
-12.580019 32.974907 11.6111
-10.573135 17.476326 9.7443686
-13.225828 22.307631 11.331407
-0.8562355 21.486666 2.2271986
-14.933075 20.984314 13.59147
-10.409206 14.340446 7.2221789
-10.553791 16.542702 5.74579
-2.1822252 8.9702959 5.4308548
-0.43320751 20.208456 0.55281162
-14.445724 25.619749 15.748075
-8.2846928 30.325071 11.425173
-14.617405 25.210503 16.63937
-15.070059 22.929678 11.669333
-9.5924072 31.336403 13.173573
0.057296753 20.295628 1.3396358
-8.5209103 31.679495 12.447215
-10.253357 30.895493 12.789223
-4.252737 27.6689 5.0257978
-7.3675995 28.699562 9.5622072
-14.988178 28.715824 20.890244
-6.6001663 29.982416 9.401433
-12.302176 18.828861 7.5858631
3.4405527 18.303093 1.2258739
-8.1427307 32.179893 11.85883
-11.008274 18.624557 7.5529051
-9.3368301 33.203743 14.689965
-14.379457 30.464014 27.047165
-14.04718 27.088778 23.642952
-7.1713009 9.525959 4.7876906
-0.33263397 20.501886 -0.36388206
-8.3506317 29.336624 7.0084076
-21.538227 33.441742 30.162323
-14.292854 26.403217 23.394787
-13.676468 28.742064 27.842356
-9.4693451 16.898462 7.0752535
-6.0754585 12.784117 3.6603622
-6.1954079 25.814724 5.342463
-8.3216438 13.459176 6.5725689
-16.458363 25.544579 23.671072
-15.150013 27.012466 29.483795
-9.1184464 16.028301 7.2065849
-16.961037 26.349762 26.622204
-10.835468 14.454185 6.3184843
-14.769154 31.317974 27.573219
-13.953327 27.425591 27.329548
-17.865101 27.075413 27.616959
-15.121628 24.571186 13.26448
-14.803082 25.938046 23.652336
-8.970499 33.847656 13.550962
-16.386732 27.008631 31.34889
-19.865005 27.793434 17.612293
-13.366085 33.66655 14.963417
-10.991869 31.951839 10.521389
-7.5130138 12.044416 6.0022984
-15.00705 26.379869 19.770592
-12.411303 16.441097 7.3070745
-15.457081 25.695454 23.719936
-11.890297 32.352211 14.777006
3.1458111 21.061474 -0.81551361
-14.263596 27.337864 29.036383
-17.26487 27.059126 29.168482
-13.93882 29.482309 27.100971
-19.556261 28.640699 17.932274
-17.616623 30.812393 22.9482
-16.97448 30.119144 21.418514
-18.282608 28.479708 36.720703
-16.102367 28.167719 17.301739
-17.86985 29.053492 17.759848
-17.206219 28.178564 16.435226
-19.951439 27.398075 18.033367
-19.332375 27.982853 26.147894
-15.092157 27.098433 17.291166
-12.226843 33.436623 16.770939
-13.514225 35.155258 16.755928
-15.550083 28.842541 19.829491
-18.675072 26.844625 24.701279
-18.128477 25.937294 23.210962
-12.759418 34.107307 17.016628
-18.090723 24.789728 17.918224
-11.487812 33.188515 17.074978
-13.653021 36.231686 15.804556
-18.044914 25.450777 20.370817
-10.416092 32.245831 14.879764
-19.987953 27.811056 21.122356
-10.71199 33.760536 18.408226
-18.788902 29.769417 19.837494
-19.511387 27.052841 21.420509
-5.682085 25.708052 2.7984843
-10.60013 32.89373 10.520452
1.9946156 17.991119 0.99084568
-3.7005215 11.322659 3.2869439
3.1819 21.393513 0.14079762
-6.7847614 9.0397148 3.8571711
-4.7391233 11.152843 2.9186902
-9.8577003 13.117328 5.8398132
-10.152761 13.744871 5.0300112
-6.7128525 9.908452 3.1495776
-8.5294895 15.338812 5.3044667
-7.4385738 27.438828 6.8305569
-6.4649734 28.073927 4.7700176
-4.4132481 27.705069 6.0000186
-10.4506 15.276503 5.1401768
-8.8085651 14.709479 4.4494061
-8.5088348 28.550594 7.7720699
-2.9146061 22.913727 3.2677693
-4.4103489 24.926071 1.2295361
-12.257906 34.859749 12.331131
-2.8626633 24.953255 0.36441612
-5.455595 8.7678566 3.8234987
-0.036158562 23.402298 1.6529713
-2.3119535 22.008224 -0.49924088
-3.711998 8.4469624 4.7217131
-2.2410078 21.159971 0.95171642
-3.7110901 26.019592 1.7840881
-3.4087296 10.522706 3.3864322
-6.6597843 9.7765236 5.7446413
-3.994174 23.216265 2.868299
-2.4191551 9.2620306 4.7897143
-3.0250168 9.6000347 5.9557028
-2.1518011 23.124952 -0.70121956
-9.6864643 13.96002 4.3899136
-8.570591 12.732641 3.1656585
-4.6914549 11.915928 4.4557366
-5.8123226 10.361845 2.867156
-0.92881775 23.314375 -0.72494698
-7.8656635 14.246194 6.2716408
-9.395155 12.270897 4.4947176
1.4914484 18.877504 1.3567982
-8.2008438 15.167234 5.9516006
-7.4318218 27.710226 8.0278063
-3.855567 8.2552509 5.9596591
-5.0519686 11.093338 6.0729113
-8.4454365 31.0753 8.301506
2.7752247 18.157204 0.54346943
-5.821558 12.60569 5.2810984
-6.715229 12.523526 5.8591633
-6.5869942 14.037066 4.7753201
-9.110714 12.973265 6.3287086
-4.9947367 10.02102 6.0889773
2.3516388 20.543493 1.8798485
-4.9881344 24.115932 2.9385486
-2.8936119 10.596558 5.3344646
0.5363369 21.652817 1.8777876
0.48756695 20.845789 1.8364935
-1.8788252 21.109768 1.702486
0.51609993 23.051662 0.46748734
3.2647657 20.872824 1.3120508
3.1633534 19.150423 1.7896032
-5.4502907 26.736034 3.1710777
-11.981264 37.072075 16.004032
3.8710103 19.819485 -0.30890369
-8.082468 32.274635 10.630904
-13.593796 35.754314 13.696569
1.3503342 22.107775 -0.2697382
-3.6928415 24.692587 4.6215549
-4.3200312 27.412233 3.9831481
-7.1692352 29.775009 6.725215
-5.4991627 26.593962 6.9513021
-2.1969509 25.394957 1.308363
-5.1654243 28.185905 7.380559
-4.0911503 26.207333 5.8290586
-2.7721338 25.295073 4.1996708
-10.371538 34.031345 11.474283
-11.109993 31.344196 11.356349
-7.6801033 31.642052 9.5518932
-12.28952 33.816048 11.33719
-8.7704926 32.85564 10.680364
1.0320053 22.344965 1.2392797
-6.0098686 29.563698 7.5531015
-0.13261509 23.15143 -0.3742857
-2.8336973 26.237411 2.8052959
-3.9068279 23.855753 0.52561378
-9.7212124 34.567921 12.95459
0.75006771 21.679489 -0.87133789
-22.391758 32.324623 32.872967
-18.206713 38.833668 29.593613
-15.757475 28.132669 39.510517
-18.609898 34.337418 29.120747
-16.440521 38.060806 30.240305
-14.909027 35.59343 31.440186
-27.633011 37.570892 35.428986
-13.277145 28.03599 40.176682
-26.809978 36.041252 35.769554
-16.357449 34.553867 29.69474
-18.74099 28.947943 38.790649
-14.923588 27.099606 33.232742
-19.30666 28.471779 33.671284
-17.851212 27.787415 33.485775
-14.220291 27.855112 38.738632
-14.008223 33.641823 31.261772
-23.776981 32.489197 36.333988
-12.288734 37.076157 25.064152
-16.413578 38.989735 29.240583
-10.882347 36.780403 32.231991
-14.706711 40.265114 26.828377
-21.598629 39.500805 29.952892
-19.791859 29.29817 36.35759
-22.324844 33.241966 31.543688
-21.378807 30.608887 35.49762
-16.021542 39.83712 28.150002
-27.581841 41.606361 33.239258
-18.529921 43.004051 27.20512
-22.366661 34.531422 30.759884
-22.170307 31.447571 34.374039
-14.879852 27.725853 36.764229
-15.93742 41.583488 26.762699
-16.861908 28.255125 38.02639
-17.885838 37.324654 29.799934
-19.619671 36.90657 29.781956
-19.712099 38.745659 29.72035
-21.271431 35.892212 30.008842
-13.391636 38.681995 26.540552
-25.141651 34.185535 35.208572
-14.264706 38.760536 27.98233
-11.75905 37.137589 29.249462
-20.366764 29.182653 33.022499
-25.279114 36.264553 32.729141
-25.977936 35.808285 34.019485
-13.019787 37.97208 27.333202
-12.893505 37.563599 30.124294
-25.733173 40.238678 31.845882
-28.157444 39.102081 35.883492
-18.660601 40.075619 28.996304
-19.978106 35.083069 29.524918
-26.917809 48.638359 33.694378
-27.103867 45.47155 30.988411
-27.937325 46.775608 33.564995
-28.896446 47.455219 33.016617
-27.118851 47.358196 33.04417
-27.513542 46.122353 30.293226
-28.008255 47.071259 30.986193
-29.012543 41.018108 39.588741
-28.611458 39.789268 41.854301
-22.110481 32.545982 41.687401
-27.910145 43.269733 33.412468
-28.604485 45.786144 35.76646
-26.331924 48.159836 33.316845
-27.827534 46.103241 33.716492
-28.831665 48.002403 37.817215
-28.921272 46.773209 37.077896
-28.896835 47.972633 34.994053
-26.404533 46.467163 32.592049
-7.5675869 38.546646 23.67931
-13.09016 50.390289 31.902473
-14.564751 41.478493 26.11388
-25.317276 50.809822 35.179108
-10.864172 47.860092 30.467781
-19.046787 44.482059 27.259949
-28.60796 48.728214 34.492809
-20.974974 51.748718 33.133198
-27.518551 49.37381 34.442009
-23.328884 52.100105 35.208588
-13.534422 39.746162 25.538898
-16.369705 43.549824 26.518414
-9.8114109 35.951229 23.677752
-11.032272 36.764805 27.010941
-13.168106 38.431595 22.480618
-4.6512432 39.333847 28.061073
-19.381651 53.382656 35.249554
-13.242504 39.336395 24.468189
-11.903746 51.231827 34.021317
-10.02729 49.932892 33.612099
-27.374321 48.396259 32.879459
-24.222008 52.199211 36.461056
-4.1480875 41.370766 30.390913
-14.246031 42.86702 26.041122
-24.522671 52.373085 37.910172
-9.71418 51.148861 37.272514
-11.051025 51.577137 35.64769
-18.84544 41.831337 27.805916
-21.357704 40.766289 29.535612
-27.344597 50.576511 38.060249
-5.2889729 45.868366 33.8638
-16.615524 54.028381 36.519543
-7.8475952 40.661163 25.313507
-15.73241 46.189255 27.700834
-8.7061501 45.165726 29.122726
-23.177074 45.244133 29.831268
-13.990835 46.771191 28.264748
-7.3817673 36.532692 24.057709
-8.3184509 37.899563 21.198868
-7.544302 37.226723 23.327753
-8.1929264 36.787857 21.478477
-22.840187 51.532307 33.764328
-8.7880325 47.400051 31.476582
-22.030579 50.225147 32.36005
-9.8078098 42.18317 25.286297
-12.775368 38.324657 18.919411
-18.073662 48.741348 29.366745
-24.667145 49.508076 33.57967
-18.723137 46.190323 27.892975
-15.031876 44.779442 26.533703
-13.187057 48.706032 29.987728
-10.879997 38.661541 19.724398
-9.0494423 39.649563 21.805124
-10.937366 42.305466 24.902203
-8.8901901 41.320576 24.959064
-12.88903 41.29385 24.87999
-8.0503883 39.749702 23.821754
-10.87608 43.229378 26.047522
-13.686386 43.774487 26.297699
-12.816429 44.95343 27.051876
-11.907076 42.866955 25.587622
-11.973169 45.980045 28.107666
-4.8249016 41.67411 29.35918
-6.3759117 39.534206 25.921057
-12.8535 39.142952 21.502308
-20.124899 45.734375 28.142874
-20.447071 48.214157 29.69455
-12.67724 40.582867 23.990795
-16.27083 49.428379 29.87579
-6.0007648 37.91008 25.955376
-18.910658 51.216682 31.392792
-5.5821953 44.881832 31.934065
-5.5994787 43.787086 30.293793
-7.3990517 39.733036 24.883465
-5.1388597 37.674393 27.281963
-9.5993595 42.713963 26.156425
-14.780472 50.009842 30.714643
-9.8379574 40.376312 21.928627
25.27681 31.091127 71.247871
18.63945 22.85288 66.132462
23.262331 28.840937 91.643066
23.546352 27.182766 64.586861
17.968157 22.445045 63.707436
24.689381 33.665546 80.180504
-15.458582 30.965281 47.927864
4.4478683 37.886909 61.12104
22.969448 33.58012 77.932404
21.05188 30.96513 101.86473
26.885611 31.328777 76.520065
29.179981 26.286991 85.550285
28.318869 30.882874 79.61467
22.994013 25.386429 76.423248
22.072639 25.719193 62.528816
27.335106 30.229908 76.503304
27.063169 32.184624 79.051727
16.502102 32.2729 104.68307
25.946077 28.484604 72.908646
10.175312 41.917557 114.99634
29.0492 29.653458 80.994812
22.895157 26.707405 82.602249
27.69545 26.378326 82.511032
23.254543 33.753483 80.788086
28.106741 27.433691 80.963776
20.490509 34.166649 100.81322
23.383387 25.630779 79.250786
14.386997 32.503536 110.09906
22.442276 31.911156 100.47411
10.138809 41.275314 113.93645
26.519865 25.93528 82.070724
25.729185 35.147781 96.486969
20.302858 33.739937 100.54662
20.418001 33.106476 101.32446
15.599903 32.235695 107.41441
13.995426 32.94936 112.30772
24.906168 31.214361 97.802063
23.052341 32.105385 93.59243
11.746502 38.564651 114.24404
38.202553 26.010839 92.379448
15.628391 31.142918 105.68748
26.261841 52.564003 104.96035
28.952583 42.872467 95.796288
34.640427 28.828257 89.791641
29.373062 26.908895 95.995529
35.749504 23.864206 92.240273
25.646328 29.651871 97.487991
26.477316 48.363968 99.637733
40.38961 21.883686 90.911636
14.309223 33.079971 107.38161
10.619942 43.822346 114.66748
27.989361 50.83215 100.81039
28.217176 32.668739 97.896202
34.699524 28.671429 91.871078
28.226383 38.150772 96.752892
28.608065 39.901558 96.70546
28.48785 40.654034 95.948685
27.227919 42.789909 97.60099
17.733177 31.976643 105.23094
29.668653 34.186344 96.912453
28.311056 38.690926 94.676582
22.138378 55.413883 107.27903
23.695728 29.499506 95.235977
36.315556 23.915688 89.192924
13.986851 31.805134 108.92301
27.197226 47.759403 100.07175
39.13739 23.103561 89.569664
13.734886 32.471615 107.5274
14.345703 34.266167 111.98053
28.772179 39.331768 95.977753
28.754534 29.657742 97.466583
23.136776 31.69842 97.776726
27.189224 42.423077 98.3535
27.58436 37.712204 97.343399
27.533737 53.623245 104.84732
12.728119 35.556934 112.75235
28.562721 44.025436 97.599213
26.290293 39.594551 97.753448
31.759357 34.180344 94.95224
19.880409 55.105011 108.49028
26.855764 37.23938 96.781654
24.876324 41.673256 97.84037
27.902126 40.377495 96.61879
26.920053 50.182957 101.75639
27.111652 50.676849 102.88859
23.785488 42.606075 98.496918
22.998371 54.329269 107.93702
17.76683 31.370548 103.76387
26.823523 41.017365 98.362549
25.191696 49.292557 100.0763
21.447033 54.436935 107.81516
31.331762 33.83025 95.853485
27.854431 51.187004 102.55296
26.637297 39.808414 96.140289
25.153234 54.079552 106.41121
29.77228 41.129395 97.713699
28.254644 49.533524 100.66604
26.728863 38.150314 93.312683
27.518608 38.23315 91.90802
20.783478 54.256523 108.90082
15.756096 32.4692 106.0341
34.413223 29.026922 93.612633
40.185516 24.568823 93.398766
27.046877 38.460808 92.426544
19.84421 55.404629 109.72359
28.082666 52.931671 107.16616
22.886456 31.535889 96.348152
27.888271 38.518536 92.712341
26.607544 36.613182 95.427979
24.993027 28.922045 96.469612
27.831367 54.245667 109.72276
35.455868 25.532345 94.182495
24.201969 43.456932 98.590088
28.395544 53.326843 106.36942
36.824615 27.005287 92.582001
41.011566 22.068451 93.262733
40.313725 23.470932 94.03595
36.999634 24.847023 89.342285
26.284433 37.448997 92.18116
27.73712 40.702576 94.203491
23.493835 31.496225 98.496819
36.437809 24.205751 93.587555
38.178185 25.440453 93.855194
23.051079 31.785009 98.697495
23.996563 30.647291 96.561844
22.460331 29.825754 94.436188
27.855633 38.474388 96.029541
27.5972 36.212257 89.970291
37.566143 21.532497 90.431862
27.405952 28.090303 96.100983
38.277313 25.043831 90.463341
37.857353 23.085148 93.864975
36.288483 26.374956 94.143654
25.647472 48.873352 100.67106
27.753712 39.595612 95.772362
26.634991 37.842602 96.05085
24.484514 33.270607 96.762825
21.36158 31.35952 98.100784
21.102722 29.322739 97.388412
28.356712 47.7509 99.539787
40.189209 24.171318 90.752655
25.667908 33.660545 97.690147
24.191803 30.560705 98.652664
24.337809 29.728308 98.308182
22.935795 30.229748 99.70002
33.872059 25.312626 88.029831
29.901939 39.36113 96.581619
33.636299 29.10849 87.656013
33.641525 26.424379 93.277664
32.312027 27.622841 95.887527
25.932825 26.879839 75.974899
28.988831 37.078506 95.418701
34.635345 27.179855 93.269699
36.075726 27.027792 91.063904
29.223614 41.514526 97.026398
31.210003 24.948215 91.49369
31.828623 34.365768 93.692688
30.902449 35.880833 94.057693
27.788858 43.683937 99.262886
40.5215 24.512709 92.042725
23.250898 31.987404 95.051239
33.633213 30.860662 90.550407
36.9828 21.880333 92.037552
11.752758 33.594559 67.48217
14.692087 22.284687 64.803146
34.295158 25.490862 92.755371
22.643078 29.972233 90.658508
25.229979 35.862095 89.404533
26.254238 35.808464 88.748825
18.059 36.470093 63.735329
17.448252 36.653576 64.695358
16.954735 34.216682 70.635483
26.61841 25.918541 84.302696
23.269089 25.266701 69.500854
24.382124 27.196833 67.072144
21.65156 27.415405 81.977631
21.346855 34.048481 68.278053
14.757683 24.657721 69.834801
25.027466 25.82761 78.168671
26.433449 36.732933 90.440582
23.709232 26.099489 81.877396
28.242979 36.286514 91.254181
26.174541 31.082935 73.983093
26.206587 29.841076 73.313118
16.791567 33.555214 71.935432
25.489 26.500736 90.996277
23.657589 25.526833 75.645882
18.235544 23.903242 71.452538
32.166515 25.497282 87.505844
23.467617 28.486984 64.138138
28.105362 33.440712 84.325073
26.48247 33.157009 80.848999
28.491709 34.386169 86.810226
17.260822 22.94656 68.320053
20.231144 23.30962 68.243958
24.206768 29.866516 66.375694
20.731503 33.72121 60.948776
19.512836 22.964863 64.569077
25.448046 27.545717 72.21492
24.402899 28.305944 66.598717
22.503605 28.378387 61.109077
26.205441 32.069637 76.405067
20.477444 24.255905 72.072243
27.651684 28.601772 77.256294
27.652887 27.856585 79.046516
26.484991 26.435493 79.589081
21.711252 31.482664 99.3909
22.52681 24.995283 65.669502
21.788464 32.46064 62.583637
19.996098 28.241396 79.829575
30.759079 26.702187 85.954041
21.355164 32.122375 60.798973
22.760841 30.162451 63.12056
25.446974 28.558502 71.184456
22.307453 25.202869 63.83448
22.5033 24.709538 70.276917
29.648092 32.3479 97.25853
20.391865 34.532593 62.254742
28.598877 28.762365 80.253159
24.430452 28.310402 93.373512
29.864096 32.532513 85.425201
15.362654 23.912006 69.555786
30.673132 25.188253 87.462143
21.375002 29.653051 84.455811
24.557322 25.625486 79.863098
18.976973 34.399223 71.870262
33.172203 25.598619 92.333984
31.891212 30.487381 86.375648
33.372543 27.7022 86.99942
13.371662 22.457989 65.243317
21.741718 28.929136 84.667511
18.484606 34.861778 69.283829
28.157768 32.333023 82.091629
20.991659 33.121513 78.930489
13.944532 27.4235 70.524063
22.502401 28.852467 87.848419
19.983002 26.197506 77.260712
26.577692 35.024963 86.750496
21.910284 33.468399 78.985992
12.93576 24.021328 67.194656
24.528719 26.63015 70.254601
35.710033 25.252275 88.619331
29.156305 27.150949 83.43515
18.385162 21.788025 60.960197
20.809721 24.05246 60.294853
21.956665 29.87369 58.722996
16.824934 21.604826 62.675827
22.115425 26.834579 58.747025
21.798576 25.713871 59.336636
24.839594 28.906359 68.571396
21.400721 24.268045 70.930023
33.919121 29.587543 88.525459
17.326607 20.983522 60.05265
19.922239 22.749933 57.505394
21.054525 24.45245 57.836243
19.490295 22.150799 54.962296
15.456858 19.464987 58.482296
26.199141 25.862499 89.391373
21.997715 28.562248 56.242279
18.511734 21.572227 59.702553
33.639542 24.480188 88.910751
24.16209 27.379898 90.734711
25.075905 32.699516 75.672585
28.701672 25.397533 87.366501
23.249414 27.403242 85.719223
9.0082083 37.414444 63.773167
21.77383 33.233009 63.730312
14.563194 33.534294 111.92701
26.189165 25.98048 86.002617
39.50415 22.623692 94.155045
10.980972 41.610806 114.20851
26.71916 34.17535 84.316391
27.446184 54.382992 108.29983
6.106535 39.055176 60.958794
25.318104 29.741623 70.582642
28.314215 39.774956 94.270874
24.300062 26.016998 73.01783
28.063786 37.237743 93.032867
10.721432 36.935043 64.820511
29.245752 38.735306 96.453804
22.595278 28.125469 61.877075
13.342745 38.554558 62.834339
37.150719 21.457022 91.350014
27.23855 38.048386 95.581406
26.370466 31.673279 97.894936
22.934631 53.699913 107.63106
19.328609 23.700903 70.781898
32.482117 24.499723 89.341339
33.877106 26.494442 87.605896
30.573034 34.516312 91.057129
28.078613 37.778419 95.711693
16.899986 24.568861 71.966011
10.502243 35.301964 66.098816
25.208603 26.069557 83.909149
20.368048 56.101845 108.91403
27.985264 25.317335 88.652664
23.634577 31.961004 97.389107
15.199851 38.059181 62.435188
28.209023 25.406544 90.404625
27.192579 49.363708 99.196808
27.298483 39.551613 97.976532
37.281933 24.718319 94.200661
19.280537 23.175121 68.889824
28.801966 32.518898 83.720367
9.8173027 40.923431 114.97487
28.289267 42.715523 98.493774
26.939701 52.925198 106.4931
22.451262 30.777594 95.197304
31.617334 29.352173 85.610977
35.305328 27.070108 88.83429
14.597252 33.1772 108.67045
24.187231 34.871147 93.941383
13.892773 34.238251 116.16447
14.475849 38.030685 63.275627
24.339079 32.986492 99.078461
22.378397 28.081623 84.981255
23.464169 54.161518 106.63642
15.497833 23.394419 68.538452
14.223202 33.701443 114.87215
28.895679 44.706398 97.641296
14.368492 37.013908 117.7084
12.800665 39.077431 61.367111
25.858503 39.538643 96.89283
34.152287 30.20376 94.556175
36.511803 25.848068 89.626068
14.620262 34.236481 114.65005
25.598932 41.274811 98.028481
30.014837 28.5968 97.262474
22.712196 31.661993 63.871109
25.865517 27.473955 73.823105
30.270884 36.586243 94.081841
20.543455 23.7803 62.660934
27.786369 44.664497 97.885155
29.018757 41.494194 93.278984
30.141106 33.425484 86.821091
26.196011 32.754093 78.709351
26.878456 51.482826 101.26991
28.0816 52.508568 104.32293
19.514484 55.837421 108.79597
16.574646 37.3629 60.978615
16.611927 31.543671 106.0217
26.661964 54.767456 110.88918
14.652046 34.948204 116.07755
25.284588 36.46682 91.631042
27.645456 52.558247 103.2308
19.778683 29.670473 98.627441
13.209064 35.551735 113.44391
27.976738 48.422443 100.44392
27.721703 53.526665 109.15923
13.463467 38.860039 60.094246
21.077026 29.097565 96.412369
15.138696 38.148651 61.711052
14.743889 32.865475 106.03844
11.164732 39.15144 62.806637
8.8636112 39.250374 61.979881
9.7830486 32.82486 66.705048
30.339531 36.191856 94.982758
10.641104 39.744438 61.698929
6.4057827 38.168541 61.918716
27.445795 40.076515 95.000862
8.4838476 38.66011 62.484833
14.550364 38.406612 58.899952
26.799309 32.663261 97.950432
30.083471 37.716084 95.289917
12.52527 37.821926 64.088837
19.656025 31.748173 102.40563
10.838634 39.799507 60.00338
33.950089 31.75387 94.501045
20.277569 29.163481 97.831421
12.529808 36.293873 113.51971
27.878777 26.232164 92.457634
35.212231 27.682541 92.404922
13.636101 36.596016 117.55309
30.322762 26.397692 94.345108
13.216507 34.283493 114.4982
41.111485 23.274971 91.332611
25.8622 41.315643 97.073143
27.081823 35.717491 96.984016
14.249241 35.939392 117.70477
28.764902 36.097168 95.888336
27.409985 53.986874 106.12195
23.563208 43.773743 98.13858
23.70579 33.349937 98.541092
13.016567 33.447609 112.98071
28.908211 44.316887 96.572723
24.688641 26.456955 85.803963
27.683167 51.747871 104.52866
20.585136 30.280506 100.28944
27.842903 42.139824 97.267967
26.651051 37.394638 94.337082
10.939514 37.940567 113.64761
41.050362 23.428635 93.301857
26.633369 52.892612 104.19462
27.824835 40.739098 98.280434
26.519167 36.189316 96.250534
28.315575 43.848812 96.6465
13.253159 32.922546 109.36129
29.058161 43.130108 94.600655
14.712254 33.38448 109.82567
9.6238899 40.407539 114.33036
41.268211 22.593252 91.918983
28.401026 40.779335 97.523911
34.320099 24.079763 90.405167
28.709806 36.56773 96.457794
19.225986 29.976742 102.22266
10.923695 40.006844 113.67557
11.997494 36.354385 113.11962
28.645016 35.042698 96.846619
13.050014 23.186045 66.33847
28.074339 36.098274 97.184097
11.902145 37.181664 113.97031
13.403446 32.80394 111.27682
30.658052 27.132027 96.62355
13.066044 34.03521 111.80235
15.02644 33.366161 106.95261
22.988749 30.812689 98.604378
38.32069 22.202955 89.74501
29.300835 25.848814 92.738541
33.378376 32.506725 92.862823
29.465372 42.807789 98.02169
12.766739 34.744743 113.88012
9.6173096 42.519695 114.66773
28.959717 43.232918 96.668579
28.725571 36.992546 94.007248
25.830002 53.433983 106.28642
39.365471 21.64319 93.409073
29.949547 28.260099 83.577385
31.314518 28.161413 85.433983
29.771917 29.780983 82.763252
29.423338 31.349884 83.020569
22.009684 33.299316 81.629845
20.490625 32.325363 80.501884
21.34082 32.681732 82.334167
20.474537 30.985809 82.292053
19.648298 32.297203 78.276749
20.939785 31.817501 82.916718
22.749655 33.625526 84.335266
23.486994 33.972092 83.559746
22.929075 34.196884 86.932541
21.452299 31.171257 85.324265
21.933626 32.853497 85.318031
19.866598 31.069916 80.56575
23.288284 35.123722 91.259613
22.682507 34.138477 91.585236
24.660778 35.128674 87.403282
22.271906 32.623779 89.391869
22.159412 30.801029 88.696899
21.883183 31.95023 87.626389
22.745743 34.140373 89.173599
22.194727 33.257706 87.62146
20.802574 28.728304 82.083702
25.193884 34.329151 83.857231
20.343119 29.971954 82.025795
18.635502 32.70948 76.190445
18.700804 31.218597 77.43885
16.410673 32.63969 72.569954
20.985859 33.868103 74.394646
13.301886 31.336029 69.550797
14.232052 35.330986 67.303764
24.225481 33.216988 76.713928
15.77524 34.672726 68.851929
16.075312 25.453039 72.09259
24.502274 31.212757 69.104813
19.127735 29.894604 78.62674
17.567003 35.045509 68.849098
24.718449 32.378571 72.223564
23.215881 32.013546 66.357071
23.214493 32.912758 68.89505
24.629658 32.091019 70.971771
15.371861 36.543011 65.899208
15.621998 30.919525 72.469284
22.805895 33.487679 74.72908
14.783823 27.654274 71.621017
22.764015 33.372345 70.223007
17.376398 33.197025 73.345383
13.270565 28.810181 69.988487
15.849285 28.851208 73.176247
17.047989 31.485664 74.319611
17.873852 29.166424 76.048706
17.604729 25.936729 74.112251
16.538708 27.149145 73.598335
14.753799 25.669788 70.690887
19.268162 35.289963 67.025925
19.108517 27.2078 77.139877
21.511618 25.688139 77.655258
20.452459 24.668514 73.820343
18.789383 25.386196 74.820419
11.884727 16.01606 55.047424
13.373713 21.462063 46.921574
15.058372 36.647484 49.674843
8.706809 15.779613 48.85928
18.192945 23.648607 43.332047
20.44022 22.006533 42.59911
22.248299 21.484549 41.342831
-20.547848 31.396111 42.655334
18.138065 5.0554881 31.795717
-14.044308 50.331512 46.205273
1.2023449 32.041122 34.559998
-28.265869 40.185181 43.605221
20.509644 -1.7164497 27.476231
23.136204 18.123695 31.575241
-27.398003 48.376537 42.867165
23.747997 -1.6151619 24.992502
24.12561 17.249683 29.808647
-8.2137909 35.898338 23.978004
-2.3812695 10.8088 4.3734989
26.950729 13.058644 23.785086
-20.173525 31.259481 28.531555
-19.487724 31.609743 27.193031
-19.852365 29.613447 25.17804
31.857965 10.416498 20.534737
30.483566 7.4655843 21.703613
-28.341728 48.134327 32.14135
-13.631756 37.369675 17.414261
-13.776783 21.965872 10.648568
-9.9051418 14.737576 7.6152153
-9.3128738 15.26804 7.5570035
-9.2878017 34.946136 14.346675
-4.7429199 24.593239 4.3897901
-26.206856 45.310795 30.273788
-7.3945389 13.404033 3.2714963
-8.1548576 11.609571 5.5477657
0.74442673 18.93932 -0.32842636
9.5987072 30.406181 66.696175
11.061367 31.68087 67.552231
10.240942 24.09861 65.353806
2.0351887 40.042828 58.433266
7.047534 35.537498 64.088333
7.6330624 32.690563 65.681763
10.727583 16.921043 57.22892
19.473577 34.295826 52.866398
20.330261 31.914398 48.661934
14.001468 14.785398 51.517857
21.950649 27.356358 54.430401
22.428635 28.000515 51.121643
16.468864 17.969822 51.41011
20.953691 23.733295 47.68528
8.79146 18.578115 59.608429
5.4943066 20.665789 59.351204
17.741446 36.24897 53.877186
18.656971 34.774612 50.599316
17.601171 34.797867 49.289764
5.5346909 22.934795 61.242702
17.704496 23.203669 46.947674
-0.71383286 21.265041 49.313389
-3.3568039 40.352089 56.74263
-2.2926998 42.012138 55.277866
17.898991 35.950294 51.552315
4.2508688 19.65156 54.578072
-3.5844383 25.210178 53.929756
4.8432002 42.092583 53.42635
-6.2903137 41.601871 55.42823
-4.6739159 26.632839 54.38361
-6.0924873 42.484978 54.828259
1.8166618 20.889347 51.996391
7.565424 40.867374 48.404419
6.9335804 40.474167 44.477718
-1.4425831 44.71912 38.796864
-8.2755547 25.903837 47.732841
-0.22334766 44.580627 47.946209
-10.283501 33.193573 53.26543
-2.3812027 22.067623 47.178837
-0.80959988 21.565529 50.520271
-10.351639 45.61805 50.871071
-11.151705 28.723333 48.98727
-9.3295898 26.183413 45.595551
-12.276667 47.523788 49.774731
-12.430412 27.740623 44.616711
-21.462879 38.651165 49.032314
-16.206699 46.618622 50.944763
6.4807739 40.378777 43.193226
-13.091148 53.369354 37.73399
-25.883438 50.196026 44.168652
-17.408201 50.065216 46.954437
-25.117989 42.078411 48.119648
-27.904301 42.809464 45.215668
-15.349916 54.60067 39.917542
-24.579971 52.099121 41.238438
-21.124279 33.794304 46.635178
-14.827076 54.22802 38.128853
-29.310265 44.099892 38.16016
3.3193917 30.692196 35.569313
-21.083702 30.834702 39.529099
-24.989403 51.413555 43.27755
-19.972317 33.339394 47.264408
-7.1043377 35.118523 34.003395
-15.284855 50.26545 46.584126
22.33375 23.659006 44.873795
-24.377895 43.636253 30.519934
-28.340996 49.215633 38.753532
-17.24464 54.664791 41.973728
-19.885439 54.290363 42.098248
-26.105267 38.647263 44.564091
-26.074669 41.124802 46.387825
-25.818329 51.658577 39.422035
-15.057346 28.7619 42.380825
-19.611578 29.322508 37.948971
-12.687073 37.173401 31.986265
0.37252998 44.195633 41.654762
-17.13204 28.674225 40.389465
-10.1572 50.711681 42.351051
-14.032475 53.643333 41.696617
11.642057 34.976879 42.913242
-1.9758949 26.84016 36.29171
-0.95152664 32.43885 34.129852
-13.305721 27.48159 35.078331
-11.910025 27.852503 35.716881
-6.3193855 28.924868 35.852016
-4.2659435 44.821461 35.05368
-0.84901524 31.312151 34.347481
11.838662 37.259415 46.456223
-3.9038887 42.345551 33.742496
13.103442 33.012917 43.729259
-10.999994 29.335907 34.849426
9.4276428 38.375854 43.330498
14.557717 33.248558 44.451641
18.315483 25.115841 40.251526
0.71868134 30.544319 34.770935
-3.4944363 27.848526 35.79681
-5.9443359 35.754463 33.830444
-6.9192047 36.314941 25.959944
14.511379 23.515774 45.934715
18.388742 30.296814 43.445107
6.3201408 31.53376 36.989849
-1.6626377 25.109215 38.026554
12.259624 33.795212 43.096516
20.16514 26.478451 40.660946
-0.9592762 40.570042 36.181911
-8.0862846 31.67322 35.235569
6.6897783 19.927088 47.994171
3.317627 20.121929 50.770847
-6.0443115 32.629333 34.477242
12.121284 36.098347 44.675716
15.746676 31.738272 44.19841
13.374099 37.108295 48.379402
-3.288105 45.143925 36.856812
7.71734 29.262661 38.35186
-11.656734 31.563641 33.675465
5.1390629 20.039509 49.090038
23.339893 24.182673 43.163284
2.9400525 36.097183 36.546165
6.4757023 34.414917 37.595673
22.839676 20.023613 38.931789
0.4609642 21.892544 45.982403
12.770874 30.978699 42.899467
23.013111 18.53373 37.47036
20.293034 21.36982 40.166828
16.292049 12.480564 41.757694
17.045033 9.1200972 36.636997
11.71956 13.411973 42.330116
15.799486 13.542406 43.519096
13.26374 18.651335 47.047775
15.132084 17.749466 48.047333
15.620363 17.154644 48.712963
19.499643 24.829605 38.492409
20.560509 22.040586 34.983074
23.595499 22.731995 41.414989
23.887825 -4.409317 27.004423
22.798933 -3.8238716 25.762054
17.95237 8.4831924 37.52021
27.807705 14.162401 26.602852
25.54287 -4.1238079 26.897837
23.471914 24.483906 40.107563
27.48247 11.385975 22.645817
21.832184 22.969276 35.085186
12.227813 14.878004 42.591476
19.254721 22.481541 41.908817
21.792721 24.530064 47.465446
23.103615 25.85191 43.776665
22.852531 24.841877 38.994843
22.772146 25.840631 41.476631
14.002972 15.740482 43.632076
14.347596 17.208916 46.529839
18.083248 10.243383 39.279358
15.16293 14.449475 43.404617
10.890071 15.238794 44.731644
10.972505 13.620533 44.429817
11.854409 11.654621 44.427708
17.632874 8.2041988 40.722572
19.39921 -0.3925848 26.780884
16.44326 8.0648365 35.535183
20.010609 2.3494329 28.45015
27.580082 13.652562 24.211525
7.3574667 17.120239 51.802383
18.19112 6.5030227 35.386776
26.89563 12.792043 26.125727
18.839735 3.0819702 32.575405
18.046597 2.6019998 29.450653
14.109828 8.3087549 40.71003
21.021881 0.62217331 28.757256
20.053093 2.1116867 30.593552
17.29224 7.7674851 35.606602
18.418804 5.5797825 33.246284
17.752731 6.8900981 37.133461
30.420002 10.927542 22.557186
13.204336 9.3145161 41.921616
9.2173939 16.42605 54.831051
12.533556 13.722687 49.770569
12.545227 10.95591 44.510132
13.700561 8.6294489 37.49749
13.409892 8.2916927 38.784546
13.622784 11.217499 45.860817
-14.633904 21.466589 10.626183
-0.52112389 22.815813 2.4163504
-7.151701 30.690054 8.428956
-15.727013 30.395855 23.135708
-16.482079 31.752607 25.33802
-12.523453 36.379211 22.77602
-12.17391 35.07122 20.584417
-21.206409 30.199566 32.173759
-21.537533 31.962612 30.47213
-11.182087 36.178535 23.284103
-14.850842 27.352554 20.371586
-20.651484 33.791267 29.495525
-15.422161 25.467161 20.1856
-18.637829 27.565113 15.855928
-9.3066788 31.029526 8.6500444
-8.8131371 29.21459 10.145369
-15.213163 29.938206 23.026869
-19.798759 29.308928 19.911663
-20.041985 29.043432 22.053822
-11.194256 34.271286 19.903019
-18.79468 27.90712 28.11348
-19.211536 28.328791 30.318834
-10.158592 33.701843 17.31197
-16.768368 24.990635 20.072842
-13.193756 37.001621 21.109394
-17.378813 25.458176 22.651077
-8.6973267 36.473946 18.805132
-12.904034 37.561172 24.141247
-23.815781 41.771061 30.359798
1.7877035 18.914494 -0.46800804
-3.7268877 22.562393 1.2021837
-11.117773 36.24929 14.567872
-6.2006607 28.495029 8.8137417
-5.3694763 25.838627 6.0728188
-10.169621 36.434811 15.683051
-4.3432455 23.589745 1.1682005
-9.5126953 29.547867 9.7699881
-23.199005 36.778049 30.999752
-6.1088295 8.7124748 5.1295938
-2.4649391 23.956518 3.7737923
-21.558346 37.278118 30.170277
-24.184505 36.330288 31.727093
-26.930519 44.651749 32.465355
-26.707199 42.256348 32.193424
-21.183271 42.233585 28.721046
-27.269485 39.570831 33.787651
-22.102776 43.708336 28.837692
-28.427086 43.102814 34.669952
-28.246574 40.763741 35.556168
-28.010979 49.381344 35.003681
-28.712379 47.127419 34.300713
-9.0960045 37.467369 19.104259
-9.9500561 38.129585 19.17124
-10.767281 39.718132 20.987118
-19.33609 50.632267 30.694702
-6.0355415 36.839222 26.36829
-6.9360008 36.337322 29.065388
-17.341536 50.679119 30.842699
-16.474453 44.891289 26.880709
-26.54649 51.175198 37.237507
-10.935743 40.912682 22.343012
-11.669765 41.879631 24.615303
17.631668 30.996847 104.68948
20.676582 31.988255 101.04617
20.674129 31.778065 102.42096
19.852129 32.902145 102.55199
15.275208 31.881208 108.09188
14.695332 31.077816 106.90816
14.302277 32.047726 106.1365
18.414097 32.022392 103.08328
20.178577 30.355213 102.65231
19.407583 32.549072 102.22754
21.506706 32.648453 101.82099
21.050497 32.786247 99.596161
19.065569 30.571846 102.97042
21.564899 33.911285 99.926826
27.997606 46.949631 98.532417
12.265686 35.261208 113.23071
27.011482 46.146343 98.723137
27.809982 46.685509 99.721123
27.761545 49.491802 101.33315
13.551395 35.036514 116.35239
28.171696 48.880146 99.212959
14.05756 35.654549 116.14259
28.560505 42.303093 94.0802
28.805559 42.388855 97.683716
28.339928 54.245506 108.12767
26.84528 45.407726 98.925148
28.267073 45.162872 99.288834
28.31222 44.255199 98.362564
29.761023 24.757982 90.25103
23.886059 33.852295 94.440804
25.951462 27.849775 94.315773
20.863724 29.913914 96.629089
39.783325 21.156387 92.426102
27.794603 34.25626 97.796677
36.460808 27.07753 93.373169
31.958981 26.726315 95.261368
34.286953 27.72751 93.63298
23.324448 29.286413 94.26561
32.700569 24.471659 90.287262
25.110231 35.854355 93.766418
24.954746 29.232624 97.160004
22.367756 30.745169 97.732697
23.849577 29.737566 99.562225
35.802586 23.400234 89.872391
22.696056 30.609186 101.15399
22.53112 29.50321 95.726501
35.377342 23.56492 90.920761
10.005383 28.578213 66.66777
23.919384 35.06242 88.717659
9.992487 25.247189 65.642242
12.262848 25.187216 67.453285
23.64488 27.666313 88.965942
19.967815 30.75762 100.95093
11.566597 29.210428 68.100067
22.491869 25.05241 73.601471
19.148548 35.640602 62.099304
22.099083 33.429226 66.572807
22.720545 30.63884 93.270859
27.040939 53.852818 108.92545
18.896172 32.674568 104.19492
15.27951 31.693979 105.37682
14.21521 31.410826 107.76487
13.74213 33.6535 109.49547
20.181513 32.176014 103.31955
13.539181 34.651058 111.91026
21.561161 30.536623 100.54131
22.544273 30.117971 101.21736
27.388729 53.17865 107.56503
26.447498 51.200752 102.15165
19.396175 29.25292 100.34859
20.195972 30.341272 98.326363
18.678671 30.122416 102.22401
22.776283 25.734898 46.156227
-9.2507401 31.502127 35.66935
19.315861 3.5441709 30.057076
-2.6892509 25.836361 3.8145308
-0.14628696 22.253128 53.070358
-11.600069 33.466179 33.830521
-26.332069 38.150211 32.975079
4.9072161 20.766403 47.517338
4.2391796 21.310474 45.920815
21.243042 26.938726 42.126984
28.938084 9.6954136 21.049173
-11.899189 39.059223 20.553497
23.910677 31.982609 99.354973
22.268 33.167187 98.619682
22.605312 33.30024 100.50394
27.224752 45.031616 99.680893
22.749388 31.803802 92.53289
-2.5172596 41.846146 35.471436
18.947977 31.748051 104.53389
16.586296 36.643906 65.483215
4.3105412 35.948917 62.392014
5.4504404 36.929527 62.377396
12.623293 26.897829 68.746376
13.188625 26.310711 69.118225
5.6605921 33.783775 64.219696
12.205967 34.613297 67.164146
12.272982 27.877029 68.660286
12.504211 35.361 66.722427
8.7689419 35.484711 65.184219
16.601269 35.711044 67.256241
12.565422 32.342167 68.480103
12.198818 31.323978 68.468376
8.7627869 36.271362 64.59214
8.9963875 34.035625 66.08931
6.3610573 27.343517 64.211182
13.588339 25.32053 68.958511
5.2502031 35.017937 63.406384
16.889236 35.938293 66.818115
12.917419 33.173866 68.38913
6.0756617 31.640001 64.938148
15.726968 35.586578 67.338669
6.3112774 26.269537 63.900875
5.998435 32.248611 64.827232
13.482948 24.752911 68.370705
14.184444 24.362301 68.82695
12.12952 36.433334 65.62426
7.2526522 34.156708 64.994278
7.571784 37.691162 62.859093
6.1299629 30.892633 64.951645
18.015747 35.900097 66.418747
9.1264477 27.367786 65.71312
10.438168 30.127855 67.208679
16.592381 37.42215 62.806084
14.315895 29.478163 71.104553
6.4738932 36.817474 62.950054
18.270411 36.08271 65.537483
12.41396 30.211657 68.890541
15.978522 37.454235 63.980827
16.706806 37.334778 63.293091
7.1506844 27.600492 64.688911
10.005211 26.892735 66.173569
12.38213 28.985935 68.933815
8.6629562 24.926865 64.763084
16.323092 37.454166 63.571037
11.184566 25.209677 66.498367
11.23716 24.375324 66.14077
14.964033 37.33411 64.64846
10.737574 26.11425 66.509064
14.07971 36.29467 66.133598
8.8871117 24.311108 64.662804
14.04323 30.24737 70.670853
10.92066 38.1222 63.820438
3.1704521 29.491146 62.810291
15.095243 33.475426 70.037086
10.801077 28.868864 67.37738
12.242073 37.116425 64.914055
15.045891 35.015522 67.958633
8.6509724 31.945435 66.279732
14.582941 34.364304 68.536217
6.8930759 30.052431 65.211121
7.9860401 36.500744 63.983616
3.7063351 33.042343 63.264374
5.8639927 25.538343 63.400372
14.754633 29.944082 71.564034
11.163866 34.459686 66.833138
11.283148 30.485832 67.835114
10.745008 33.272636 67.075134
10.04714 34.090706 66.521255
10.112027 38.415974 63.36673
14.454021 32.372055 70.202766
2.9091825 30.636232 62.934547
14.103548 31.488413 70.299698
9.1449203 28.845474 66.147293
11.080217 23.846653 65.713577
8.1313915 27.621387 65.219772
10.653038 27.781345 67.014496
11.846106 38.504852 63.506218
10.333614 31.090162 67.14006
8.6774158 32.7724 66.214417
14.807175 33.885593 69.26561
9.0774002 25.807537 65.245834
9.5423927 38.907036 62.696182
5.331975 29.697922 64.305374
9.5578651 31.615452 66.701263
12.594538 33.850304 67.814125
8.6966114 30.789253 66.257904
7.4817524 38.358833 62.301125
13.9714 38.635864 61.618031
3.5882568 31.182798 63.507442
8.8606873 29.744972 66.190353
12.245914 38.917347 62.89452
7.1498928 29.035341 65.101059
11.408195 28.090294 67.803009
9.849514 37.207382 64.306923
13.191616 30.075274 69.793472
10.451534 32.23764 67.113388
4.5600252 29.422806 63.795879
14.561289 36.86718 65.423592
14.741852 35.964039 66.668884
2.7813911 33.469795 62.542068
10.58391 36.174374 65.472015
15.790161 33.151859 71.047684
7.8823051 30.048046 65.732071
13.734945 33.456886 68.820129
15.001955 29.237595 72.039742
11.60682 37.412857 64.524063
11.809963 26.096737 67.493546
16.100422 34.365269 69.690781
7.6214733 25.42811 64.331917
11.716183 39.462749 61.71389
17.153286 34.698833 69.594894
1.5899878 32.929882 61.846016
12.03493 39.209091 62.353916
8.762763 38.054134 63.137459
13.513457 37.966141 63.695232
11.335405 32.642563 67.557655
14.152792 37.649979 64.163452
2.9255438 35.253666 61.943558
15.917086 32.802643 71.585907
3.4788046 31.888685 63.400436
14.392433 38.366119 62.364361
9.7722321 29.464642 66.691338
13.157751 37.473309 64.514
5.3734636 28.532948 64.010124
16.704268 34.968227 68.799408
7.6507702 31.959141 65.785995
13.879225 34.706238 67.820877
14.295628 38.274406 62.763245
2.4580669 34.36927 62.064003
12.455536 24.405148 67.113449
5.4468346 37.966652 61.616814
14.154001 26.731552 70.540771
13.605911 28.113285 70.28878
15.708757 32.123188 71.871498
13.025135 38.251984 63.470802
13.108917 38.830208 62.248127
13.584711 32.016914 69.564316
4.5372887 27.443756 63.194439
4.4062986 31.309465 64.028526
10.16843 24.605087 65.533447
13.991615 38.241669 63.057945
15.331198 31.421391 71.761269
16.076092 31.810528 72.706612
10.777042 39.515987 62.269875
14.3001 27.945515 71.080452
16.652882 33.800323 71.234756
1.7424145 31.41975 62.041424
14.824224 38.09634 62.847382
18.636955 35.371979 67.611656
17.680967 36.67165 64.130898
16.635576 33.157951 72.308182
17.884365 35.226463 68.38575
14.930014 24.957291 70.342026
13.084333 27.45483 69.518234
12.875292 27.798338 69.371231
6.6046467 33.237316 64.947495
12.764088 25.821892 68.330917
6.339138 34.656837 64.206734
12.403393 26.026421 68.06015
13.329704 27.129509 69.687317
11.998005 26.959763 68.059814
13.595316 26.838863 69.883286
5.0095482 32.90115 64.121964
12.898689 34.294239 67.693626
13.161112 35.025475 67.232437
11.409946 35.007858 66.623802
4.4109831 34.160004 63.340965
16.057364 36.110161 66.566963
5.8759136 35.941246 63.218468
11.801128 27.444313 68.022751
12.754585 28.312267 69.311493
12.211489 26.475595 68.081848
12.872911 25.347792 68.146118
6.1293993 35.253304 63.742981
7.8770247 35.494926 64.63147
13.035765 34.691986 67.45977
13.262657 35.333271 66.990196
11.510801 35.37413 66.405121
9.6858711 36.235359 65.078659
8.1041279 34.098049 65.562271
13.060429 36.342316 65.90654
9.6249218 35.420891 65.678635
7.2588711 26.823238 64.531372
13.85359 25.89521 69.702538
4.7733717 33.478867 63.818321
12.148109 32.936893 67.968033
11.820791 31.925644 68.034531
12.917345 31.756027 69.003906
11.977106 32.473896 68.003906
11.609737 31.438095 67.978973
12.751982 31.233673 69.01149
11.844513 30.278191 68.326797
13.673399 26.358152 69.74334
16.243484 36.264572 66.302979
13.23448 32.588318 68.942612
15.775961 37.039627 65.043839
9.7638817 36.613716 64.786774
7.8922453 35.900471 64.363144
7.975708 34.81102 65.12738
9.6526089 35.835327 65.388176
9.7475414 34.712601 66.145294
12.922628 24.687244 67.747307
17.095831 35.377251 68.003265
8.2895241 33.35368 65.916367
6.795126 32.152367 65.300972
5.4384928 27.85552 63.856937
7.2276058 26.325279 64.398438
7.2283678 36.60458 63.483032
14.082523 25.484896 69.714241
5.3973007 26.883476 63.587254
6.8690205 31.397762 65.3881
12.313072 33.405579 67.882347
16.203424 35.215881 68.089172
13.420322 32.993347 68.883148
13.06953 32.172592 68.985733
5.2079945 31.803503 64.448402
5.4887981 27.366669 63.760162
5.212554 35.922188 62.902134
15.617528 36.051003 66.643158
6.8079033 32.526703 65.243347
6.4592094 33.96373 64.607574
17.287201 35.510735 67.729355
8.2303686 37.511749 63.315434
16.330654 37.069138 64.756927
5.3073683 31.099899 64.528717
12.912867 24.983662 67.951347
15.744692 35.125938 68.071228
5.2556648 31.455101 64.496811
5.1704483 32.14138 64.380539
17.580252 36.384247 65.446732
6.7656412 36.154312 63.530426
11.304071 35.91423 65.908569
12.944965 36.848755 65.308784
16.655704 35.355156 67.957787
6.8376102 31.782005 65.362839
13.20105 35.848499 66.459076
7.4064884 33.418713 65.364418
6.9553108 30.994495 65.415215
7.134059 34.857162 64.565033
5.809473 33.064255 64.54039
8.8403912 34.768425 65.679031
7.7172756 37.060646 63.413605
6.1190281 29.877045 64.761002
11.397461 36.67186 65.241104
5.3454094 30.706135 64.520615
6.7848873 25.506805 63.922176
9.5990562 27.976168 66.201721
17.500656 35.729427 67.180603
8.6327 28.243933 65.681488
17.305586 35.620174 67.472229
14.6369 30.674507 71.175285
15.937309 37.771664 62.291126
8.6263657 26.772404 65.245956
11.912025 28.516277 68.385948
5.4622402 26.389046 63.46064
9.5681381 26.325527 65.684677
4.4227133 34.831306 63.045837
9.3805943 24.768433 65.129265
9.2594585 25.210701 65.191849
10.716373 30.932297 67.396698
13.758356 29.171333 70.527718
14.093969 28.403011 70.882736
11.033234 29.64484 67.643753
10.174553 29.345917 66.946999
15.901254 37.763233 62.790012
14.952658 35.474709 67.330574
17.286917 36.31776 65.86232
15.160316 37.733711 63.735855
3.7840633 29.970779 63.437424
12.806828 29.497248 69.417297
12.818552 30.641182 69.244484
11.989023 29.680298 68.514664
11.726391 30.902662 68.148521
7.6251259 28.317623 65.150528
15.388075 37.794628 63.436344
9.9967842 27.744823 66.434586
11.254276 26.085676 66.956581
10.684338 26.935171 66.776794
10.649775 24.821148 65.931267
11.798082 24.808464 66.811562
6.6426659 28.229012 64.605682
5.4463234 34.396049 63.827309
15.59059 37.829494 63.10371
7.6444836 26.957985 64.762901
9.1065998 26.591404 65.475815
12.800682 30.0844 69.338821
11.966721 29.014248 68.491013
11.848572 27.978535 68.218925
7.0229168 25.889301 64.164238
12.81361 28.901836 69.434921
10.619827 25.22164 66.063187
10.006973 26.062035 65.903809
11.712259 25.219076 66.958527
12.047832 24.110031 66.5951
16.642361 37.134048 64.307121
13.653246 30.759733 70.115425
16.801844 37.157082 64.01326
9.5105972 24.376642 65.055557
17.079418 37.059601 63.806831
10.82369 37.530052 64.313522
19.539021 35.378395 65.560036
9.9485607 37.797165 63.838516
13.620834 29.50601 70.363365
15.181592 36.964928 65.262039
14.466167 33.140732 69.721222
10.334377 27.320589 66.592033
11.038946 26.552574 66.959351
9.3403111 33.431435 66.409073
11.721509 37.980106 63.998825
11.877134 24.436483 66.664497
14.1513 35.812359 66.737099
5.8902359 27.958488 64.131668
10.378836 25.656378 66.042549
11.480494 25.636484 66.956535
15.507538 34.179863 69.481758
13.935505 36.749729 65.55114
14.717615 37.707088 63.952248
12.254333 35.886871 66.186821
9.6137638 23.98901 64.915039
8.168932 24.435295 64.323074
19.456942 35.466064 62.972626
15.109531 32.715446 70.63723
18.024845 35.696156 67.074409
7.9131813 24.876694 64.324326
16.745071 36.294754 66.142143
14.521673 31.015249 70.92128
8.9116278 36.878822 64.178566
3.7895689 30.579666 63.597923
11.019393 38.690361 63.352474
13.925802 28.793575 70.713943
15.729752 33.76585 70.3078
11.470112 37.043045 64.885033
11.168972 29.098619 67.723282
11.035601 27.92985 67.409683
10.416483 28.71151 67.026169
12.99902 37.156425 64.939247
10.876209 30.282948 67.528442
11.335094 36.28978 65.589233
14.250769 34.535637 68.165756
14.623941 35.174278 67.61068
15.268304 35.77557 66.995773
6.2632046 28.073387 64.367859
15.452383 34.851234 68.376045
4.0942793 32.498249 63.676933
11.930286 23.753323 66.268852
10.694698 24.202429 65.690063
14.002972 34.187424 68.373901
14.265207 33.670124 69.041794
14.450544 34.854851 67.908463
8.1483116 32.22863 66.012314
8.1806469 31.509415 66.057053
9.2167892 32.366062 66.508072
6.348424 37.35421 62.527077
4.8328648 35.422974 62.978413
9.1306782 31.172138 66.491364
6.8687859 37.783871 62.456585
7.2747211 30.599007 65.522507
7.4781933 29.55397 65.407646
15.208181 34.541832 68.698746
8.3754787 25.605597 64.787994
14.900974 30.894463 71.407585
6.470068 29.542662 64.867149
9.3224792 36.747688 64.484268
10.382931 37.666817 64.090477
8.4879789 36.976013 63.881546
7.5073357 36.018143 64.049751
14.707134 36.426376 66.035362
5.7235746 30.299908 64.645126
9.53514 37.910267 63.588978
14.316488 28.549664 71.149185
14.511446 28.602669 71.392349
12.402145 34.205429 67.505493
