# .PCD v0.7 - Point Cloud Data file format
VERSION 0.7
FIELDS x y z
SIZE 4 4 4
TYPE F F F
COUNT 1 1 1
WIDTH 1598
HEIGHT 1
VIEWPOINT 0 0 0 1 0 0 0
POINTS 1598
DATA ascii
40.172394 4.3108935 45.347141
39.700344 1.4704847 24.83427
39.642395 15.566623 30.38303
40.553375 17.233379 30.809443
39.598328 0.9397049 31.620796
45.100842 16.720427 22.565653
41.253807 15.998554 30.984333
37.425514 3.138474 36.664604
39.458809 1.9690847 26.131767
41.308258 1.3191261 23.028959
41.576927 -1.0196047 24.492348
39.653439 2.2539921 33.074074
44.137871 1.4887934 24.128454
38.95779 1.5460262 35.549484
37.619625 2.2681785 37.194504
38.051521 2.6018395 30.864639
40.039261 15.769521 24.931726
40.013912 1.247776 30.31953
39.034973 1.5204992 36.981018
40.32935 0.52800846 27.830383
41.309471 16.869644 25.445206
40.516365 1.9895163 26.501097
39.268234 0.098669052 28.011728
39.140221 0.50775242 30.581566
38.291153 1.2505713 26.540367
40.680351 14.972399 27.27721
40.735291 16.953592 28.87056
39.796677 2.3245916 29.960991
39.811897 15.453946 28.978668
38.180435 0.78773689 28.920128
38.772552 0.80785847 32.69051
41.785118 16.148331 27.964294
38.139816 1.2724743 34.265324
42.42453 15.176792 25.427998
41.705421 16.70986 26.788239
43.543571 15.128723 24.282146
41.417484 1.0513954 26.02832
42.852837 14.191051 21.894936
45.410324 14.032696 22.171658
46.337265 15.181475 22.941689
37.639751 1.5731812 33.260979
37.738079 1.612627 29.654083
45.524277 16.29332 22.044319
41.884262 14.612148 25.077164
42.395798 16.944324 24.228779
43.977734 1.1944408 23.434303
44.566978 15.285399 21.513157
41.124817 0.59526634 23.086643
43.052322 13.970252 23.732346
45.271362 13.913434 23.095495
41.455727 0.10923958 25.953873
43.645481 16.806873 23.700768
41.573936 15.230265 27.843187
41.775253 1.9114628 25.046793
44.756989 -0.25222111 24.218849
40.465977 16.580667 25.063906
43.608658 0.95091629 24.867638
40.465462 -0.56032848 24.416658
43.058975 16.420273 21.884062
47.004631 14.805262 22.109734
39.308109 0.39185333 25.118038
40.84642 16.173061 23.754648
42.853527 -0.81616116 24.735374
44.382084 16.08077 23.790377
39.640022 17.13678 31.439989
39.187103 2.8914967 33.483284
38.41655 0.6091032 30.102926
40.844398 14.836933 24.949215
38.246964 1.665102 46.640106
35.933926 1.7661457 64.160332
40.146446 3.0893097 51.842621
39.50235 2.6475945 53.32312
33.815643 3.5114675 55.117081
40.510269 3.990222 51.28643
33.088364 4.4118781 55.438271
32.207081 3.0998769 60.272724
39.395897 2.1381807 39.384464
40.539234 2.2888827 42.937317
40.99646 4.55371 55.28537
37.762253 1.9992189 50.941338
35.674622 4.0695524 41.674004
36.368267 2.86098 52.821327
41.087494 5.2944756 55.146812
38.193409 1.6673107 41.410507
36.469204 1.8788586 60.796043
32.16819 2.8296065 61.485874
34.898857 1.8678646 62.85638
39.964882 2.9717035 56.768814
37.641098 2.5651741 53.755604
39.647522 1.7594061 43.060543
36.478954 2.3866444 57.959763
33.290089 3.1288376 58.002678
38.594849 2.3705254 58.724121
38.777088 2.4628367 55.834774
2.8168621 11.612256 53.632542
-1.2773914 21.547436 42.906494
-5.1434135 9.8636513 48.531891
1.8934822 6.7985687 51.880783
-3.2660828 19.904385 47.958199
-2.3403416 10.290379 41.074043
-2.5984077 8.0028849 41.379791
4.116128 12.825484 56.191257
-0.79231644 8.5113373 32.636917
-2.3820782 13.397086 56.388783
8.4722567 8.4743824 56.451721
-5.4909992 18.8507 40.746639
5.8270702 9.5619907 53.641212
6.0687819 7.9888296 53.62302
-1.4509964 6.1993494 30.785666
-4.9082794 9.7137423 36.821659
-5.4948273 9.1489964 37.241756
-2.7734718 6.7195482 32.852726
-6.5613327 8.997632 39.60976
0.12261963 10.635782 46.336723
-2.6253014 6.698956 28.346157
7.9606247 18.721725 18.384678
-6.2815094 9.7347012 39.01606
-0.21876907 20.180153 42.769279
-2.8145294 7.5935335 52.285286
-3.4049263 7.6813288 30.809526
-5.3353672 18.919155 42.171474
0.65526581 19.385267 44.859566
-0.65254974 20.706375 42.066448
1.4810715 19.275423 47.688095
1.1888905 20.31752 45.436119
-2.1679878 7.0860147 54.141483
-3.0353432 11.230377 51.382088
-4.018177 9.9845715 50.885406
-2.9685421 7.8171601 54.671741
-3.490509 8.1183767 51.095512
-3.4763432 9.9993534 54.438007
1.6467991 12.233109 53.983025
-0.36473083 12.141278 52.400391
-4.3133202 19.462376 45.661903
5.2235727 6.9212008 53.997295
-2.014473 11.908638 51.79451
1.3541832 19.48143 46.50898
3.3314972 10.579879 52.410583
4.8578377 10.788202 53.977711
4.1161118 7.6785436 52.46328
-2.1858807 11.871248 54.436085
-2.7817326 18.5499 33.140686
-0.34410477 12.707217 54.430908
-4.2536545 10.71082 49.07214
-2.4086857 11.554787 53.3596
3.9424 9.0382042 51.971256
-2.0501747 9.1970577 31.281937
-0.81017494 17.688635 25.937149
-2.7023449 6.4680357 29.838558
-0.69302368 8.592267 29.121138
-5.8089886 10.438557 39.166733
4.8398666 18.319874 17.64975
-2.7529335 8.8220253 30.501837
-4.8062534 10.975544 39.597191
-1.8575134 6.7685165 33.203815
-6.0239067 7.9506578 42.3951
-1.7875729 18.558727 29.077335
3.937109 6.924202 19.879528
-1.4117947 5.6527867 27.836269
-0.6081543 6.7441072 31.285587
-3.9957771 7.5652466 38.308762
-1.5190601 7.369288 34.550804
-2.7489815 20.368416 35.460167
-5.5217342 8.1486311 38.389782
-4.093111 17.880661 39.448017
-0.062660217 6.386127 29.100384
-3.6564426 7.4040489 33.612175
-3.2597485 7.5177011 38.599274
5.0845652 3.0606298 19.239445
-2.2741203 9.9024487 36.153065
-3.4675274 7.5246105 41.240116
-0.59271812 7.8888721 32.727795
-4.1340981 7.6584978 36.76009
-1.6537247 8.238656 36.432278
-4.7694073 8.276022 35.735195
-2.2531662 8.5272379 39.501404
-2.4330845 7.8484178 38.300106
-2.676651 17.690319 37.406319
-1.5219421 9.1924324 32.73159
0.38217354 7.6749544 28.264421
-2.2381191 6.9878502 26.890945
-2.9823265 10.316286 36.954681
-1.7092686 9.0397758 36.128845
-5.0692616 18.778585 38.296665
0.32933807 7.1458025 29.172419
-2.6130695 9.5670395 33.45924
3.9791908 17.097994 21.780443
-2.6511459 7.0209112 35.272942
0.25419998 5.311974 25.587244
-1.1764221 7.5385809 25.37254
7.967679 4.9992228 19.252024
3.9589539 16.699938 19.669167
-2.6300545 10.520061 39.032093
-0.75063515 18.52557 35.690617
-2.2547169 9.8362808 39.650906
-4.2002335 9.1647692 34.564415
-1.3656311 18.279369 38.003834
4.7007637 16.763157 20.22864
-0.88803291 19.263071 37.230762
-1.9668598 17.723057 37.675163
0.5571022 19.970268 27.914589
-0.33675385 18.111546 33.119377
-1.6861076 11.382308 44.921692
-0.13726234 19.586092 33.33485
-2.4958725 8.1435928 28.464828
8.0893087 16.634163 18.246048
-0.97976112 20.027733 36.848022
-1.358696 8.5619059 27.965981
-1.0162773 19.52574 40.047417
1.0802917 11.326442 50.724991
0.82129288 9.6247387 46.238518
3.305027 3.4161606 20.421162
3.5461426 17.261478 18.997749
-2.5001106 18.95636 31.538153
-4.4357643 9.7115974 56.790009
0.70344353 9.0085182 45.79319
2.5355072 9.9556847 50.416759
0.23165894 7.936173 26.336536
2.76861 6.9887366 20.611675
-0.39684296 17.440014 27.918608
1.9827518 5.6960964 24.031254
-0.74853706 7.2302866 46.275539
2.5359554 7.3529329 51.457363
0.8418808 7.3208227 25.953735
-0.083482742 6.8190742 49.275337
-0.54476738 5.4814377 25.000528
0.73730469 11.717998 51.66674
2.4574242 8.8705215 49.473862
-0.61250496 6.7339401 50.705837
-4.0085526 10.059509 36.663082
0.52481651 8.3112631 45.951221
-1.4073582 20.567614 39.267864
2.330864 6.2475729 53.392353
-7.0040398 9.3744678 43.170292
-4.4299431 18.026669 41.667152
-3.9183121 18.947746 36.451927
2.8238583 5.0323148 22.677528
-1.5201378 9.730423 42.933125
-2.0132618 6.1609616 27.189171
0.074293137 7.7929816 46.091034
-2.8827801 17.634747 40.486954
6.1151943 19.428337 17.848238
2.9878025 8.1568155 50.966034
0.59567261 6.5349612 51.832108
1.7641335 10.679972 50.200356
-6.8481045 10.134447 43.73037
-3.5949306 11.3682 48.370705
-3.5367126 11.519857 46.580032
2.7119465 5.0631385 59.142719
-4.0774441 11.471205 41.973328
-5.6231613 11.290764 43.275887
-5.4014568 11.238619 41.570408
-6.7719975 8.8785276 43.37347
-2.77668 7.2715192 50.303532
-2.9161072 11.025477 41.188068
-2.5892353 17.814404 42.755554
-4.1863422 18.691219 43.892082
-2.6739006 11.54785 44.248001
-2.5379238 7.0300598 48.378693
-2.4799156 6.9465747 46.553123
-3.1250038 18.069283 43.420238
-4.4886284 7.546402 41.559456
-1.7561989 17.847765 42.684113
-5.0462856 19.816296 43.613209
-3.5422802 7.4059949 43.912964
-1.5611782 18.176899 40.093777
-5.5366116 8.3052273 46.176842
-0.67029762 18.288174 43.838894
-5.6756592 10.873263 45.620403
-4.778223 7.7918987 45.948284
-1.0748138 18.326225 25.57304
-3.8641891 19.918932 36.759304
6.8547935 15.790373 18.331415
5.0338192 6.931263 18.943998
6.4778042 19.444473 18.793932
3.3559132 3.4521112 19.304098
4.041604 6.4294443 18.861361
0.45739937 4.9325166 23.709522
-0.33927155 5.5670462 23.394346
2.8441772 4.4250627 19.075937
0.68684578 7.5609379 23.866005
-1.2538834 17.816299 30.268394
-1.5436878 19.393585 28.52907
0.84854507 19.643139 28.800156
-0.99014664 6.693737 24.262487
0.2517662 7.1550732 22.943481
-2.0602722 17.998026 31.876076
2.2908745 17.073042 23.902975
-0.4768219 18.69725 23.524832
-5.0265236 20.303043 39.656452
0.43297768 19.668848 22.353182
4.5423355 3.8294535 18.763969
3.8519516 19.251461 21.915699
1.3731976 17.68364 20.140192
6.5114336 4.0783653 18.866879
2.3333473 16.574234 20.963097
0.041879654 19.771694 24.279016
5.559269 6.3579597 18.583179
4.0930786 3.5768561 21.191444
1.1116028 16.960655 24.018131
7.3942509 5.3269868 18.91135
7.3074522 4.9983969 20.224873
1.0903187 18.75732 20.424292
-0.29623604 6.1456823 22.814024
0.45556068 5.9697409 20.902407
4.5484419 6.6443667 20.4874
3.344511 5.2949519 18.777214
2.0563717 19.473396 20.130842
2.0017681 6.6533527 23.997047
0.49183273 4.8201184 22.058508
6.33463 16.205265 19.185856
1.3051529 7.3740234 24.238815
-0.79005432 17.697451 31.398813
7.0024147 3.4892011 19.867729
5.2115526 5.3141298 21.588596
-2.5090561 20.002232 33.438194
7.2640505 16.412262 17.799585
3.7630806 6.4770818 21.825068
3.2924881 5.8369393 22.538033
2.4703083 7.489706 22.265375
1.3496704 5.0030851 23.838505
5.5814009 4.4300547 21.103804
6.807209 17.844398 20.123373
0.040500641 17.253025 24.772823
6.8472548 6.0806074 20.109547
4.9489403 17.966053 21.151947
5.1257944 17.275101 20.768953
2.9909267 16.474445 21.468058
3.8884525 19.551033 20.595764
7.2263813 18.698883 19.524374
7.8601389 17.059599 19.183641
-1.0131721 19.188753 26.281239
-3.7920284 21.21792 43.668945
7.3188648 18.557247 17.50548
-1.5081291 20.494701 35.836498
-5.8030586 20.05789 41.602257
4.538166 19.345118 19.305086
1.7205677 17.828117 26.072617
0.10728645 20.029041 26.939018
-1.7586613 19.939945 31.149708
0.68491745 17.938801 29.422382
1.2893085 20.063931 23.15313
0.69273758 19.306503 30.401798
1.4826565 18.573772 27.888813
2.1315975 18.873787 25.717224
-3.576355 20.702181 38.008263
-3.4649162 18.137077 36.918388
-1.4676743 20.457771 34.523743
-5.1936455 19.699287 38.358078
-2.2369404 20.661598 36.340851
4.8776588 18.960016 20.778576
-0.34637833 20.039585 31.413725
2.9336338 19.590651 20.120245
1.1771984 20.050232 24.981579
-0.054225922 18.226339 22.302425
-2.5199394 21.013206 39.308029
3.8868885 18.8904 18.780931
-3.6113625 7.5908265 58.826366
-3.4598007 15.925425 57.754948
6.1978617 5.0864892 60.601364
-2.6944847 12.087999 55.454754
-1.4521046 15.876736 57.435959
1.102644 14.130273 56.89167
-8.4250603 8.9157543 64.876175
8.6188507 5.9235282 60.39315
-7.1290665 7.8944817 64.235413
-0.5990181 13.114006 55.376175
3.1174164 4.6457233 61.234459
4.38517 6.4292431 54.594349
0.48045349 5.490417 56.865532
1.8261871 5.6208124 55.974979
7.2299995 5.7688303 59.374622
2.3548927 12.939907 55.600574
-3.2744331 6.0931034 62.227528
0.016149521 18.427507 51.407921
-2.1506348 16.965927 57.00145
4.5089426 16.708385 56.912712
-2.1671562 19.516024 55.037914
-6.356884 14.859888 59.352066
1.0351067 5.1825814 59.646214
-4.4207668 8.7847939 58.096783
-1.0747452 5.8282518 59.974194
-2.5579205 18.176891 56.346607
-10.548189 12.986662 64.825302
-6.0277252 20.000334 57.706638
-5.186039 10.084109 58.026581
-2.4932365 6.5100169 59.634521
5.8244972 5.9422793 57.843452
-3.6218605 20.095314 55.935318
4.5632734 5.1288843 59.727444
-2.6539803 14.735397 57.157333
-4.0029087 13.609132 57.462635
-4.6476746 15.137923 58.263664
-4.9978123 11.944672 57.682762
-0.72240067 18.854795 53.698517
-5.4289227 7.2418861 62.439495
-0.83481789 18.106363 55.206615
2.3248291 17.4904 54.812771
-0.91405296 5.8045015 56.947941
-7.2678757 9.6616993 61.320755
-7.1444607 8.5845175 62.409786
0.15552711 18.19025 53.93972
1.6353245 17.084049 56.075012
-9.2127151 13.07097 62.493134
-9.1124172 9.8393717 66.101181
-4.4751968 16.944916 57.941601
-3.8863525 11.984415 56.531815
-11.844612 19.086681 68.172852
-12.288609 17.123438 64.521271
-12.21719 17.094526 67.525948
-13.472206 17.398146 67.64946
-11.931049 18.106495 67.10807
-13.137367 17.692532 64.346878
-13.521862 18.068129 65.50293
-8.73176 9.9864187 70.339661
-7.0155678 8.4652634 71.582413
0.51970482 5.3202229 66.282974
-11.235081 14.192384 65.814758
-11.501581 15.314459 69.135239
-11.379385 19.056581 67.46756
-11.859396 16.531927 67.319672
-11.421984 16.481882 71.928055
-11.46933 15.62088 70.778282
-12.736137 17.255039 69.550949
-11.270004 17.807766 66.116928
2.9479656 22.194839 49.515564
-1.4919491 27.3006 63.393948
-2.7238941 20.813343 54.938175
-10.463442 21.203041 69.932053
0.48420715 26.585276 60.394218
-6.8725986 20.999619 58.568199
-12.938911 18.169434 69.382538
-7.9924412 24.545334 67.35405
-12.231476 19.218483 69.310257
-9.150156 23.17642 69.953545
-1.6046963 19.982471 53.372864
-4.6728191 21.632427 56.738926
1.8142014 18.996988 49.006382
2.0422058 18.158331 52.542934
-2.2836475 19.933918 50.093834
7.1465368 22.884571 52.71257
-6.1761303 26.019623 69.407074
-1.7190456 20.08157 52.199562
0.21431732 27.922604 65.212479
1.9950752 27.788935 63.733696
-12.524933 18.916199 67.510132
-9.3705502 22.491837 71.316978
8.0204659 24.146812 55.446316
-2.894577 22.149765 55.406921
-9.0244865 22.078787 72.706291
3.5468025 27.8829 67.277496
1.5632153 28.120279 66.490303
-5.6804619 18.692719 57.779552
-6.7118855 16.158506 59.497574
-10.812248 19.251106 72.85331
7.2988167 26.41255 60.731827
-3.4603653 27.434628 69.958138
2.8257198 23.374773 51.926582
-4.3775921 23.799791 58.735481
2.491375 25.674587 57.416336
-9.4272919 19.034203 62.29142
-2.8249817 24.907803 58.96228
3.8650856 20.467533 48.876015
1.3899269 22.038557 47.351494
3.19664 21.194292 48.61924
1.947319 21.074657 47.051434
-9.2198601 23.34001 68.336304
2.8244343 26.833673 60.430496
-8.7840195 23.011957 66.326691
0.71287727 23.787041 53.161743
-3.520153 21.063927 46.924927
-6.353611 24.414055 61.973984
-10.251438 20.865145 67.806892
-6.8158779 22.401241 59.774799
-3.8972225 23.266598 56.911892
-1.9399395 26.39679 61.04985
-1.6576347 21.963511 47.200066
0.53224373 23.009613 48.863396
-0.44884872 23.495567 53.223583
1.5932674 23.567005 52.229179
-1.8095493 21.771753 53.322609
2.2517872 22.951675 50.317608
-0.15358162 23.967175 54.587231
-2.572998 23.091822 55.866974
-1.8456078 24.25651 56.777981
-1.1240788 23.333069 54.338509
-0.96064949 25.192228 57.882965
6.896944 24.401318 54.91013
4.6710567 22.906429 51.501862
-2.6659851 20.962383 49.495361
-7.7531281 21.313625 60.191849
-8.055088 22.807106 62.709618
-1.821722 21.527424 52.19072
-4.8047466 25.654366 62.18372
5.4791822 21.694035 50.691475
-6.8757572 25.533525 65.041046
6.4738703 26.013859 58.745975
6.043539 25.562908 56.87495
3.2832317 22.918907 51.015312
6.8715115 21.493332 51.452656
1.1240005 24.073597 54.073433
-3.3405533 26.568565 62.716007
-0.2908535 23.232685 49.525146
54.218018 16.708841 76.68895
48.733429 8.2741585 70.617203
62.336788 7.9265018 93.48304
50.911659 14.585455 69.818871
47.197311 8.3393011 68.58403
56.979206 15.999506 85.556717
9.4000378 5.144165 68.890358
30.09779 16.058893 77.299133
54.542957 15.81397 84.125046
64.43898 5.7304125 103.71235
57.873966 16.086506 80.773987
65.343842 10.214476 85.458954
60.604168 15.446709 82.765533
56.287735 9.351656 79.164307
49.172554 13.291582 67.856522
58.567936 15.36581 80.134583
58.909927 16.146503 83.243095
61.481201 3.9647741 108.01211
56.292797 14.322606 76.723923
57.945755 6.2406864 122.90277
62.200787 14.332479 83.164215
58.59206 8.6109638 85.001785
62.69915 10.515756 83.369904
56.015255 15.251243 86.529617
62.042065 12.044769 82.417374
62.554474 8.4887123 104.4272
57.814594 8.9039316 81.546432
62.060703 1.6219664 113.30694
64.710678 7.5609436 102.55592
57.627213 5.9929023 121.73047
61.63905 9.7429237 83.143906
64.74556 12.937645 99.68074
62.401443 8.1224241 104.06555
63.033646 7.4114718 104.40382
61.95726 2.7275662 110.56519
62.591419 1.174983 115.48611
65.79451 8.8626137 99.265465
62.078106 10.016077 96.655983
59.916862 4.3368735 120.30147
76.107071 12.031598 88.454178
61.526073 2.3242331 108.6085
63.895336 25.392879 114.49799
64.891693 21.107586 101.62206
71.112473 13.568398 88.579445
70.01545 7.7642941 94.497749
74.603355 9.1589108 88.091721
66.736191 7.9682946 98.081703
62.917973 23.504902 108.05615
78.503601 9.960619 84.720711
60.605679 2.8701315 111.29499
57.614998 8.1444645 123.35031
63.997326 25.923441 109.71114
68.205063 11.549529 99.027534
72.142204 12.853029 90.246796
66.092438 16.515793 100.52181
65.880081 18.178829 101.15617
65.218178 18.981783 100.89061
64.270721 19.73435 103.61374
62.853153 4.1070018 107.98061
68.543503 13.77065 98.453308
65.073097 17.618357 98.987122
60.620953 25.266745 118.9436
64.123116 7.6238132 96.684288
73.697479 10.349838 85.376862
61.399525 1.1975222 112.11796
63.897728 23.190718 107.93993
76.486435 10.82123 84.502953
60.364723 2.0559945 111.31319
62.35413 2.5396271 115.69865
65.85881 17.984921 100.23798
69.348282 9.3754139 97.155167
64.147827 8.4839687 99.980125
64.68354 19.186775 104.09549
65.944305 15.684203 101.01145
64.607597 26.891251 114.50546
60.9571 2.6763763 117.40393
65.034363 21.377155 103.77586
64.484451 16.571598 102.58224
69.429543 15.279113 96.183289
59.349663 23.636948 120.48909
65.215668 15.122579 100.53855
62.720734 17.665598 104.00363
65.10582 18.2889 101.50369
63.709946 24.617977 110.53149
64.235352 24.789007 111.65274
61.821457 17.770578 105.29646
61.960243 24.544649 118.75978
62.40036 4.040596 106.46029
64.791 17.833427 103.57902
61.757633 23.582735 109.22019
60.564583 23.974537 119.16003
69.576019 14.527409 96.912079
64.562012 25.651556 111.38084
63.990173 17.380812 101.21502
63.166969 25.748888 116.72814
66.955597 19.442455 102.21732
64.537071 24.988811 108.92832
63.283623 16.851299 98.056938
63.295078 17.687634 96.677071
60.544968 23.206026 120.18983
61.400757 3.3994064 109.45924
72.578491 12.513996 91.960297
78.661217 11.40625 88.08564
63.063057 17.515936 97.35524
59.785164 23.512054 121.67522
66.315018 25.87435 115.99113
63.342621 8.6531239 98.77475
63.884655 17.858751 97.375755
64.581787 14.879372 99.187561
65.941368 7.3574162 97.085899
66.865913 26.121124 118.81277
74.738792 9.8656788 90.566238
61.965408 18.648458 105.63513
66.105446 26.581938 115.40442
74.743515 12.192736 89.475655
80.030273 9.7067165 86.605774
79.377411 10.350397 88.092789
74.068932 11.399353 85.720673
62.605923 16.391457 96.917213
63.786545 19.19717 99.659477
64.831856 8.2625828 100.39244
75.689255 9.3613758 89.180489
76.916458 11.106649 89.450737
64.463631 8.2486572 100.8213
64.636024 8.3390274 98.230644
62.625587 7.5787969 96.517891
65.359795 16.834467 100.16531
63.083557 16.585241 94.110947
76.007996 8.5368252 84.985687
68.056198 7.8470984 95.693939
75.593109 11.810655 86.380722
77.340462 8.9717484 88.49527
75.177109 10.962183 90.667809
62.532314 23.259256 109.40033
64.829605 17.810425 100.48165
64.5243 15.746788 100.25736
64.369164 10.713411 99.435371
62.894386 7.3056993 100.62181
62.953018 5.6791553 99.181709
64.639954 23.860201 107.14725
77.592491 11.848055 85.672638
65.670135 11.30217 100.0463
65.765182 7.7407517 99.899246
65.977707 7.2047334 99.191864
65.272446 6.5903325 101.00278
70.703262 10.772467 85.738792
67.074944 18.340073 100.42967
69.223717 13.979982 87.197105
72.539597 10.068991 90.734985
72.238235 9.7184296 93.86573
58.129063 12.063381 78.595123
66.451096 16.344275 98.690681
73.153381 11.1553 90.776215
73.423058 12.320406 88.423958
66.070946 19.722588 101.97101
70.118843 8.2540092 89.27906
68.867996 15.83593 95.183151
67.806084 16.591755 96.44313
65.228462 20.253706 105.25352
78.352249 11.90727 86.817421
62.935425 9.5780506 97.776062
70.00737 14.609051 90.427872
76.134781 8.0977602 86.668137
40.378319 13.85201 78.599159
44.971298 6.4114914 70.397133
73.130356 9.7277241 89.683319
61.040344 8.8918495 93.341637
60.934113 15.392417 94.170067
61.519871 15.999347 93.29232
43.175369 20.209478 74.879578
43.037243 19.808645 75.951294
46.002731 15.788979 80.015198
62.729507 9.1187973 84.991348
53.446159 11.403291 73.187195
52.729088 14.244166 71.677841
57.054379 8.8331347 85.157089
48.70039 18.310535 76.66246
46.590767 6.9689393 75.690498
58.658573 10.125614 80.239563
62.159904 16.364208 95.082855
59.131832 8.6759405 83.878349
64.183441 16.56159 95.038643
56.20652 16.303326 78.730736
56.296703 15.465942 77.598145
46.642708 14.776348 80.863159
64.611671 7.1408925 91.233452
56.457542 9.9960384 78.376724
50.473869 7.419836 75.697617
68.974289 10.315956 85.87941
50.261379 15.782425 70.048935
61.789623 16.12896 87.95256
58.941917 16.179604 85.366966
62.954655 16.371998 90.361465
48.524811 7.0928411 72.90979
50.891251 8.7555523 72.137924
51.485752 16.622852 72.340378
44.985382 19.906376 70.509735
48.735657 9.219183 69.091942
55.836105 13.509844 75.862732
52.208897 15.328392 71.770279
48.119209 16.145737 67.726128
57.031067 16.440062 81.209015
52.541031 8.542675 75.721878
59.650558 13.913066 79.946129
60.673996 12.759882 81.122116
60.348484 10.876896 81.284187
63.732807 7.1885009 101.66351
51.178566 11.963927 70.04911
46.981209 18.837872 71.013664
54.450306 9.4164829 84.200279
66.736259 11.155731 85.523315
45.913155 18.880909 69.482452
48.716721 17.177439 70.149689
55.075546 14.666243 75.448151
50.108459 12.578518 68.657822
53.311665 10.361626 73.816475
69.220467 12.108273 97.925789
45.047386 20.055861 72.075958
61.748833 13.595528 82.27005
64.255379 7.4960742 94.362915
64.034332 15.829775 87.957703
47.194664 6.6930141 74.942772
67.784782 9.3972607 86.141495
57.277985 9.8711433 88.334732
59.081966 9.2471905 81.716751
48.210587 16.489285 80.546585
71.961723 9.4378738 89.705215
66.771606 14.735401 87.247231
69.118446 12.867043 86.088676
44.0037 5.8357353 71.233536
57.894783 9.3627729 88.080818
46.497864 17.416729 78.71563
61.155514 15.872263 85.554649
53.45631 14.246098 85.341248
45.403267 8.7361126 77.752724
59.987835 8.7072697 90.508186
53.884705 8.4385014 81.118019
61.125092 16.069077 91.158981
54.1549 14.935167 85.274605
44.053867 6.3874855 73.710388
54.44817 12.898834 74.066467
72.537003 11.374159 85.670486
64.120697 11.553055 84.068657
46.508087 8.7773266 65.847977
47.591904 11.972477 65.592651
46.147675 17.861614 66.544067
46.015396 7.4191065 67.671089
47.183315 15.360768 65.152954
47.509186 14.099728 65.240166
53.287411 15.453032 73.576904
52.803776 9.3023825 74.49263
69.712463 14.256472 88.063179
45.442875 7.8889341 65.030975
45.971916 11.292206 62.913452
46.577126 13.140707 63.625389
44.640862 11.33799 60.624542
43.604633 6.2278585 63.571648
64.677376 7.3915653 89.384071
45.45266 17.50032 63.849266
46.113365 9.0206804 64.652473
71.146637 9.7072144 86.17662
63.116543 7.3636894 91.796471
55.564117 16.679136 81.204758
66.01651 8.7165527 86.732643
60.086922 8.4436941 87.841263
35.276413 16.930748 77.988663
47.257423 19.147079 72.332649
62.728199 2.0352664 115.26103
63.112484 8.4800062 86.579773
78.995941 9.2368145 88.050133
58.361862 6.5745316 121.86391
60.400387 16.129023 88.681488
65.861511 26.481148 117.78635
31.082434 17.83741 77.200661
54.349693 15.783366 75.509308
64.575806 18.653646 99.130592
55.675873 11.468645 76.190384
64.552177 16.762596 97.019638
37.333305 16.988522 78.155167
66.647148 17.554628 100.23309
48.615627 15.748312 68.233887
38.179058 20.114872 76.437714
76.091827 8.0174198 85.848511
64.762581 16.32914 99.776642
66.937614 9.8803425 99.12072
61.953514 24.074514 118.23757
51.154579 7.9365349 74.720299
70.357384 9.0776882 86.8881
70.1707 11.896484 85.910248
66.580482 16.171669 93.394325
65.609261 16.440359 99.519112
49.382107 7.231328 76.821426
38.201096 15.137008 78.564926
61.318581 8.7284775 85.140259
59.659351 24.573086 121.15148
66.01297 7.9501119 87.992188
64.31694 9.0427799 99.624969
39.712463 20.647785 75.333969
66.962479 7.612349 89.445374
63.030605 24.799183 107.92332
65.448166 16.922741 102.45572
76.526817 9.9933758 89.680725
50.418396 8.0257893 72.901306
62.376217 15.841022 86.823997
57.925346 5.2471275 122.54312
65.589287 19.886518 104.02277
65.04995 25.55287 115.75519
62.680733 8.1549997 97.590424
66.5298 13.878403 86.172287
71.759094 12.6637 86.786926
61.399097 2.7037544 112.34206
62.381973 12.757849 97.85994
63.859032 1.086215 119.35025
39.487175 20.052229 76.242752
65.369644 9.729517 101.30488
58.821487 8.8414116 87.778374
61.818459 24.993492 117.45016
47.003601 6.6150723 73.812042
63.714901 1.1603451 117.92155
65.134682 22.089102 104.01959
64.140305 3.1900301 121.76047
36.909332 20.742826 75.593048
63.749897 16.582766 101.95731
72.437027 13.113518 93.361679
73.491196 11.941992 86.55275
63.793449 1.8553619 117.858
63.53191 17.598682 103.77164
70.63134 9.1057787 96.137001
48.573177 18.201242 71.470879
56.931732 13.165357 77.065491
67.077095 16.896427 96.965439
48.509552 10.929619 67.545517
64.32019 21.48406 104.53177
64.221039 20.711901 98.858994
64.63327 16.298702 89.455704
57.85733 16.338078 83.46405
63.075329 25.839024 110.71685
65.161247 26.350187 113.40167
58.963413 24.001177 121.1833
40.422787 21.104485 73.388885
62.388832 3.0062151 108.78226
66.249786 25.694445 120.37437
64.252731 2.0519104 119.37315
61.802868 15.274693 96.304886
64.288101 26.516378 112.63004
62.290001 5.0148354 100.77177
61.675137 2.6852641 117.8443
64.528442 23.991325 108.32333
66.731033 25.630203 118.04637
36.960838 21.230122 74.226799
62.55899 5.7636704 98.264305
39.309414 20.908104 74.780884
60.432213 3.278018 109.93758
36.153351 19.648634 77.320831
33.810844 18.941053 77.34198
38.592445 12.545563 78.174957
67.655243 16.330301 97.52861
35.0401 20.238682 76.805695
32.026009 16.942074 77.524963
64.082275 18.30419 100.13672
33.890102 18.124287 77.614403
37.47477 21.685619 72.696548
67.034302 10.892243 99.486465
67.130272 17.41176 98.547455
38.267235 18.761654 77.40715
63.27422 5.6058965 104.92972
34.429207 20.870888 75.341431
71.787224 14.347212 94.070572
62.502197 5.0443048 99.725975
60.918335 2.9843707 118.4407
67.363731 7.5590887 91.64576
73.104568 12.092146 90.102982
63.57489 2.5539303 121.65639
70.22567 8.2431173 92.596779
62.526665 1.3091249 118.16241
78.894119 11.335701 85.489243
63.313103 18.031414 102.90647
65.943451 13.880264 99.959618
64.352997 2.2306132 121.3098
66.760666 15.277767 98.711983
64.968994 26.768957 115.78086
61.130634 18.761341 105.58356
64.487259 9.9093847 101.20017
61.921425 0.95864105 116.56483
64.779541 22.079197 102.93908
61.617115 8.2665157 87.065933
65.140335 25.468891 113.35047
63.538254 5.4047184 102.21212
64.83078 19.559467 102.86044
63.899513 15.878261 98.604996
59.150826 3.6225352 119.75433
79.681877 10.860706 87.238281
63.768703 26.061546 113.89036
65.680824 18.072317 103.09122
65.000839 14.240811 99.717361
64.449677 21.396349 102.96487
60.649551 1.6826801 113.20477
64.368332 21.722935 100.69765
61.954212 2.5917234 113.37646
57.623882 4.9137607 121.82417
79.489578 10.658815 85.632065
65.815598 18.586803 102.30187
72.509567 9.2368259 87.058632
66.83197 15.483266 99.420097
63.348339 3.9712629 104.10579
58.544338 5.3512411 120.71053
60.271622 2.913662 118.28622
67.398926 14.053019 99.082382
44.010639 5.9847641 72.579132
66.759407 14.588745 100.00856
60.330685 3.3197279 119.40369
61.671417 1.0885763 114.72421
71.316658 8.3456202 94.751358
61.261738 1.8222294 115.81964
60.934475 3.5595379 110.85119
64.654221 7.4272962 100.32431
76.139854 9.6429176 84.485886
68.802521 7.7918339 91.293846
70.348274 15.206095 93.193558
66.342888 20.630964 103.321
61.734253 1.6776218 117.97973
57.150703 6.5946345 123.0594
65.183807 21.159332 102.51809
65.620209 16.567228 97.537926
63.871372 25.544521 116.13451
78.831291 8.5656242 87.020821
64.528969 12.803759 84.4543
66.543762 12.789253 85.576897
63.567604 14.246304 84.502243
62.929066 15.338528 85.526199
55.475712 14.062105 87.401024
53.972507 12.888494 86.456871
55.40852 13.034002 87.914207
55.155556 11.225895 87.370956
52.270512 13.13868 84.813057
55.58498 11.953701 88.135323
57.21965 13.876719 89.614075
57.392113 14.727697 88.899025
58.370041 13.678202 92.010262
57.288216 10.932701 89.726906
57.198566 12.570549 90.336044
53.842503 11.529884 86.129875
60.344826 13.353415 95.973381
60.268566 12.154337 95.983315
59.76992 15.104382 92.318436
59.38097 11.334427 93.572159
59.508213 9.9491644 92.199959
58.457439 11.108864 91.893494
59.238323 12.891254 93.930138
58.334919 12.353777 92.385201
56.000595 9.5288858 86.085098
58.861717 15.708429 88.81012
55.222248 10.389198 86.729424
50.357872 13.64337 83.534187
51.410667 12.048405 83.899185
46.87455 13.646566 81.099197
51.19553 16.203224 81.849861
43.276882 12.035083 78.87674
41.881794 16.483351 78.501656
55.162312 16.428726 82.565369
44.072525 16.166996 79.060379
48.483723 7.570137 77.567078
52.566185 17.091848 75.161812
52.692593 10.774445 84.182053
45.474289 17.28714 78.700188
53.807541 17.258722 78.254326
50.011696 17.995462 73.579346
50.886742 18.009842 76.125717
53.254707 17.343081 77.094666
41.857765 18.429939 77.526382
46.667908 11.870008 80.4729
52.993401 16.601477 81.42778
46.53664 8.986269 78.536209
50.968189 17.806183 77.585007
47.874527 14.323377 81.720909
44.187408 9.7608309 78.120995
47.78352 10.019133 80.074081
48.536514 12.445878 81.87088
50.689934 10.352416 82.046631
50.539848 8.0732241 79.040642
49.053898 8.7684317 79.463867
46.675293 7.570467 76.868721
46.019672 18.79188 76.772499
52.7962 8.9339123 81.726074
55.501404 8.5794287 80.774193
53.184067 8.3672915 77.389969
52.019138 7.9330001 79.043861
40.058033 2.7194805 60.1707
36.069092 10.366691 55.321571
34.276203 23.133156 63.971344
34.665993 2.9066372 55.773071
37.883675 15.428701 51.861221
39.932621 15.266834 49.846413
41.047508 16.006523 48.021652
2.6103745 4.767745 66.125473
38.106575 3.0925364 33.790161
4.143322 22.629932 75.719223
17.143503 17.45311 53.206848
-6.0536003 8.4413872 73.136749
40.153427 -0.2919426 26.407938
38.395477 16.431774 38.007893
-8.0536728 15.961236 75.938141
41.741566 1.9759388 23.407833
38.693382 16.656265 35.83429
3.3129845 19.581823 48.767742
6.7859049 6.7715259 19.243599
39.601212 16.153337 28.039913
-3.3766098 8.9606142 54.033508
-3.5015736 9.9565973 52.860031
-4.1291008 8.698555 50.369667
43.057819 17.079893 22.671488
43.287727 13.629362 22.735678
-13.596153 18.47702 67.053085
-4.6389961 20.314493 45.476685
-3.2845764 9.2313128 32.890923
0.739748 5.758328 25.949574
1.0580044 6.4891052 25.965061
-1.6398106 21.119015 40.525803
0.75930786 17.340611 26.140192
-11.805323 17.600077 63.58297
1.298912 7.0335531 20.948524
2.2054558 4.5102777 22.286743
4.9291687 16.415939 18.010212
39.141846 10.423943 77.135269
40.387184 11.905762 78.001526
40.929985 5.7820787 72.981293
26.222378 17.582886 76.706024
34.313271 14.373629 77.986473
36.357597 11.766612 77.88118
39.795799 2.3241835 62.757568
40.125427 22.19561 64.314766
39.65834 21.802799 59.445457
40.620239 3.666008 56.018475
44.952702 16.992489 61.792217
43.681351 18.72073 59.148708
41.720963 7.4934449 56.634388
42.144035 15.463973 54.764263
38.744549 2.1557913 66.07766
35.234184 2.5125003 67.764618
38.544884 22.769932 66.552788
38.277702 22.89753 62.855671
36.791641 22.826862 62.070297
35.452625 3.8912945 70.368271
39.225609 13.773953 54.856277
25.310698 3.1725883 61.381313
20.821461 15.917942 76.99852
20.575167 18.22633 76.195816
37.721306 23.270081 64.410217
32.338375 2.4971733 63.644951
23.804596 3.8600297 67.890877
25.742981 22.041681 72.577469
17.388849 16.040651 77.310287
22.671848 4.4384732 69.232208
17.027512 17.050728 77.142509
28.761572 3.2054687 62.735359
26.144421 23.702187 66.990616
23.962908 24.237577 63.684982
13.097597 25.723938 63.251869
16.858795 4.1552134 64.347107
18.276222 23.472672 70.554596
15.511881 7.7844405 72.879181
22.709507 3.7268753 60.428879
25.683796 3.029428 62.562977
10.737101 18.942318 76.458069
14.168129 4.875566 67.515198
14.927354 4.5443168 62.977703
8.0613298 20.00766 76.952866
11.414109 4.7529964 63.759815
2.5752926 8.6110115 75.034302
5.5350552 17.135735 78.685905
23.031824 24.330235 62.690727
0.25289536 28.105198 69.654106
-6.7241821 17.795628 77.409805
1.718605 20.674843 77.218002
-1.9242287 10.129731 76.874573
-5.7944279 10.346668 75.568588
-1.0338745 27.489992 72.712181
-7.4978256 20.84621 75.409203
3.20821 5.3664122 70.730576
-1.286644 27.934586 70.881859
-10.527981 12.872584 70.605194
19.779047 16.969481 52.832375
0.91867065 4.969636 63.391792
-6.726675 19.485973 76.942398
4.5964355 5.315352 70.719696
8.9803762 16.483162 56.554043
3.2857704 21.905987 76.372955
42.067986 16.845181 51.953388
-9.6602249 16.935947 62.502571
-10.942974 17.451786 73.11937
-1.7284412 26.090464 75.03186
-3.7916756 24.551956 75.742889
-3.348547 7.8325891 72.622055
-3.2299271 9.4028597 75.26503
-9.2296448 20.450672 74.04126
7.8934011 5.0906353 63.101349
1.8948212 4.8176088 60.947468
2.7601471 16.301619 57.410828
16.066532 25.259533 64.896858
5.2736797 4.6686168 61.989349
5.5817928 25.826279 71.497467
1.157692 26.752136 73.397659
28.84581 22.170868 58.515507
16.763235 11.128386 53.264355
15.01581 16.947594 53.653782
6.467577 6.9372387 55.849384
7.8236332 7.6899285 56.145798
12.288648 11.066173 55.102676
9.00354 25.63958 60.96608
15.530338 15.978869 53.301414
29.933823 23.147141 62.473339
9.4460316 24.096786 58.641346
31.021427 20.930332 57.893864
7.7673273 9.6049318 55.813084
26.167831 23.922897 61.043262
32.504227 21.570583 58.183109
36.173557 17.625109 49.884186
17.268764 15.910721 52.85445
14.963701 11.442573 53.744625
9.6953659 17.591568 56.353634
5.173624 19.93388 50.248177
35.984116 12.900284 55.077469
36.150932 21.094776 54.884956
22.703041 18.611019 53.52969
18.314138 9.2995682 53.859421
29.795742 21.397129 57.958481
37.519173 19.485859 50.299507
13.547363 23.205563 59.039757
9.7148666 12.773048 56.334591
31.359301 5.7549686 57.496773
29.702991 3.5910692 60.916348
10.817525 14.719373 55.525368
29.713083 22.816006 60.366261
33.836727 20.904045 56.942593
32.137772 23.145414 63.578613
10.544123 25.82235 62.346161
25.159721 16.922382 53.24976
6.0327797 11.534388 56.015205
30.509647 4.832201 58.926762
41.995514 18.240425 50.449913
18.313221 21.074745 56.195438
22.261868 20.935078 55.289352
40.892094 15.745779 45.157207
24.622383 5.2062259 58.507301
30.964359 19.30727 56.377415
40.818878 14.994551 43.203773
38.902695 15.376301 47.55069
38.845898 5.6103396 46.074074
38.166786 4.6131911 40.022156
34.970627 4.1751838 48.315834
38.909943 5.7690392 48.182007
36.85685 7.9079695 54.198029
39.147053 7.6928377 54.088989
40.032471 7.214962 54.240543
36.466908 18.430971 47.923782
36.603813 17.582073 43.398285
41.851326 17.643278 48.247879
43.582184 -0.9093647 23.810114
41.933571 -0.54007816 23.343626
39.515945 4.2242136 40.215611
41.266434 16.643841 30.662685
44.847527 0.10613537 23.363234
40.64632 19.449684 47.967381
40.028675 15.314311 26.171276
37.450779 18.907093 43.528782
35.08725 5.5641994 49.045845
38.482777 15.337694 49.824612
42.51992 16.577713 54.690601
41.582253 19.3634 51.786541
39.51889 19.799826 47.370533
40.27285 19.879223 49.93734
36.800053 6.7843509 49.79113
37.961868 7.3291054 52.795376
39.900482 5.2529888 42.452518
38.05537 6.2823129 48.67934
34.813545 4.6405945 51.406368
35.221928 3.4002295 50.400696
36.541603 2.1376228 49.257515
40.766243 2.9065466 42.88686
38.515846 0.53057003 26.741089
37.473377 3.7752376 38.79467
38.977791 2.6301837 29.202219
40.149818 16.812263 28.482088
34.455879 2.5694671 59.254742
39.339783 3.2854843 37.455654
40.684029 15.217464 29.911905
39.627457 1.5133991 33.356255
37.695396 1.668046 30.735809
37.756405 1.416276 43.955933
40.475563 1.5364656 28.389282
40.045937 1.8203058 30.89209
38.309177 3.8846059 38.472549
38.84129 3.2359338 35.167648
39.640739 2.9033036 39.232246
42.602615 16.272602 25.029512
37.241451 1.5033607 45.69566
37.589371 1.9310551 60.954075
38.908085 2.6219912 54.496735
37.366501 1.8339739 48.810795
35.874222 2.4448352 41.508446
36.305908 1.6519489 42.528275
38.805904 2.1427698 49.752426
-3.8717079 8.4315329 32.899044
3.9573727 18.314884 22.438782
-1.2469387 20.22073 32.993523
-1.7937374 11.810287 47.787998
-1.8396797 11.970766 50.477463
-1.0052624 18.404566 49.232475
-1.3110771 18.099985 46.692822
-2.3019924 6.534514 56.934399
-3.8624687 8.3726645 56.387012
0.41389275 18.688662 49.177998
-1.4035053 10.445381 43.831425
-4.0892391 10.600297 56.124252
-1.4165821 8.6519918 42.99519
-6.6901207 10.247723 41.225609
-3.0660248 19.474646 33.964268
-1.4459038 17.726116 34.266609
-1.2747612 11.686689 47.339981
-6.3597145 10.00933 45.772217
-5.5251389 9.0480843 47.532326
-0.5557518 18.064514 45.471283
-1.4179077 6.87291 51.77092
-0.9029274 6.3951497 53.943871
-0.67833519 18.808512 42.725044
-2.4637775 7.6782627 43.08062
-2.5019455 19.117405 48.301804
-1.9581776 7.0429773 45.645641
0.41300964 21.366814 44.801926
-1.0598278 18.83107 51.027138
-8.7109604 15.661057 61.364983
5.7543173 16.904434 17.575436
0.78061676 17.017193 22.23988
-3.4670124 21.332241 41.834164
0.37199783 18.682381 32.05373
0.6212616 17.617025 28.30368
-2.2203007 21.587748 42.580795
-0.056015015 17.617466 22.853251
-2.3026276 17.803276 34.304512
-6.4393864 11.536211 59.481976
4.5937862 3.1064892 20.032963
2.5919876 18.006805 24.666578
-5.5737247 12.938244 58.525528
-6.8132782 10.502495 60.183662
-11.238705 16.07642 65.348862
-10.470177 14.234629 63.978119
-7.3605843 17.714062 59.417885
-9.4416008 11.248142 64.282448
-8.5165806 18.511654 60.448181
-11.057728 13.450734 66.952675
-9.821722 11.297782 66.597282
-12.39706 18.83905 69.93206
-12.644077 16.827728 68.532104
-0.080347061 21.938562 45.617409
-0.96522713 22.094309 46.221687
-1.3051281 22.535789 48.707314
-7.3770351 25.053831 64.314087
5.9491682 20.653545 50.56926
6.5475368 19.034937 52.884235
-5.6408424 25.945747 63.875378
-4.9917469 22.611422 57.677868
-10.683609 20.356012 72.19381
-1.1885414 23.070915 50.437576
-1.0710354 22.891327 53.004879
62.811516 3.3931503 107.11334
63.454697 6.6653609 103.59096
64.131653 6.0838637 104.65765
63.167206 6.6250486 105.51401
62.09137 2.083961 111.07298
61.305832 1.4924316 109.88304
60.34322 2.3607407 109.78255
62.449947 5.0809541 105.98887
64.234375 4.5925684 104.35917
62.749783 6.2225084 105.21191
64.309792 7.3682742 104.29809
62.885181 7.9318504 102.61588
63.374321 4.1823106 105.05121
63.138069 9.0155106 103.24944
64.119324 23.317921 106.04241
60.868313 2.0788717 117.81042
63.608124 22.14115 106.13168
64.572235 22.662291 106.98209
64.432709 24.536598 109.6172
63.421303 1.5515785 119.96742
64.006012 24.826031 107.43277
63.573128 2.3620386 119.91953
63.956982 20.953976 100.03284
65.757004 20.080118 103.04101
66.578842 26.816952 117.31731
63.775078 21.383879 106.0192
65.21022 21.709135 105.79943
65.098404 21.234821 104.59676
68.393547 7.8069677 88.569519
62.650726 11.616256 97.912186
66.097343 7.5141735 94.505493
62.236992 6.2933712 98.876366
78.885223 8.6305466 85.85006
67.338348 12.728838 99.780357
74.770584 11.858414 90.282516
71.92186 8.9867268 93.038094
72.861938 11.35458 91.430916
63.436417 7.5616522 95.878403
70.974808 8.8748312 87.609856
62.794231 14.053513 97.883255
66.128067 7.3999891 97.819313
63.758404 7.3469348 99.74028
66.126099 6.6256838 100.39758
73.720749 9.485239 85.869225
65.611862 6.3767219 102.47066
63.359364 6.9601245 97.441345
73.784378 9.1259556 86.952698
40.008171 9.0720434 76.171158
59.753872 14.330219 93.615372
40.513138 6.5553818 73.8134
43.260307 6.9935112 74.649536
61.801697 7.8916321 90.583817
63.174431 5.3362803 103.16565
41.783802 9.8869486 77.206345
54.694565 9.6713638 76.779831
43.603394 20.478241 72.806816
48.750992 18.625549 74.724579
62.083527 8.7235203 95.823196
65.955841 25.668285 118.19508
63.164894 5.522058 107.0787
60.930553 2.7237315 108.69601
61.187729 1.3067551 110.89642
60.908253 2.4798918 113.50295
64.002777 5.9351048 105.7392
61.529022 2.5228715 116.04861
64.400085 5.9853921 102.25362
65.656197 5.8753815 102.34803
65.836052 25.654232 116.64212
63.190262 25.148941 111.46071
62.862518 3.9861064 102.14907
62.31036 5.8566709 100.69658
62.844299 3.8480196 104.33279
42.408936 18.420116 53.83836
8.9769945 11.978534 56.96521
38.762859 2.8555317 31.298719
1.8699207 19.480768 25.61095
27.18734 3.1601715 64.829689
5.592555 13.120184 56.983887
-8.5988903 10.708275 62.683834
29.394592 5.8026032 57.993763
27.954269 6.4297872 57.086411
38.952427 19.928692 51.427631
41.035759 15.009163 23.637749
-2.2620869 21.598417 48.377197
65.426514 8.6087608 101.21299
63.362591 9.0863914 101.6059
64.454506 8.7978439 103.15714
64.545021 21.01532 106.37693
61.434971 9.9360542 95.715057
11.539243 23.791203 59.469875
63.632439 4.6639533 106.93353
42.666389 19.18244 76.864594
31.120752 13.988941 77.541779
31.788853 15.332813 77.635696
43.643829 8.2201567 76.403519
44.460083 7.8694987 76.287979
33.715714 12.232054 77.716309
40.319397 15.008612 78.655396
43.022461 8.9145412 76.873291
40.153572 15.903118 78.530945
36.273823 14.780924 78.383118
43.748741 17.882071 77.937752
41.879509 12.867399 78.640778
41.863281 11.846814 78.281082
35.772137 15.615669 78.238487
37.297035 13.394692 78.429596
36.190926 7.1133585 74.611481
45.015976 7.2600846 75.591324
32.642303 13.327824 77.704391
43.728416 18.331635 77.585602
41.89196 13.754123 78.834335
35.017097 10.398456 77.238258
43.084305 17.360212 78.207695
36.324364 6.2754931 73.881836
34.723705 10.909968 77.440613
44.829426 6.905972 74.871162
45.740906 6.757586 74.875198
39.029804 16.961834 78.19548
35.298004 13.03476 78.070877
33.572403 16.787149 77.762489
35.288067 9.788084 76.898094
44.511066 18.922375 76.901154
39.192402 7.9355168 75.079437
40.162128 10.415798 77.196777
41.241096 20.626778 74.952736
45.375122 10.46693 79.056564
32.942703 15.530009 77.768707
44.276703 19.4492 76.164703
42.560513 10.880852 78.074799
41.241158 20.033819 76.138611
41.582008 20.46166 75.291
36.996613 7.5448399 74.898636
40.280136 7.794241 74.997131
42.912376 9.8193264 77.570175
39.090042 5.9456353 73.31723
41.347969 20.308632 75.691696
41.914768 6.8081303 74.169716
42.043137 6.2323523 73.477768
40.71994 19.281122 76.945541
41.277145 7.3677359 74.716011
40.945213 17.571323 77.991455
39.414696 5.5559812 72.89035
44.724731 11.12084 79.115883
36.704342 18.373138 77.78582
32.239288 7.9037662 75.328842
44.381805 14.503645 79.722305
40.913246 9.4667044 76.667374
38.605618 17.797108 77.869827
42.955276 16.390623 78.674156
37.703709 11.419561 77.752869
43.014816 15.463758 79.00489
36.294975 9.3455811 76.516075
34.776016 15.638814 78.055573
31.854563 11.008638 77.149857
35.936401 5.6041832 73.262131
45.815208 10.922528 79.525017
39.336201 14.507986 78.612503
41.051712 10.913797 77.63858
39.439316 13.247033 78.406433
38.361748 13.786452 78.51091
35.73196 18.390928 77.771843
44.23843 13.235831 79.554581
31.738914 8.7164946 76.024551
44.245178 12.304201 79.342285
38.969826 9.063755 76.104111
41.873787 5.8408785 72.925781
38.056641 7.8473005 75.068604
40.944107 8.5886936 75.916077
37.232162 19.203831 77.421188
39.760983 11.201175 77.601669
37.454285 12.148571 78.061371
43.671967 14.94661 79.339806
39.398499 6.7335701 73.998703
34.806087 18.746132 77.593391
34.674503 8.6107788 76.049988
38.755192 11.424767 77.694626
41.162918 14.348604 78.747452
38.071335 10.470607 77.201828
33.050117 17.473806 77.61779
38.139587 20.822355 75.263344
32.409145 9.3148527 76.554504
38.485596 9.6826878 76.627731
37.173988 19.910851 76.972946
36.760445 8.6347275 75.891121
41.845039 8.9574623 76.498993
36.286903 16.977352 78.099564
43.662361 10.850311 78.547691
39.512177 12.230455 78.059929
33.874786 8.1812382 75.722687
40.864998 18.478935 77.508133
41.841389 17.43272 78.100662
30.624193 11.165762 77.003296
37.7328 16.093758 78.403748
45.517036 14.246399 80.226265
37.365154 9.63344 76.663834
42.692574 14.233816 79.085571
46.444687 10.297861 79.536743
37.807407 17.876333 77.860001
42.629532 7.5459833 75.224731
44.813839 15.807639 79.534988
37.870434 6.027359 73.483711
36.036785 20.479359 76.376678
45.561649 16.590122 79.295242
29.464285 10.379034 76.522575
36.66761 20.220806 76.709534
34.596241 17.546783 77.81134
38.882256 19.442543 76.850037
40.33902 12.838939 78.357666
39.724823 19.325571 76.915833
29.954172 12.911582 77.257019
45.968254 13.850884 80.486504
32.061794 9.8928537 76.813278
38.909199 20.564997 75.648712
39.56213 9.708602 76.657478
39.0942 18.626829 77.424034
34.918415 7.7326841 75.265442
44.746449 16.849026 78.876434
36.633755 11.126667 77.635483
41.999367 15.646011 78.760963
39.033516 20.327194 75.97258
29.87294 11.919876 77.098526
43.499565 6.5195775 73.954987
31.140224 16.429504 77.460571
45.79039 8.2412643 77.394669
44.809597 9.2352057 77.963181
46.119839 13.100131 80.483475
38.285519 19.530283 76.932121
37.637638 20.414349 76.135269
43.322083 12.732821 79.111038
34.165607 6.676949 74.332932
33.296486 9.6364002 76.811409
40.800995 6.1243382 73.38163
38.918869 20.076643 76.295731
45.957382 12.370542 80.185936
46.89658 12.75641 80.940239
35.47821 19.939552 77.145142
45.800232 9.1732998 78.352539
46.139133 15.126332 80.422501
30.123356 9.115612 75.96463
39.569649 20.389629 75.808678
45.725922 18.405937 77.488739
42.974869 20.093872 75.41478
46.794899 14.261725 81.045082
45.481018 17.71822 78.297348
46.876202 7.1504974 76.202637
44.216328 8.6710796 77.169983
43.87318 8.9102192 77.261459
34.999557 11.981462 77.808441
43.891472 7.497046 75.528381
34.026684 13.277477 77.898552
43.405479 7.5870562 75.497429
44.594727 8.4571314 77.094673
42.789577 8.1928635 76.035141
44.992111 8.2736578 77.051689
33.381042 11.223357 77.428268
41.23539 14.895213 78.755959
41.035416 15.765442 78.618179
39.289204 15.142533 78.609879
32.156082 12.245987 77.509888
42.863121 18.17672 77.694656
32.815384 14.443213 77.777039
42.464733 8.5242844 76.279182
43.593826 9.3072929 77.477234
43.121582 7.8736286 75.77372
44.039299 7.199935 75.127594
33.466545 13.822662 77.836479
35.269783 14.551013 78.182632
41.129463 15.361036 78.697021
40.922104 16.14184 78.522179
39.168755 15.561071 78.560226
36.780293 15.857229 78.362366
36.288956 13.201155 78.274338
39.968971 17.220331 78.11998
37.237045 14.966551 78.520859
37.24501 6.9835796 74.384895
45.40554 7.6461601 76.399628
32.875992 11.693906 77.500664
41.122986 13.332054 78.597992
41.173012 12.312038 78.295929
42.583603 12.377186 78.716499
41.130482 12.853959 78.470474
41.112839 11.822035 78.091934
42.600552 11.859818 78.536781
41.807205 10.846521 77.795776
45.136078 7.9440136 76.694794
42.856392 18.468014 77.486626
42.579773 13.240057 78.94558
41.669121 19.281311 76.908997
36.604149 16.297165 78.263062
35.043251 14.978793 78.13382
35.77626 13.872727 78.265114
37.008488 15.413921 78.453705
37.757736 14.287007 78.560699
44.095783 6.781641 74.479752
44.599491 17.603477 78.273376
36.822655 12.552351 78.18457
35.6371 11.047662 77.563705
35.103081 7.2350221 74.812851
37.304886 6.588212 74.058228
33.881271 15.532917 77.901794
45.724297 7.399229 76.158134
35.232128 6.4751406 74.160759
35.959797 10.418401 77.276688
41.086357 13.826838 78.687805
43.932163 17.041313 78.535004
42.591202 13.682804 79.02282
42.581779 12.802452 78.843628
34.016891 10.290345 77.152664
35.245373 6.8733749 74.496887
32.119007 14.221941 77.69593
42.543449 17.906919 77.861328
35.512276 11.386244 77.679428
34.511211 12.628904 77.890396
44.598877 17.882378 78.046036
34.385803 16.797728 77.874031
41.999794 19.639431 76.517502
34.343079 9.7175694 76.875336
44.092293 6.9676318 74.787956
43.563278 16.764645 78.61393
34.180992 10.003502 77.023087
33.855686 10.578552 77.258133
43.565048 19.420357 76.425842
33.643982 14.931178 77.875214
38.612949 16.069643 78.444275
39.454613 17.771149 77.876755
44.214066 17.400497 78.35408
35.809311 10.736011 77.437134
40.480556 16.704727 78.323349
35.810406 12.372462 78.00676
36.163017 10.108834 77.093178
34.799812 13.69853 78.057907
