# .PCD v0.7 - Point Cloud Data file format
VERSION 0.7
FIELDS x y z
SIZE 4 4 4
TYPE F F F
COUNT 1 1 1
WIDTH 1559
HEIGHT 1
VIEWPOINT 0 0 0 1 0 0 0
POINTS 1559
DATA ascii
-10.868565 56.577797 43.490105
-9.998436 53.667549 49.968056
-10.986677 52.828579 49.115021
-11.147903 53.676971 48.610325
-10.576954 56.741432 43.746262
-10.577293 56.697456 42.524445
-11.68508 52.750008 48.49099
-9.8438931 57.138718 44.239384
-15.931889 46.745441 46.835758
-7.6048946 58.650814 49.681187
-10.299696 56.857323 42.780983
-11.149672 56.43243 43.235367
-7.2772102 58.819023 48.812981
-10.737377 56.56918 41.58392
-15.992785 45.044754 46.748146
-11.089546 56.520367 42.220234
-11.856014 45.735783 49.064316
-13.094761 55.954506 41.310696
-8.3856087 57.818497 46.790806
-15.228939 53.862938 42.197762
-10.850082 51.093475 49.60833
-10.396194 49.485374 49.994225
-11.011435 50.033123 49.581177
-11.849926 44.883724 49.072178
-11.182932 48.978104 49.485298
-6.3774033 49.974941 53.277458
-10.094625 44.194916 49.877983
-13.280697 46.007324 48.372978
-10.978975 56.482586 43.977516
-14.359203 46.146584 47.831921
-8.2020721 57.971611 48.486591
-9.7721939 56.697186 41.219913
-11.560169 56.197002 43.469902
-12.256876 55.63578 44.092819
-7.137867 46.972378 51.65712
-10.731127 56.6493 43.008099
-13.711395 45.189987 48.120815
-7.9314346 58.332554 49.411743
-10.993954 56.286346 40.780151
-14.404209 55.121613 41.281189
-13.735125 50.310925 47.724571
-8.0396004 56.554466 52.408539
-12.958817 51.127522 48.082275
-13.341192 49.825905 48.153793
-9.9195614 56.40258 47.513016
-7.0915985 50.257832 52.874367
-9.2188988 56.897503 48.238098
-6.3623466 47.962044 52.395756
-9.9893951 55.968296 48.260201
-11.273232 55.221561 47.069641
-11.772736 56.213947 42.830051
-14.601185 54.885185 41.390518
-12.951323 52.578987 34.520412
-7.8094196 51.85046 52.796539
-7.0493965 51.750507 53.514893
-7.3459988 50.712986 52.858513
-7.1432285 49.760273 52.618126
-7.0880833 50.759132 53.094067
-7.4398289 51.83596 53.165344
-7.607626 50.858299 52.682899
-13.047823 51.822002 47.760101
-6.7818298 49.843666 52.921936
-15.230221 50.860729 45.791573
-14.847193 50.585266 46.461933
-15.358894 49.867107 46.265892
-6.7312164 48.755852 52.488945
-14.922165 49.541161 46.88644
-14.409374 50.278118 47.096584
-15.563364 51.105446 45.081955
-15.746376 50.140114 45.621284
-18.528675 45.095089 44.49501
-12.601753 53.128002 35.320198
-16.305851 49.304356 45.475945
-15.438129 48.815483 46.662918
-19.37258 50.736725 38.684372
-16.129894 50.28373 44.968666
-19.485229 50.527901 39.069199
-8.099823 49.416962 51.760441
-8.0321026 50.244293 52.066509
-5.764101 49.383202 53.367798
-7.6855774 49.196217 52.00248
-15.88892 49.152615 46.048283
-11.429447 54.743118 37.92868
-7.9823856 51.094452 52.395248
-7.640934 50.003887 52.323711
-7.2713585 48.983841 52.22266
-6.8046646 50.805424 53.346977
-6.3308315 49.504597 53.072803
-15.960546 51.183472 44.367332
-16.719276 49.486282 44.813614
-10.858418 55.239235 47.713165
-10.295609 55.779488 47.939915
-10.278042 55.602581 48.259018
-10.284121 55.994751 47.568352
-10.249174 56.220825 47.135773
-10.927788 55.39452 47.37788
-10.942436 55.589905 47.028496
-11.619421 54.864132 47.074165
-11.658556 55.069069 46.705532
-15.966747 48.091518 46.437183
-12.344154 54.494083 46.506317
-6.716362 51.728424 53.816872
-16.547348 50.424904 44.256992
-16.424774 48.233635 45.905563
-8.7942791 57.649071 45.507431
-6.0045204 50.205757 53.667645
-8.2660522 57.916656 46.295746
-15.744602 51.152367 44.737926
-8.3448696 49.559166 51.611134
-7.8917427 49.304832 51.885567
-8.2494373 50.391327 51.915169
-7.8386421 50.122185 52.198112
-8.1916466 51.254017 52.222778
-6.4226952 48.607849 52.616249
-15.937904 50.220215 45.296787
-6.4188957 50.448471 53.485428
-7.7954178 50.965672 52.542328
-7.4811382 49.084885 52.113316
-6.5531845 49.649872 52.993927
-16.093224 49.235703 45.778599
-8.0711975 52.141743 52.58326
-16.849337 48.3992 45.331699
-7.4248409 49.885513 52.455486
-6.0846233 49.328209 53.13829
-16.399693 51.285278 43.595627
-6.1186848 51.186176 54.088924
-7.0162983 48.899456 52.363846
-10.684553 45.668064 49.622437
-14.648918 52.735985 44.976311
-14.835205 51.670425 45.738873
-15.148684 51.893127 44.991776
-14.51865 52.558571 45.420727
-19.601322 49.842323 40.08638
-8.7413139 57.156231 49.904572
-17.74885 52.318974 38.218723
-5.7693195 47.385788 52.42461
-16.589733 48.856819 45.40028
-8.6460571 56.236443 51.171555
-11.72591 52.658722 34.441376
-10.923229 55.752377 46.746124
-19.882362 50.467728 36.160172
-10.451038 56.337509 46.313492
-13.814468 52.074059 46.899742
-14.001074 53.364662 45.398438
-13.37434 54.214077 45.257523
-14.12759 53.52684 44.920258
-13.458744 54.372692 44.77721
-14.199533 52.338844 46.183758
-7.9828682 54.233364 52.880936
-11.20857 55.772923 46.114773
-10.670164 56.379158 45.59024
-14.04657 51.129765 47.117332
-11.985075 55.168991 45.943104
-14.473816 51.419022 46.449677
-13.867916 53.191208 45.859291
-11.476494 55.809097 45.403702
-10.904352 56.381241 44.857864
-13.271873 54.041748 45.73185
-13.526505 52.989594 46.598106
-13.161497 53.811024 46.224274
-6.6073341 50.589523 53.403877
-7.7327633 58.27919 47.035912
-11.553616 45.332962 49.208237
-16.19627 48.164993 46.177605
-16.329084 50.348476 44.62812
-16.508526 49.387703 45.162399
-16.184013 51.220734 43.987862
-16.828209 50.884708 43.397793
-10.065826 56.509415 46.821686
-10.837341 53.66766 48.956741
-10.327425 54.107666 49.372734
-10.89216 54.058697 48.697903
-10.75248 53.236988 49.21891
-10.155893 53.355198 49.860699
-10.64673 52.779335 49.475464
-10.261642 53.709545 49.617756
-12.566206 45.163261 48.708344
-9.9266396 54.866127 49.56057
-9.4881687 54.804737 50.357964
-9.811676 54.025005 50.115894
-9.7290592 53.587078 50.35482
-6.2230854 50.304272 53.554829
-12.382877 44.872116 48.805187
-9.3524685 54.034588 50.830013
-9.3089142 57.424732 43.975567
-11.384039 45.001099 49.3027
-10.226995 56.594872 46.050629
-14.935169 48.361126 47.261879
-17.13739 52.735893 37.495407
-9.5758495 54.195789 36.636414
-10.429115 56.623215 45.324585
-10.948057 56.082825 45.85498
-16.33704 53.221104 40.723099
-10.7078 56.02803 46.560867
-10.13821 52.966934 49.978466
-8.8435516 53.794613 35.919685
-13.491417 44.762131 48.211468
-9.3794117 53.110954 50.925247
-10.268879 52.250435 49.978863
-11.446739 55.447155 46.378143
-9.7887821 52.666885 50.443413
-9.4256573 52.377296 50.913204
-9.8863239 51.929794 50.416107
-9.4940472 51.62447 50.851131
-10.377419 54.489529 49.104568
-9.8724556 54.41642 49.876976
-9.4280415 54.472424 50.588074
-13.204029 44.558151 48.360146
-9.534483 55.252777 50.032028
-13.497835 54.449303 44.537899
-14.110651 53.692776 44.692326
-13.418491 54.295055 45.018246
-14.71188 52.822823 44.750977
-14.585815 52.646744 45.197556
-14.99741 51.784462 45.368637
-14.016565 52.212852 46.548851
-15.214733 51.987247 44.779449
-14.365257 52.452755 45.805347
-8.5562439 57.755161 44.462837
-14.659927 51.549545 46.09996
-13.323868 54.129681 45.496815
-14.010923 53.506561 45.179337
-13.893429 53.33445 45.637051
-13.701574 53.110756 46.217846
-13.019505 53.695213 46.553284
-13.31716 52.864773 46.93483
-13.213844 53.943638 45.962463
-13.582382 51.949757 47.218643
-13.803059 50.992756 47.423447
-14.268419 51.279289 46.78931
-6.477747 51.345161 53.86134
-8.8225956 57.611099 43.627998
-8.1222286 58.000813 45.909389
-10.562811 45.438473 49.688526
-5.933136 48.021889 52.628513
-14.648085 49.346813 47.228687
-13.932205 49.813847 47.712852
-5.6829834 48.658581 53.038918
-10.705917 54.60107 37.453327
-14.129761 50.090462 47.44664
-15.587368 51.876511 44.251087
-15.403894 52.439922 43.929775
-16.637947 48.357834 45.605865
-16.521517 40.681065 45.451439
-16.979685 42.68042 45.554482
-16.799273 50.100033 44.207165
-15.290297 47.436333 47.208366
-9.4008026 55.177605 50.336494
-13.925081 48.539406 47.975292
-12.157589 44.461288 48.916908
-7.3847847 58.608879 47.884823
-15.194578 48.610474 46.96693
-15.685623 47.884972 46.77813
-8.5723019 57.716148 46.397148
-14.657776 48.130875 47.527828
-15.191177 52.99633 43.589767
-8.5278034 57.687321 47.299683
-3.7885666 62.177284 52.591412
-6.204443 48.290482 52.611221
-14.953787 53.539906 43.225098
-16.613636 51.039322 43.549278
-9.0675182 57.534889 43.811611
-12.971811 53.205597 47.052902
-8.4332123 57.73597 48.15773
-11.235552 44.755909 49.37479
-14.241627 48.889439 47.69566
-13.536098 49.335075 48.124527
-13.734356 49.579002 47.930901
-10.916162 54.303596 48.521408
-5.2666473 50.567978 54.373322
-13.209547 52.346329 47.379375
-6.9149475 53.390781 54.167816
-14.289225 48.525497 47.729607
-7.9020138 58.170074 51.89212
-8.1995125 57.948769 47.178627
-15.800747 52.448654 43.196247
-14.447906 47.772717 47.729485
-7.5972157 58.12101 44.701591
-15.149319 49.709187 46.577415
-8.1914635 57.882465 44.280636
-15.04591 50.72681 46.132191
-9.0715561 57.474876 45.664818
-15.40197 50.988037 45.440868
-8.8338013 57.527805 46.525497
-10.65136 56.607193 44.592308
-16.005701 51.913494 43.499802
-14.636063 50.435814 46.782684
-5.5687389 49.89642 53.790077
-13.741489 52.901955 35.221645
-15.557196 50.014156 45.946945
-17.046146 50.688732 43.269367
-8.3716698 45.869484 50.833817
-15.705025 53.54908 37.655022
-14.430107 49.080826 47.500671
-6.9166698 58.382774 45.114723
-8.5103264 57.681942 43.421261
-14.756617 52.829292 35.444405
-8.027277 58.112946 48.003448
-14.959078 41.048042 46.546055
-15.465927 47.619617 47.036385
-3.8496532 45.413422 51.395081
-14.960403 47.114326 47.475773
-3.7608509 57.426304 43.228798
-15.557089 52.988586 42.894512
-12.202835 54.8302 46.208302
-7.7171841 52.250092 53.00351
-7.8723335 57.912689 43.807213
-15.49868 52.159367 44.094433
-15.681812 51.575981 44.407417
-15.663954 48.992748 46.364555
-10.513334 44.88596 49.704941
-7.6417522 58.306557 46.653545
-9.018055 57.548042 44.694363
-7.3272457 58.133316 44.400681
-8.2254505 57.93771 48.083889
-7.9754467 58.113037 47.090866
-4.5257282 46.013905 51.902191
-15.299286 52.719166 43.768539
-6.439209 46.599651 51.907249
-12.574839 54.529549 46.100552
-12.117441 55.226257 45.559544
-11.588606 55.849274 45.012226
-10.989563 56.401096 44.461205
-11.827414 55.139679 46.291115
-10.789885 56.380558 45.22794
-15.07428 53.270988 43.405411
-16.256578 50.793655 44.315544
-11.196793 56.103348 45.132156
-11.063929 55.751934 46.458069
-17.471663 52.532452 37.78635
-11.344973 55.790413 45.764687
-10.356649 56.293266 46.695637
-5.4130993 49.461464 53.621937
-10.55728 56.359673 45.946129
-8.2999477 57.903717 45.212883
-10.095608 54.482552 49.508842
-7.1974545 58.662872 47.42683
-13.935684 51.604523 47.017677
-14.593056 50.954685 46.561611
-14.142736 50.646206 47.217293
-13.351109 49.133904 48.277901
-14.665937 49.910343 46.990955
-8.0606556 57.990536 51.156563
-15.485304 50.506199 45.706902
-15.102932 50.223526 46.365574
-14.977585 51.22411 45.873589
-14.684345 52.115646 45.588051
-8.6440201 56.766022 50.787579
-15.182686 49.177261 46.774933
-13.387075 48.420639 48.302864
-15.307858 51.463005 45.150696
-11.739962 55.497063 45.674137
-8.1366329 53.855865 52.694931
-15.617781 49.511185 46.165417
-13.6777 52.535065 46.759632
-14.039635 52.788239 46.017563
-14.342239 51.881119 46.326382
-13.39146 47.662357 48.323742
-13.351929 53.428314 46.407185
-13.908161 47.708405 48.041695
-5.9477024 49.018112 53.072987
-10.454208 44.368114 49.721783
-13.750298 55.275383 42.467419
-13.094318 44.206978 48.413818
-5.0199337 57.650204 43.185295
-16.141174 51.575077 43.666916
-13.369411 46.884972 48.341026
-16.869743 49.691383 44.452412
-5.7280216 50.112549 53.810051
-9.7669086 57.050255 42.447945
-7.728754 58.357182 47.917923
-13.893269 46.927158 48.07394
-15.70155 48.457695 46.549702
-12.208357 55.340794 45.10981
-12.835218 55.002132 44.665466
-12.766619 54.848461 45.157139
-12.688389 54.684952 45.644642
-7.0399628 58.543068 46.152729
-12.251289 55.482185 44.610813
-7.4721489 58.372082 46.341225
-8.3630543 57.044155 51.28624
-14.424095 46.98991 47.79229
-11.644913 55.941002 44.550095
-8.5524292 45.026367 50.674534
-15.902325 52.186741 43.349361
-8.9202576 56.788071 41.147129
-15.291428 46.133366 47.305237
-7.7335815 52.80896 53.109341
-15.696259 52.726471 43.010933
-7.8771076 54.668488 53.014313
-6.7596626 52.52346 54.077538
-10.079208 48.800358 50.133442
-10.077908 47.933548 50.039955
-10.452644 48.557922 49.878876
-10.120377 47.040451 49.951649
-9.6099186 48.062424 50.335377
-7.8114777 45.314911 51.045189
-10.866602 48.278572 49.633125
-10.912882 47.369934 49.567268
-10.532404 46.762493 49.730904
-11.290804 47.964798 49.398201
-10.487532 47.671757 49.801743
-7.850769 58.079712 45.011787
-9.1436081 47.33567 50.52343
-9.6188622 47.215759 50.23304
-8.0446587 52.992363 52.782234
-8.1291752 55.661083 52.413818
-8.3754959 57.358395 42.196007
-8.8210449 57.350616 42.445786
-8.3005409 57.667442 43.102257
-7.9857635 58.060574 51.504726
-6.1321659 47.31958 52.261917
-9.6794376 46.348442 50.150459
-10.184204 46.159363 49.879036
-9.2009563 55.359196 50.617504
-8.4749317 50.867172 51.826927
-8.805048 50.519703 51.440697
-9.0319748 51.028328 51.300575
-8.7127399 51.367828 51.684368
-8.40271 51.731441 52.100456
-7.6255684 58.22261 45.673889
-9.5884037 57.237717 43.208378
-9.0501652 54.594437 51.183563
-8.5607281 50.018581 51.548416
-9.2002277 46.495155 50.420349
-8.140995 45.57135 50.930351
-8.868721 55.449486 51.164413
-8.7120571 46.6203 50.701603
-8.8183193 45.324402 50.572998
-7.1403847 58.384651 45.495945
-15.000282 45.772186 47.457214
-7.5424423 53.599922 53.436684
-10.54229 45.163628 49.695976
-10.794569 52.027149 49.494953
-10.623426 51.249474 49.777725
-10.418528 51.697083 49.908218
-7.1147652 52.644669 53.744728
-7.0965652 58.654106 46.963089
-15.84399 50.691177 45.028923
-9.9927006 51.372131 50.342468
-10.206575 50.887749 50.163147
-10.343664 50.428783 50.055618
-9.6679363 51.184135 50.662365
-9.8669567 50.59412 50.46328
-5.462553 46.143677 51.925125
-10.177032 49.67123 50.156269
-9.0169315 57.049904 41.713295
-7.0100632 47.308662 51.820641
-10.050686 50.145493 50.285206
-7.8935261 46.414463 51.142536
-9.0332756 42.261242 49.771759
-7.4697552 46.89677 51.459034
-9.4436703 57.071617 46.608788
-9.1927128 57.119457 47.385643
-9.2546501 57.289276 46.130524
-9.5862827 56.868382 47.000023
-9.0216675 57.328117 46.973381
-16.02113 49.735184 45.545517
-6.7071934 47.873837 52.177269
-9.1702843 57.353901 42.860802
-9.1449814 44.543594 50.363205
-8.8542728 57.355957 47.800941
-8.9671707 52.560654 51.508049
-8.6663494 52.181679 51.86182
-9.5832787 53.26881 50.620293
-5.4355793 50.21904 54.06456
-9.1756573 52.960888 51.22451
-8.6659698 52.993546 51.954849
-8.9381847 53.371429 51.560577
-9.1691818 52.26207 51.236824
-9.2474098 51.484322 51.117577
-8.9972935 51.787331 51.419769
-9.1896362 53.763443 51.137161
-8.3674507 52.587532 52.312668
-8.0913277 48.63419 51.537209
-9.6840057 51.806183 50.643913
-9.9643955 52.825523 50.210381
-9.6132584 52.510811 50.674591
-10.069574 52.125854 50.205143
-8.0232964 47.959415 51.386787
-10.47098 52.465511 49.734787
-9.8370438 48.862045 50.305855
-12.048218 47.218872 49.005131
-11.312265 47.019043 49.355957
-9.4063244 48.808151 50.61145
-9.3736801 48.117653 50.501644
-12.398075 46.805 48.825401
-11.693022 47.605518 49.186783
-9.8359051 48.019886 50.188217
-7.6840267 48.431587 51.751213
-11.666704 46.630081 49.171619
-9.486002 57.089954 42.166744
-6.5443439 46.832928 51.925873
-9.3224163 57.0606 41.917801
-10.937582 46.438717 49.516582
-8.620863 55.656891 51.52211
-8.9666119 48.780109 50.937588
-7.8190022 53.725422 53.101379
-8.9305363 48.089325 50.803978
-8.5237999 48.764137 51.265862
-8.0098686 47.266731 51.219872
-8.4722958 48.084991 51.122108
-8.1309986 54.743385 52.614113
-7.2784462 48.245678 51.95652
-9.8613338 47.144405 50.094894
-9.3808651 47.275757 50.372742
-7.6264458 47.746315 51.579681
-12.009808 46.222008 48.996494
-8.0751534 57.909912 44.051891
-12.71479 46.375549 48.660252
-11.289618 46.052822 49.335075
-8.0183506 57.643944 42.845459
-6.7941074 47.05545 51.861946
-8.8443089 47.436169 50.727333
-5.8485813 58.011547 43.750954
-8.4437027 47.383465 50.974434
-7.2870731 46.656765 51.508537
-9.9254856 46.272858 50.015442
-9.4363403 46.42421 50.284592
-10.57493 45.872044 49.676258
-7.2545147 47.584305 51.762596
-9.0833073 52.778107 51.357796
-10.484215 44.61763 49.713272
-9.0613785 53.565468 51.364632
-8.8102646 52.381275 51.703426
-8.811203 53.178043 51.754459
-9.1096344 52.017948 51.304649
-9.138401 51.277496 51.21991
-8.8329258 51.605297 51.588905
-8.59515 51.120701 51.762798
-8.5259533 51.978607 52.006393
-8.2831078 51.485096 52.184803
-8.3522415 50.617466 51.883736
-8.9200897 50.774002 51.377201
-8.6848202 50.266659 51.499542
-8.4402008 49.775017 51.591881
-8.5234776 52.788044 52.135456
-12.994362 55.538452 43.080547
-12.298191 55.87191 43.230392
-7.4347687 54.120575 53.64373
-7.6214581 47.091888 51.415611
-8.0610542 46.611015 51.075485
-5.563345 48.175972 52.857925
-6.9373417 48.12133 52.128372
-8.9566669 46.558754 50.558746
-7.9764881 45.475174 51.000523
-5.2650089 49.993397 54.032104
-4.0445156 56.475895 41.466805
-8.2106667 52.381573 52.476124
-12.213699 45.814754 48.894844
-8.9103031 54.218391 51.498604
-8.4323254 46.691074 50.870926
-6.3084126 45.508957 51.511841
-8.6901093 53.819847 51.904755
-16.414898 49.876698 44.910805
-13.973614 54.471252 43.581642
-7.5685844 57.876411 43.432087
-11.500164 45.659637 49.233463
-8.6639233 54.648346 51.794754
-8.4260159 53.420845 52.310757
-14.350115 54.211227 43.319077
-13.590363 54.716972 43.833324
-12.674015 52.160973 47.916428
-13.693745 54.979832 43.127472
-13.297691 55.205505 43.3428
-8.4688797 54.301556 52.175045
-11.165337 44.473461 49.396439
-7.4197273 52.772057 53.448444
-9.2073441 55.896034 50.251366
-6.4487648 47.605377 52.217918
-13.192795 54.950653 44.072746
-10.439758 56.482037 41.003258
-12.90394 55.296444 43.792557
-12.85396 52.712757 47.496239
-13.404043 55.466896 42.629906
-12.925461 45.953827 48.550076
-7.2648888 58.46331 46.236893
-9.0692692 56.510319 49.895283
-8.9395943 56.084839 50.683762
-9.3498669 44.674213 50.276985
-8.8568821 57.058811 49.508591
-15.492622 46.373562 47.188438
-9.3163338 57.387611 44.836987
-14.086752 54.736012 42.879887
-9.5638676 57.298668 44.111431
-8.9273014 56.551758 50.301743
-13.427326 51.407013 47.602188
-5.1463852 49.714516 53.924782
-3.2601051 45.604008 51.27309
-9.1861496 48.792717 50.774281
-8.2992172 48.759117 51.427383
-9.1585617 48.091476 50.645325
-8.7467175 48.770531 51.102768
-9.6280651 48.825546 50.450455
-8.7024422 48.084396 50.9645
-13.884283 55.472252 41.541348
-8.2420826 48.079193 51.276306
-12.595409 55.613312 43.503586
-2.7664776 45.708591 51.065605
-5.6147785 58.748138 45.643761
-18.645187 48.993042 42.466457
-19.756744 50.521202 37.878799
-12.107353 55.169788 38.997112
-16.532246 53.110458 37.574539
-16.096729 53.258617 41.314682
-9.4059982 55.861526 39.503677
-18.957499 49.47538 41.477219
-20.385872 48.872475 40.289429
-16.334793 52.156445 35.025352
-18.874844 51.153477 35.890522
-16.039558 53.714485 40.018616
-12.623863 55.369671 39.58313
-7.5726051 55.436172 38.703323
-18.274239 51.254276 40.069824
-17.370594 51.534992 34.558208
-8.5949497 55.678261 39.097137
-11.095001 53.662056 35.895145
-14.875572 54.005398 37.971905
-10.03421 56.047874 39.980423
-18.319895 44.574184 44.770115
-18.154095 51.471325 35.29097
-13.85722 54.218987 37.810715
-20.963125 49.746788 36.658417
-19.674206 47.397816 42.276581
-12.767666 54.422581 37.741619
-20.602413 48.244896 40.639603
-20.538971 46.622021 41.742577
-17.816467 51.426479 40.829121
-18.597788 51.269623 35.470772
-14.650848 54.83234 39.792961
-13.184807 53.884029 36.74847
-17.988781 50.146561 42.303543
-15.666229 52.383511 35.080086
-19.003139 47.310108 43.168392
-15.178612 53.251472 36.449528
-19.047997 48.281544 42.478855
-8.3637047 54.875267 37.669533
-16.53661 51.362339 33.559059
-14.645447 54.91571 41.02449
-10.393503 55.981129 39.951073
-14.449223 54.555664 39.016937
-13.201887 55.30265 39.65625
-19.006477 46.073795 43.755005
-17.65704 50.793659 42.084942
-16.122559 53.692333 39.170067
-18.979221 46.900566 43.445232
-17.453495 52.562405 39.045799
-17.833447 50.477356 42.165943
-20.40538 47.780602 41.229099
-14.672392 54.931534 40.613167
-19.762211 45.103088 43.137512
-18.927485 45.15226 44.080742
-14.372337 52.046345 33.965256
-18.029968 49.004711 43.364788
-18.388824 51.705875 38.158527
-15.73061 53.676003 41.3629
-10.697544 55.868645 39.839455
-18.433725 46.681309 44.262394
-17.831779 46.006676 45.085922
-17.130047 52.745689 39.745216
-13.746586 55.16555 39.592949
-17.16296 46.885818 45.563782
-15.359409 54.295773 40.069729
-16.760815 46.21394 46.15316
-18.323687 50.822884 33.758514
-16.679573 52.482471 36.00433
-9.946352 55.365082 38.716213
-17.569593 46.585041 45.213661
-17.704369 52.073742 39.758957
-16.864979 45.754074 46.084724
-17.451534 51.834332 40.976967
-20.178463 50.200859 34.906742
-8.5936623 56.412926 40.425575
-17.088104 52.237499 41.0406
-18.040043 48.283684 43.887817
-14.92741 54.567581 41.295418
-17.364796 47.409424 45.163677
-17.011578 45.132324 45.951775
-17.754814 47.762901 44.561699
-21.427809 47.719189 40.19191
-18.031776 48.636486 43.649715
-11.250343 55.664867 39.648331
-18.050003 47.864746 44.151154
-18.162798 46.504425 44.613976
-11.262287 56.095406 40.470093
-17.881836 50.965164 41.428833
-8.3544598 56.593616 40.716583
-17.349321 51.168129 42.180874
-17.003616 46.724064 45.802132
-15.805262 53.415127 41.773876
-17.52006 47.678074 44.884926
-17.180088 51.811462 41.591835
-12.333225 55.838619 40.34478
-16.459393 52.595421 41.79108
-21.317837 48.580338 39.43856
-18.859367 50.555885 40.168018
-20.204872 49.895782 39.081322
-13.450954 55.611694 40.382111
-16.957207 46.434174 45.932426
-17.321075 50.03006 43.518841
-17.258169 48.625988 44.698109
-18.119556 47.324036 44.356564
-17.361216 49.446583 43.978317
-13.090225 55.865047 40.939556
-18.424458 51.619507 36.879093
-17.38625 48.814106 44.406994
-18.737999 51.288895 38.916904
-13.400072 55.734505 40.760799
-18.566002 50.540462 40.71534
-18.445965 47.799667 43.656834
-17.374531 49.76149 43.686508
-17.358921 45.495094 45.639904
-16.855362 51.405464 42.743839
-15.212141 54.230923 41.419777
-15.880337 45.53178 46.89362
-11.632847 56.096798 40.670105
-17.781509 51.965652 36.188347
-16.732136 52.017902 42.147999
-15.989338 52.932243 42.207058
-15.417652 54.03653 41.344166
-17.657764 49.365219 43.615387
-16.989029 51.819679 41.958321
-17.53392 50.065605 43.148598
-16.078281 45.805904 46.774296
-17.199333 50.388893 43.347
-17.278057 51.469296 41.915104
-17.645565 48.709862 44.135441
-16.683228 47.953819 45.725082
-17.081873 48.508961 44.997837
-16.686859 47.649658 45.842838
-17.109333 47.904125 45.258774
-15.88858 53.188633 42.012966
-16.111038 52.60191 42.442791
-16.367434 52.015881 42.787323
-15.702829 45.246033 46.97517
-16.246578 52.725739 42.031464
-13.46582 53.413559 35.999138
-12.581284 55.899212 40.583191
-17.441925 48.241623 44.69738
-16.234531 52.305489 42.632912
-16.603882 52.318489 41.93821
-17.026564 49.059975 44.713623
-16.346592 45.902416 46.559181
-13.622971 55.688309 41.276291
-16.634411 51.58329 42.889305
-16.741959 50.614193 43.807808
-17.398617 49.136543 44.166355
-16.477222 51.767658 42.918045
-12.699696 55.818146 42.821255
-16.562346 47.266777 46.146324
-17.116295 49.547234 44.232666
-16.89304 48.043343 45.443256
-10.904552 54.137791 36.667812
-18.900782 50.174927 40.680672
-18.788635 50.897514 39.690681
-12.343723 53.603718 36.026482
-19.612694 49.167103 40.911003
-20.266632 49.54858 39.594524
-9.5727577 54.651241 37.394157
-20.013355 50.250134 38.436363
-19.267458 50.931984 36.807014
-14.010326 53.306614 35.992085
-11.351974 53.160988 35.148712
-12.911077 53.509521 36.00808
-11.855247 53.388458 35.585941
-15.519751 53.897629 38.45657
-9.9346313 53.711231 35.84137
-20.116436 50.117218 38.699982
-13.574493 52.455116 34.446686
-15.880119 53.182175 36.894524
-16.316448 53.426933 38.370468
-12.459152 52.334621 34.04998
-8.9630241 54.569393 37.198906
-20.341623 50.129719 37.228584
-15.016399 53.656334 37.188866
-11.381123 54.328796 37.098003
-10.738266 55.029583 38.280617
-14.516479 53.252747 36.095055
-19.037113 51.110497 38.004204
-16.626404 52.812305 36.793995
-14.508274 52.436783 34.678318
-16.996979 52.977577 38.295925
-10.022411 54.868996 37.814304
-17.25989 52.450661 36.68964
-17.615999 52.284492 36.985706
-16.857393 52.753933 40.509365
-15.827761 53.741581 40.776619
-17.27985 52.759384 38.663216
-17.15472 52.863358 38.451744
-12.443251 54.787525 38.369579
-14.008907 52.488777 34.615219
-18.210693 51.867207 37.7855
-10.403376 53.931953 36.251747
-17.934456 52.081589 37.346111
-11.081331 55.097343 38.520554
-18.096796 51.957745 37.544155
-11.771416 54.412075 37.369427
-17.445827 52.370564 36.835636
-18.888548 51.21949 38.410309
-17.797625 52.163006 37.111591
-16.597181 52.729347 41.202354
-10.902201 52.899078 34.691521
-16.603756 53.243145 39.894951
-8.4500771 55.304916 38.422783
-15.02492 52.391434 34.792164
-10.400019 54.956173 38.048328
-18.441799 49.831402 41.902195
-18.134037 49.371052 42.89225
-15.405922 52.830025 35.767078
-19.162926 51.017277 37.597824
-19.101845 48.710423 42.05368
-16.29314 52.982792 36.841011
-15.92263 53.663662 38.395939
-16.94474 52.627182 36.749119
-11.93288 55.522583 39.620018
-12.82093 54.975616 38.915882
-12.05735 54.596207 37.840492
-11.364216 55.317692 39.029308
-19.253654 49.666565 40.814735
-16.686752 53.180939 38.341164
-10.040142 55.678375 39.309525
-19.761738 50.555828 36.960068
-17.488483 51.753227 35.178875
-19.974747 48.672508 40.97179
-17.436047 51.167629 33.748871
-18.875393 51.239723 36.688972
-16.474669 52.726677 41.502422
-16.725853 52.742634 40.859169
-15.729399 53.760399 41.096703
-9.4132271 55.516193 38.884605
-18.300802 49.596977 42.410824
-18.644354 49.924137 41.439762
-9.3886299 56.243065 40.18644
-16.917801 52.127136 35.437569
-20.634815 49.097408 39.747387
-19.292194 48.942825 41.556473
-20.200424 50.163784 38.039211
-16.336163 51.797401 34.312199
-11.591217 53.867218 36.309883
-16.734394 52.999989 40.206009
-8.1084938 56.02512 39.715782
-17.81039 45.431549 45.196751
-8.9560146 55.441261 38.690636
-16.417515 53.454845 39.562553
-15.648796 53.991787 40.447212
-19.940315 49.371483 40.268211
-8.958477 56.171791 40.004108
-20.897369 49.730221 37.43438
-13.053694 55.067497 39.204601
-11.680416 55.419983 39.328423
-12.195313 55.634148 39.925652
-10.237835 54.407204 37.050896
-18.298466 50.904736 40.640167
-17.779388 51.760769 40.271133
-18.19202 51.592228 39.549072
-16.190357 52.466347 35.555454
-19.520947 50.225189 39.608116
-8.5488625 56.105946 39.857155
-15.796297 52.090061 34.581337
-20.93832 48.492493 40.04541
-12.156902 52.898853 34.873047
-14.154648 54.394661 38.402939
-14.564339 53.845551 37.317055
-17.184322 51.0037 33.165798
-15.450064 53.418186 37.035812
-10.478683 55.727848 39.520054
-20.025606 47.565838 41.783562
-15.128599 54.130913 38.593288
-18.547417 48.632263 42.92244
-19.039381 47.782356 42.827942
-17.716406 51.832535 35.649963
-20.124577 48.270958 41.151146
-18.173565 51.627819 35.850082
-9.7131462 55.600513 39.087585
-19.665161 47.912754 41.954247
-10.594099 53.455227 35.498173
-17.990253 45.057976 45.069626
-14.68507 54.25042 38.46048
-13.66333 54.489086 38.328213
-14.06612 53.952827 37.298874
-20.820885 48.800335 39.868065
-18.431229 51.489529 35.978172
-13.120798 54.603542 38.29586
-16.939472 51.492435 34.079464
-16.899147 51.857635 34.801361
-12.9746 54.156788 37.251213
-20.928524 47.700813 40.731781
-13.526461 54.057869 37.272629
-11.75272 54.949722 38.443577
-9.7301693 56.333023 40.423077
-18.505472 51.487503 36.268101
-12.422594 54.227562 37.20224
-18.709639 51.351318 36.38678
-19.670231 46.844452 42.582249
-20.443605 50.1049 36.443802
-20.176781 46.42971 42.201385
-20.876444 46.804291 41.325409
-17.971619 51.722523 35.734276
-14.967897 53.045383 35.930317
-20.430737 47.217411 41.567787
-7.9408722 55.124584 38.102615
-18.036526 50.988697 41.052902
-17.597527 51.848434 40.576561
-15.804134 52.616287 35.594818
-17.971542 51.681374 39.926926
-14.995861 54.513962 39.508041
-15.016356 54.605999 40.3409
-18.740484 47.788944 43.237156
-13.315113 54.327545 37.782158
-14.097923 54.854076 39.311523
-13.746803 53.787781 36.762825
-14.320269 55.166584 40.066116
-12.614546 53.967075 36.735825
-18.090714 50.417442 41.776058
-15.859495 51.662888 33.813316
-18.824446 49.238468 41.950333
-17.801018 49.97747 42.80933
-16.534256 52.324188 35.505211
-19.344189 47.831776 42.405224
-21.079411 48.155148 40.202751
-19.326359 46.809563 43.017738
-15.729122 53.997692 39.613907
-13.19096 53.016888 35.271317
-8.9285507 55.007984 37.923611
-15.277477 53.79052 37.80278
-19.331999 45.623013 43.488888
-14.738159 53.468712 36.61129
-15.597794 53.024796 36.279903
-18.337393 48.985531 42.937065
-18.763428 48.235977 42.905323
-19.338604 48.329121 42.052677
-17.567486 50.566833 42.526569
-18.722446 47.355629 43.558678
-15.431885 52.204372 34.63213
-19.337748 47.305634 42.73037
-18.720976 46.785763 43.86274
-14.280048 55.26189 40.806904
-14.989677 54.608498 40.8274
-14.401726 54.104847 37.852352
-15.21743 52.615307 35.277592
-18.538355 50.907017 40.165085
-20.798458 47.340351 41.113945
-13.973652 54.679443 38.930859
-19.355883 50.82019 36.007915
-19.311625 46.124454 43.348347
-14.244505 52.88039 35.335812
-14.928349 54.378044 39.056358
-14.218306 55.031506 39.683395
-19.312551 45.073605 43.663994
-13.343084 55.038155 39.254944
-19.171087 44.664368 43.881233
-20.050299 46.999271 42.085331
-12.515484 55.618965 40.004932
-13.053146 55.537201 40.0327
-18.73595 47.545555 43.409447
-19.981743 48.054752 41.489349
-21.001377 47.977783 40.443619
-19.303356 46.503307 43.204193
-18.70866 45.987995 44.149605
-18.706501 47.163006 43.70639
-17.973259 50.657013 41.664986
-8.1137657 55.599762 38.956642
-17.43276 50.881538 42.382664
-13.60041 55.432205 39.988693
-19.889347 45.513042 42.859657
-16.118366 53.333836 37.612366
-18.127533 45.601311 44.853889
-15.706059 54.002033 40.036766
-17.690544 50.272736 42.664268
-16.471924 53.443092 39.142914
-12.770153 55.576603 40.0103
-18.94492 45.643547 43.951149
-15.750023 53.952911 39.19429
-19.131163 50.793636 39.229462
-19.215908 50.193478 40.150326
-19.165279 50.570202 39.610798
-20.571812 49.543663 39.134338
-17.425495 52.425636 39.717571
-19.884304 49.88871 39.607689
-18.722183 46.395302 44.010593
-17.765316 52.239872 39.022629
-18.04804 52.027702 38.146801
-17.11618 52.905403 39.016296
-18.679646 45.531334 44.283165
-15.020416 54.581898 39.918606
-14.341228 55.236031 40.473568
-17.886532 51.459053 34.898945
-17.918938 52.13562 38.596176
-17.873455 49.355171 43.297829
-18.276306 48.666412 43.281487
-18.824665 48.62476 42.527542
-17.57056 52.496086 38.545513
-17.593403 45.794064 45.372635
-18.533331 51.572334 37.744267
-18.244606 51.819675 38.567421
-14.879253 51.961384 33.967815
-16.297569 52.89946 41.59544
-15.545681 53.959621 41.131374
-19.569405 50.635326 38.268673
-13.93362 52.004673 33.782425
-19.84918 44.556931 43.156967
-11.222965 55.90086 40.073036
-17.610813 51.081028 41.802872
-18.139778 46.891071 44.507328
-18.428017 47.066116 44.115383
-17.866707 46.572357 44.902046
-20.948637 49.470531 38.416267
-10.746567 55.677631 39.507767
-15.337479 54.287815 40.496284
-10.654259 56.083611 40.222088
-13.617706 54.968338 39.224762
-17.549238 46.10017 45.355034
-10.046524 56.263172 40.372231
-19.010807 46.48056 43.603939
-16.083378 53.729225 39.590073
-17.253633 52.488251 40.064949
-17.077503 47.270103 45.531601
-16.203657 53.48016 40.350037
-18.430191 46.29409 44.40081
-13.331373 55.498295 40.022007
-17.596447 52.334454 39.379848
-17.483677 46.991096 45.181107
-18.137644 46.065037 44.76297
-14.561666 54.705151 39.400253
-16.992275 52.973171 39.432629
-15.367283 54.274651 39.657352
-17.228901 46.4851 45.599197
-14.678444 54.902184 40.199318
-16.921238 51.146622 42.948875
-16.993824 50.938866 43.072735
-13.86446 55.344486 39.959415
-17.025227 46.146385 45.890121
-18.49222 51.238342 39.628254
-19.832195 50.229343 39.070862
-18.443176 51.585361 38.86034
-13.366234 52.748001 34.8769
-12.786758 52.850708 34.91769
-13.879436 53.552307 36.379494
-20.672047 49.3447 39.320602
-11.506697 54.103848 36.70945
-13.332455 53.654736 36.373665
-18.453888 51.450863 39.243637
-18.577776 51.50724 38.541855
-10.821293 54.371696 37.062607
-19.063728 51.012585 38.788918
-12.779133 53.747936 36.375164
-13.601782 53.169479 35.62582
-19.921333 49.673019 39.887684
-18.923595 49.830082 41.103916
-18.591816 50.258953 41.08255
-19.287527 49.909676 40.451324
-18.554382 50.728184 40.439014
-19.282761 49.312458 41.191643
-19.860668 50.067661 39.33794
-13.047001 53.266701 35.641499
-12.220186 53.832191 36.379005
-18.512955 51.081787 39.897709
-19.185085 50.393166 39.887432
-19.594316 49.51442 40.533886
-10.14843 54.63797 37.430729
-10.994633 53.903084 36.273315
-20.924274 49.264069 38.995728
-19.595987 48.793755 41.308945
-20.285812 49.244419 40.003384
-18.957607 51.187805 37.15419
-10.259346 54.184242 36.668163
-10.821564 55.2589 38.751896
-19.934782 49.06868 40.622421
-11.473289 54.548229 37.55217
-19.692009 50.485069 38.59153
-12.477461 53.3592 35.660198
-11.720253 53.63118 35.945518
-20.557106 49.932545 37.779556
-19.795856 50.358864 38.798336
-20.491123 49.816063 38.651836
-14.154415 53.494507 36.381996
-10.739124 54.81937 37.871727
-9.4829216 54.915806 37.826195
-13.606384 53.605251 36.376053
-11.9977 53.143196 35.223206
-19.480371 50.763878 37.361217
-17.29533 52.718628 38.107372
-13.671539 52.686985 34.850517
-12.540558 52.739113 34.693886
-11.971828 53.73304 36.15836
-19.531599 50.726173 36.489326
-17.875629 52.171703 37.780998
-10.501724 53.695171 35.86853
-11.220757 53.41716 35.521542
-13.054771 53.703865 36.375935
-20.024879 50.3391 37.543701
-9.7864208 53.956688 36.234112
-22.765125 47.794529 38.167187
-9.2776566 54.396996 36.943008
-12.502823 53.790695 36.375706
-9.6994057 54.419483 37.016613
-14.376492 53.070313 35.708385
-13.894493 53.108765 35.609837
-10.038155 55.091534 38.221268
-9.2108078 54.830132 37.646767
-16.361265 52.802483 36.454418
-18.223976 51.819283 37.221016
-16.622257 44.455013 46.163486
-18.030964 51.946545 36.936455
-16.888065 52.787563 37.139137
-19.096336 51.044365 36.361233
-9.0270157 55.681213 39.128586
-15.611588 53.72702 38.056175
-13.325344 53.219601 35.633305
-15.8288 53.818008 38.793991
-15.793266 53.367931 37.272266
-15.427023 54.066826 38.854675
-13.077694 52.802502 34.900002
-16.208519 53.160278 37.224327
-12.242172 53.252838 35.441563
-11.468882 53.527847 35.733952
-20.573582 49.670776 38.864422
-16.019844 53.499863 38.004639
-16.4231 53.276894 37.974709
-16.215225 53.57822 38.767181
-16.582012 53.314056 38.742241
-15.962364 52.991905 36.519093
-12.76713 53.313431 35.650871
-17.011627 52.470432 36.359467
-20.929958 49.059788 39.353012
-16.770908 53.058655 37.934441
-14.923328 53.843616 37.577583
-14.657196 53.675312 36.977085
-8.8266048 55.923531 39.548168
-15.178452 53.973457 38.207939
-14.402531 53.464264 36.431534
-15.098591 53.455177 36.817623
-15.364861 53.60973 37.412971
-17.314003 52.543884 37.180016
-11.141773 54.900272 38.150627
-15.532734 53.22226 36.66214
-14.625725 52.633877 35.055527
-20.388844 49.969536 38.367363
-14.899616 52.193054 34.394447
-11.867071 54.236809 37.045692
-14.124611 52.683693 34.969906
-8.9183369 54.782284 37.534821
-18.682123 51.427837 38.167763
-11.088402 54.485008 37.319389
-16.568037 52.970505 37.173996
-10.403027 55.172821 38.461884
-9.0151043 56.369011 40.36869
-19.22081 50.924656 38.333443
-14.629938 53.039902 35.759098
-15.953945 53.516151 41.065144
-10.411449 54.757729 37.677269
-14.126316 53.097702 35.665401
-16.952118 53.042019 38.717579
-11.75452 53.026405 35.001694
-18.859558 51.275543 37.655655
-17.073275 52.859119 37.892185
-17.839432 52.05793 36.724464
-17.644295 52.349766 37.489834
-10.956741 53.307507 35.315094
-16.692036 52.649719 36.430485
-17.495125 52.237015 36.448483
-12.555305 56.088531 42.06197
-11.246304 54.005772 36.482628
-18.367619 50.205242 41.554359
-18.056801 49.79575 42.588654
-10.564037 54.271374 36.850624
-14.374329 52.660091 35.00901
-19.379822 50.824493 37.905907
-14.662174 52.206264 34.333431
-9.7483768 55.012192 38.023411
-13.876751 52.702576 34.930027
-16.369255 52.972744 41.241058
-16.602791 52.99395 40.584755
-17.306496 52.313778 36.329922
-17.101002 52.504505 40.449894
-16.82877 52.482616 41.15448
-17.672867 52.158131 36.60537
-15.56966 53.997265 40.828632
-8.9223557 55.228443 38.303459
-16.077171 53.488274 40.746529
-17.934343 49.663746 42.918854
-18.265041 50.117031 41.860268
-9.8958969 54.531067 37.221836
-14.146338 55.356106 41.200996
-18.109152 45.269756 44.919144
-18.216717 49.960793 42.139404
-18.018919 51.337914 40.500183
-19.600155 45.830547 43.096752
-10.052193 54.065483 36.43882
-17.675064 51.399513 41.204483
-18.546686 49.422199 42.1931
-18.787413 51.105133 39.26767
-11.076683 54.680393 37.696011
-12.600056 54.607586 38.064617
-12.966171 54.787811 38.606491
-10.741577 53.799774 36.066727
-12.290569 54.970749 38.674049
-16.470602 53.240017 40.282585
-11.923582 54.772938 38.151363
-16.992914 52.75338 40.130718
-11.603893 55.132008 38.747494
-12.246532 54.419365 37.539734
-18.413839 51.671585 37.535316
-16.868631 52.996281 39.82312
-8.624815 54.689613 37.374786
-17.294685 52.658291 39.403812
-16.320961 53.475197 39.959702
-18.690636 49.604866 41.753735
-18.382057 49.226902 42.6567
-14.882195 52.6143 35.121101
-15.928801 53.730965 40.400436
-16.656643 52.493019 41.524681
-17.527054 52.15873 40.077473
-16.717127 53.214344 39.504456
-10.416067 55.427582 38.950813
-16.967381 52.507675 40.783627
-16.49622 52.966789 40.930012
-17.895864 51.998856 39.377747
-16.950485 44.638237 45.934563
-17.239008 44.493038 45.68766
-13.456814 55.678799 41.924397
-19.565342 46.428539 42.90126
-16.627382 44.941952 46.242348
-16.290363 44.797577 46.480522
-15.610134 41.817936 46.340664
-19.816677 46.41148 42.610317
-19.583189 46.154846 42.995853
-13.087885 55.767254 42.411842
-15.633934 39.715076 45.606922
-14.404236 38.939938 45.923462
-15.734903 40.915073 46.022728
-16.421507 41.683903 45.761597
-14.188198 42.980637 47.531162
-12.418549 41.309101 48.033897
-17.471153 42.069469 45.11393
-18.187687 42.462643 44.660156
-18.598099 43.880211 44.425488
-16.495329 43.271629 46.015671
-14.520693 43.35294 47.382763
-14.77458 43.729679 47.275124
-19.452963 42.379128 43.66497
-13.591705 42.128197 47.686802
-18.3757 39.068428 43.755173
-20.706944 43.697411 42.407089
-20.659374 44.492416 42.306885
-20.934063 45.015884 41.871315
-20.832067 44.686607 42.074993
-13.265867 40.631332 47.337067
-20.810287 44.185143 42.221756
-20.177105 42.856731 43.032471
-12.018723 42.626846 48.678749
-16.055798 43.632885 46.399712
-17.439564 39.271851 44.39175
-14.804558 41.951336 46.901665
-11.345165 40.906677 48.421421
-18.96447 44.278759 44.11544
-10.338234 43.170586 49.58091
-14.814388 44.687153 47.423748
-20.09074 41.253662 43.111034
-15.540245 43.674992 46.763004
-20.725096 45.780453 41.851349
-12.2342 43.259464 48.745834
-10.719027 43.553802 49.530701
-21.506105 42.608902 41.837498
-20.811588 46.098194 41.660908
-18.309265 40.823307 44.333992
-17.161629 44.097492 45.671211
-16.127014 44.507977 46.531826
-11.283947 42.755966 49.078835
-18.750355 44.62249 44.334209
-17.936554 44.170776 45.056126
-14.272289 40.222176 46.610428
-20.972076 46.221355 41.458248
-21.840933 44.810505 41.037796
-12.78149 43.661922 48.517879
-22.385319 42.523949 41.08527
-15.23357 44.925774 47.212627
-15.05106 40.470467 46.273735
-12.615658 43.470085 48.578514
-17.949982 44.738838 45.112762
-17.558292 44.333206 45.388893
-14.453371 44.972889 47.692211
-11.153854 43.74437 49.363632
-18.848789 44.881664 44.189636
-13.24489 43.553871 48.236427
-22.218506 41.285721 41.375175
-11.917826 44.106632 49.014164
-15.51128 45.077724 47.059277
-10.381006 43.903843 49.727154
-19.482109 44.596577 43.550621
-11.544731 43.884865 49.189034
-11.88879 43.615662 48.993439
-11.181808 44.219173 49.375027
-15.947838 44.70002 46.699982
-17.37747 44.133316 45.510685
-13.762457 44.366299 48.030304
-19.395655 44.320724 43.672077
-18.261097 45.07811 44.785191
-17.270239 44.969009 45.712688
-16.498146 46.283569 46.406929
-19.570221 44.885513 43.404884
-12.446531 45.415646 48.770855
-15.923389 42.238525 46.21347
-15.295214 41.423878 46.448219
-16.934483 41.123783 45.29612
-12.68169 42.263977 48.217621
-17.50209 42.921749 45.213451
-11.612003 41.69136 48.584339
-16.447439 42.454086 45.886913
-17.850489 43.111759 44.979145
-18.965782 43.167755 44.075146
-13.338928 41.323441 47.571056
-14.796902 42.863323 47.104378
-13.583092 43.031883 47.921318
-18.654949 41.695423 44.231377
-14.198631 42.045151 47.305344
-17.838869 41.291508 44.729996
-18.198406 41.665024 44.556076
-17.426971 41.273975 45.000626
-18.073143 43.825375 44.884224
-18.390669 43.164772 44.542828
-19.101765 43.919319 43.959381
-13.867218 43.469978 47.837723
-17.019444 43.514488 45.667412
-15.9566 43.003342 46.347458
-14.274479 44.199814 47.677288
-14.059607 43.781006 47.760292
-13.724236 43.258896 47.885006
-15.010487 43.236393 47.03381
-18.786182 42.524509 44.201092
-19.52372 43.1623 43.597801
-12.996038 41.813679 47.917622
-15.215971 41.889435 46.623165
-14.296848 40.72094 46.81036
-13.946842 40.64254 46.97456
-20.124355 43.746914 42.985886
-14.508354 42.453682 47.206318
-20.390675 45.239239 42.379158
-16.942883 41.891396 45.441803
-13.289577 42.618748 47.989151
-20.479294 45.502552 42.196346
-20.351315 44.997238 42.49876
-20.138824 44.852089 42.774307
-15.160393 44.163155 47.105843
-13.866901 41.629223 47.380577
-12.78961 41.000069 47.736332
-20.368883 44.347408 42.642292
-20.253222 44.077011 42.809086
-15.519581 42.30323 46.505669
-12.246572 42.0532 48.384602
-13.678396 40.941891 47.247009
-19.211073 41.753105 43.827393
-19.865593 43.432125 43.270073
-20.205605 44.557426 42.773373
-16.573965 43.870399 46.081898
-11.403496 42.267166 48.869934
-12.455917 42.83482 48.507183
-16.836235 43.735458 45.852345
-15.745934 40.341766 45.818333
-11.089445 41.380028 48.710175
-11.901266 41.187084 48.267017
-16.334335 44.063267 46.292931
-15.81881 44.100925 46.660076
-15.70282 43.23962 46.567883
-11.754869 42.978546 48.919453
-15.100288 42.347404 46.795994
-13.894272 42.536907 47.609989
-19.835804 42.623005 43.359997
-10.987919 43.14698 49.322517
-20.492081 43.196758 42.689342
-14.498478 41.564571 46.991226
-18.268108 44.027145 44.742954
-16.084293 41.27383 45.894871
-10.418655 42.729389 49.417309
-7.733099 43.851093 50.636608
-14.435986 44.646626 47.648075
-15.158096 43.697273 47.018929
-15.194839 44.621552 47.174843
-19.285847 44.121284 43.790916
-20.339046 45.91412 42.210983
-17.830971 42.28125 44.90255
-14.75552 44.211651 47.372749
-15.528656 44.122086 46.860313
-16.087749 44.068619 46.466885
-15.408428 43.276695 46.775398
-12.604645 43.178524 48.523979
-11.116039 43.467186 49.345215
-11.872833 43.329994 48.954109
-10.200426 43.650288 49.766716
-10.826565 42.815182 49.294117
-16.738297 45.35088 46.188118
-11.647408 42.583885 48.856113
-18.461117 44.228149 44.60025
-17.94939 40.711678 44.541924
-16.911604 44.279587 45.905617
-20.513206 46.219913 41.923389
-18.698513 40.852379 44.07402
-14.636541 40.662617 46.592484
-16.008928 41.74321 46.056389
-16.501465 41.186535 45.599167
-14.900349 41.497185 46.721115
-15.690657 41.350319 46.17738
-14.569935 41.100182 46.799919
-15.351688 40.957523 46.275276
-16.738678 42.972836 45.782063
-17.257067 43.219154 45.436844
-16.115635 40.818649 45.751549
-16.20673 42.737831 46.115669
-15.712231 42.551613 46.423584
-15.380777 40.662811 46.158588
-15.368137 42.092995 46.567703
-16.692335 42.165024 45.662777
-17.225555 42.386154 45.332947
-16.187714 41.974617 45.979683
-17.178604 41.572475 45.225925
-16.738808 41.438469 45.497231
-15.056885 41.693832 46.675369
-15.853807 41.54068 46.118519
-12.809204 42.692028 48.274769
-11.871105 42.163635 48.614666
-13.130749 42.211899 47.965805
-12.079443 41.687519 48.351379
-12.341635 42.430855 48.448944
-17.514896 43.343628 45.264069
-16.998789 43.095715 45.609886
-14.74062 41.306107 46.765797
-18.441002 42.142422 44.43898
-13.428108 41.768162 47.670837
-12.545145 41.840767 48.160828
-16.473354 42.857571 45.94883
-18.775093 43.527946 44.247753
-15.939728 42.621872 46.280426
-17.493692 42.501446 45.162857
-16.319626 40.982677 45.671425
-15.528597 41.158657 46.227547
-12.845333 41.448673 47.876328
-17.846483 42.690941 44.940262
-19.283661 43.584412 43.795689
-19.149567 42.776726 43.919472
-17.687693 43.439102 45.146797
-13.767899 41.258465 47.319138
-16.960081 42.275524 45.497978
-18.228493 43.495083 44.708618
-18.579613 42.823006 44.375797
-16.426195 42.056915 45.828987
-17.843021 41.849472 44.830627
-18.039694 41.987133 44.717266
-17.639063 41.712032 44.943367
-18.209595 42.039669 44.602932
-16.548676 45.632324 46.368874
-17.452013 41.67366 45.062141
-18.021885 42.788948 44.814754
-17.670208 42.598 45.055202
-20.193668 45.586681 42.482018
-18.961918 42.172054 44.042446
-10.962788 42.406155 49.107445
-13.124786 45.547028 48.437069
-14.413433 43.768486 47.522514
-13.557812 43.515472 48.040928
-15.973713 52.50428 42.815323
-13.874132 54.200466 44.277435
-15.13859 53.565872 42.828831
-14.227833 53.953789 44.016407
-14.17712 43.428764 47.627838
-9.198452 43.727592 50.145905
-9.0113964 44.003815 50.289585
-9.4180603 41.792313 49.475586
-19.978849 44.131973 43.08503
-5.9182072 58.449421 44.858376
-4.4535408 57.838867 43.703732
-5.2678509 58.249352 44.387848
-7.0861225 57.159195 41.823204
-6.2031078 56.754284 41.265114
-3.4222031 57.801796 44.052605
-3.4102058 56.092041 41.160561
-4.2355633 56.008621 40.557674
-5.1487198 56.350475 40.817627
-2.859787 58.31884 45.258461
-4.5298824 59.283234 47.033669
-2.5646229 57.234886 43.556114
-3.0394192 58.948311 46.353691
-3.6895638 59.17041 46.659187
-6.5734444 56.040607 39.938591
-5.775301 59.288872 47.677528
-4.6910114 59.864098 48.525597
-5.9414921 58.732788 45.719509
-5.6211376 57.430359 42.618839
-7.2570915 57.557297 42.566299
-6.5702343 55.53508 39.022022
-6.9273224 59.556656 50.440338
-6.4412518 58.147247 44.061852
-7.5827084 55.933449 39.596054
-6.5250397 59.117485 48.018013
-6.2099438 59.21487 47.891129
-6.7786732 58.151024 44.130375
-7.7935429 56.868195 41.225506
-1.8522148 58.296337 45.829262
-4.4042816 55.354675 39.319122
-7.2097626 57.66222 42.813377
-7.1077805 59.11937 49.685333
-3.9247742 56.970966 42.370934
-6.0818443 58.826641 46.13456
-6.9503765 58.206017 44.388283
-5.3417168 58.67067 45.402729
-6.3968525 58.825668 46.377335
-6.6893883 59.10421 48.333488
-7.1405735 58.986702 49.261101
-8.0989819 56.710747 40.936752
-4.7731037 58.883751 45.950253
-7.3939533 59.144722 50.802879
-6.8673859 59.059998 48.652699
-6.870882 59.120129 48.957375
-7.8497849 55.748436 39.233467
-7.5452175 59.0373 51.322998
-6.0998058 58.119537 43.992462
-7.5628853 55.406937 53.589062
-6.7898178 58.316544 44.69165
-7.3805828 55.635132 53.936466
-7.8804722 56.221298 40.0826
-6.463335 58.897877 46.717224
-8.0472279 56.467815 40.51078
-7.7522583 56.849144 53.157051
-8.3235607 57.179169 41.800629
-7.8744259 57.859688 52.403412
-6.6009293 58.502983 45.335518
-7.4679089 59.233963 51.629234
-7.8003063 57.563061 52.87944
-7.9565907 58.288078 50.57222
-5.4398766 57.84486 43.474136
-8.2528095 55.836254 39.374847
-8.3344269 56.234272 40.090031
-6.7455788 58.807838 46.844261
-7.8794479 58.398159 50.139038
-4.2714176 58.247185 44.566116
-8.4808559 56.785076 41.072926
-7.7281857 56.239365 53.257736
-8.7595825 56.607761 40.788441
-6.8297749 58.47049 45.439606
-8.5814209 57.528271 49.07423
-4.5106049 56.500698 41.298306
-6.3515167 57.301628 42.221272
-6.8174496 57.488556 42.500446
-4.6378021 58.469433 44.951767
-4.1791267 57.432491 43.055004
-7.3404179 56.78767 41.127228
-5.9087181 57.096676 41.94202
-6.8940544 56.600399 40.865902
-5.4885521 56.877007 41.649387
-3.7369461 58.292713 44.825485
-5.8419628 56.193291 40.358704
-3.3586502 57.383286 43.351311
-6.371603 56.39204 40.594559
-3.6741428 56.540756 41.759548
-4.9693623 56.676453 41.440842
-5.2837791 56.007408 40.190689
-5.3826122 59.509956 48.077644
-5.0643768 59.193024 46.884174
-4.7249546 59.094379 46.519318
-5.5820198 59.782471 48.896229
