# .PCD v0.7 - Point Cloud Data file format
VERSION 0.7
FIELDS x y z
SIZE 4 4 4
TYPE F F F
COUNT 1 1 1
WIDTH 1607
HEIGHT 1
VIEWPOINT 0 0 0 1 0 0 0
POINTS 1607
DATA ascii
15.310698 3.1725883 51.381313
10.821461 15.917942 66.99852
10.575167 18.22633 66.195816
27.721308 23.270081 54.410213
22.338375 2.4971733 53.644951
13.804596 3.8600297 57.890877
15.742981 22.041681 62.577469
7.3888493 16.040651 67.310287
12.671848 4.4384732 59.232212
7.0275116 17.050728 67.142509
18.761572 3.2054687 52.735359
16.144421 23.702187 56.990612
13.962908 24.237577 53.684982
3.0975971 25.723938 53.251869
6.8587961 4.1552134 54.347111
8.2762232 23.472672 60.554596
5.5118804 7.7844405 62.879177
12.709507 3.7268753 50.428879
15.683797 3.029428 52.562977
0.7371006 18.942318 66.458069
4.1681285 4.875566 57.515202
4.9273539 4.5443168 52.977703
-1.9386702 20.00766 66.952866
1.4141092 4.7529964 53.759815
-7.4247074 8.6110115 65.034302
-4.4649448 17.135735 68.685905
13.031824 24.330235 52.690727
-9.7471046 28.105198 59.654106
-16.724182 17.795628 67.409805
-8.281395 20.674843 67.218002
-11.924229 10.129731 66.874573
-15.794428 10.346668 65.568588
-11.033875 27.489992 62.712181
-17.497826 20.84621 65.409203
-6.79179 5.3664122 60.730579
-11.286644 27.934586 60.881859
-20.527981 12.872584 60.60519
9.779047 16.969481 42.832375
-9.0813293 4.969636 53.391792
-16.726675 19.485973 66.942398
-5.4035645 5.315352 60.719692
-1.0196238 16.483162 46.554043
-6.7142296 21.905987 66.372955
32.067986 16.845181 41.953388
-19.660225 16.935947 52.502571
-20.942974 17.451786 63.119366
-11.728441 26.090464 65.03186
-13.791676 24.551956 65.742889
-13.348547 7.8325891 62.622051
-13.229927 9.4028597 65.26503
-19.229645 20.450672 64.04126
-2.1065989 5.0906353 53.101349
-8.1051788 4.8176088 50.947468
-7.2398529 16.301619 47.410828
6.0665312 25.259533 54.896858
-4.7263203 4.6686168 51.989349
-4.4182072 25.826279 61.497463
-8.842308 26.752136 63.397655
18.84581 22.170868 48.515507
6.7632351 11.128386 43.264355
5.01581 16.947594 43.653782
-3.532423 6.9372387 45.849384
-2.1763668 7.6899285 46.145798
2.2886477 11.066173 45.102676
-0.99645996 25.63958 50.96608
5.5303378 15.978869 43.301414
19.933823 23.147141 52.473339
-0.55396843 24.096786 48.641346
21.021427 20.930332 47.893864
-2.2326727 9.6049318 45.813084
16.167831 23.922897 51.043262
22.504227 21.570583 48.183109
26.173557 17.625109 39.884186
7.2687635 15.910721 42.85445
4.9637012 11.442573 43.744625
-0.30463409 17.591568 46.353634
-4.826376 19.93388 40.248177
25.984118 12.900284 45.077469
26.150932 21.094776 44.884956
12.703041 18.611019 43.52969
8.3141384 9.2995682 43.859421
19.795742 21.397129 47.958481
27.519171 19.485859 40.299507
3.5473633 23.205563 49.039757
-0.28513336 12.773048 46.334591
21.359301 5.7549686 47.496773
19.702991 3.5910692 50.916348
0.81752491 14.719373 45.525368
19.713083 22.816006 50.366261
23.836727 20.904045 46.942593
22.137774 23.145414 53.578613
0.5441227 25.82235 52.346161
15.15972 16.922382 43.24976
-3.9672203 11.534388 46.015205
20.509647 4.832201 48.926762
31.995512 18.240425 40.449913
8.31322 21.074745 46.195438
12.261868 20.935078 45.289352
30.892094 15.745779 35.157207
14.622383 5.2062259 48.507301
20.964359 19.30727 46.377415
30.81888 14.994551 33.203773
28.902695 15.376301 37.55069
28.845898 5.6103396 36.074074
28.166786 4.6131911 30.022154
24.970629 4.1751838 38.315834
28.909945 5.7690392 38.182007
26.856852 7.9079695 44.198029
29.147053 7.6928377 44.088989
30.032469 7.214962 44.240543
26.466908 18.430971 37.923782
26.603813 17.582073 33.398285
31.851328 17.643278 38.247879
33.582184 -0.9093647 13.810114
31.933569 -0.54007816 13.343626
29.515947 4.2242136 30.215611
31.266436 16.643841 20.662685
34.847527 0.10613537 13.363235
30.64632 19.449684 37.967381
30.028675 15.314311 16.171276
27.450779 18.907093 33.528782
25.08725 5.5641994 39.045845
28.482777 15.337694 39.824612
32.51992 16.577713 44.690601
31.582253 19.3634 41.786541
29.518892 19.799826 37.370533
30.27285 19.879223 39.93734
26.800053 6.7843509 39.79113
27.961866 7.3291054 42.795376
29.90048 5.2529888 32.452518
28.05537 6.2823129 38.67934
24.813547 4.6405945 41.406368
25.221928 3.4002295 40.400696
26.541603 2.1376228 39.257515
30.766245 2.9065466 32.88686
28.515848 0.53057003 16.741089
27.473377 3.7752376 28.79467
28.977789 2.6301837 19.202219
30.14982 16.812263 18.482088
24.455879 2.5694671 49.254742
29.339783 3.2854843 27.455654
30.684031 15.217464 19.911905
29.627457 1.5133991 23.356255
27.695395 1.668046 20.735809
27.756405 1.416276 33.955933
30.475563 1.5364656 18.389282
30.045937 1.8203058 20.89209
28.309177 3.8846059 28.472549
28.84129 3.2359338 25.167646
29.640739 2.9033036 29.232248
32.602615 16.272602 15.029512
27.241451 1.5033607 35.69566
27.589373 1.9310551 50.954075
28.908085 2.6219912 44.496735
27.366503 1.8339739 38.810795
25.874222 2.4448352 31.508448
26.305908 1.6519489 32.528275
28.805904 2.1427698 39.752426
-13.871708 8.4315329 22.899044
-6.0426273 18.314884 12.438782
-11.246939 20.22073 22.993523
-11.793737 11.810287 37.787998
-11.83968 11.970766 40.477463
-11.005262 18.404566 39.232475
-11.311077 18.099985 36.692822
-12.301992 6.534514 46.934399
-13.862469 8.3726645 46.387012
-9.5861073 18.688662 39.177998
-11.403505 10.445381 33.831425
-14.089239 10.600297 46.124252
-11.416582 8.6519918 32.99519
-16.690121 10.247723 31.225609
-13.066025 19.474646 23.964268
-11.445904 17.726116 24.266607
-11.274761 11.686689 37.339981
-16.359715 10.00933 35.772217
-15.525139 9.0480843 37.532326
-10.555752 18.064514 35.471283
-11.417908 6.87291 41.77092
-10.902927 6.3951497 43.943871
-10.678335 18.808512 32.725044
-12.463778 7.6782627 33.08062
-12.501945 19.117405 38.301804
-11.958178 7.0429773 35.645641
-9.5869904 21.366814 34.801926
-11.059828 18.83107 41.027138
-18.71096 15.661057 51.364983
-4.2456827 16.904434 7.5754366
-9.2193832 17.017193 12.23988
-13.467012 21.332241 31.834164
-9.6280022 18.682381 22.05373
-9.3787384 17.617025 18.30368
-12.220301 21.587748 32.580795
-10.056015 17.617466 12.853251
-12.302628 17.803276 24.304512
-16.439386 11.536211 49.481976
-5.4062138 3.1064892 10.032963
-7.4080124 18.006805 14.666578
-15.573725 12.938244 48.525528
-16.813278 10.502495 50.183662
-21.238705 16.07642 55.348866
-20.470177 14.234629 53.978119
-17.360584 17.714062 49.417885
-19.441601 11.248142 54.282448
-18.516581 18.511654 50.448181
-21.057728 13.450734 56.952675
-19.821722 11.297782 56.597282
-22.39706 18.83905 59.93206
-22.644077 16.827728 58.532101
-10.080347 21.938562 35.617409
-10.965227 22.094309 36.221687
-11.305128 22.535789 38.707314
-17.377035 25.053831 54.314087
-4.0508318 20.653545 40.56926
-3.4524632 19.034937 42.884235
-15.640842 25.945747 53.875378
-14.991747 22.611422 47.677868
-20.683609 20.356012 62.19381
-11.188541 23.070915 40.437576
-11.071035 22.891327 43.004879
52.811516 3.3931503 97.113342
53.454697 6.6653609 93.590958
54.131653 6.0838637 94.657646
53.167206 6.6250486 95.514008
52.09137 2.083961 101.07298
51.305832 1.4924316 99.883041
50.34322 2.3607407 99.782547
52.449947 5.0809541 95.988869
54.234371 4.5925684 94.359169
52.749783 6.2225084 95.211914
54.309792 7.3682742 94.298088
52.885181 7.9318504 92.615875
53.374321 4.1823106 95.051208
53.138069 9.0155106 93.249435
54.119328 23.317921 96.042412
50.868313 2.0788717 107.81042
53.608124 22.14115 96.131683
54.572239 22.662291 96.982094
54.432713 24.536598 99.617195
53.421303 1.5515785 109.96742
54.006008 24.826031 97.43277
53.573128 2.3620386 109.91953
53.956982 20.953976 90.032845
55.757008 20.080118 93.041008
56.578842 26.816952 107.31731
53.775078 21.383879 96.019196
55.210224 21.709135 95.799431
55.098404 21.234821 94.596764
58.393547 7.8069677 78.569519
52.650726 11.616256 87.912186
56.097343 7.5141735 84.505493
52.236992 6.2933712 88.876366
68.885223 8.6305466 75.85006
57.338352 12.728838 89.780357
64.770584 11.858414 80.282516
61.921856 8.9867268 83.038094
62.861942 11.35458 81.430916
53.436417 7.5616522 85.878403
60.974812 8.8748312 77.609856
52.794231 14.053513 87.883255
56.128071 7.3999891 87.819313
53.758404 7.3469348 89.74028
56.126102 6.6256838 90.397583
63.720749 9.485239 75.869225
55.611858 6.3767219 92.470657
53.359364 6.9601245 87.441345
63.784382 9.1259556 76.952698
30.008171 9.0720434 66.171158
49.753872 14.330219 83.615372
30.51314 6.5553818 63.8134
33.260307 6.9935112 64.649536
51.801697 7.8916321 80.583817
53.174431 5.3362803 93.165649
31.783802 9.8869486 67.206345
44.694565 9.6713638 66.779831
33.603394 20.478241 62.806816
38.750992 18.625549 64.724579
52.083527 8.7235203 85.823196
55.955845 25.668285 108.19508
53.164894 5.522058 97.078705
50.930553 2.7237315 98.696014
51.187729 1.3067551 100.89642
50.908253 2.4798918 103.50295
54.002777 5.9351048 95.739197
51.529022 2.5228715 106.04861
54.400089 5.9853921 92.253624
55.656197 5.8753815 92.34803
55.836052 25.654232 106.64212
53.190262 25.148941 101.46071
52.862518 3.9861064 92.149071
52.31036 5.8566709 90.696579
52.844299 3.8480196 94.332787
32.408936 18.420116 43.83836
-1.0230055 11.978534 46.96521
28.762859 2.8555317 21.298719
-8.1300793 19.480768 15.610951
17.18734 3.1601715 54.829689
-4.407445 13.120184 46.983887
-18.59889 10.708275 52.683834
19.394592 5.8026032 47.993763
17.954269 6.4297872 47.086411
28.952427 19.928692 41.427631
31.035759 15.009163 13.63775
-12.262087 21.598417 38.377197
55.42651 8.6087608 91.21299
53.362591 9.0863914 91.605904
54.454506 8.7978439 93.157135
54.545021 21.01532 96.37693
51.434971 9.9360542 85.715057
1.5392427 23.791203 49.469875
53.632439 4.6639533 96.933525
32.666389 19.18244 66.864594
21.120752 13.988941 67.541779
21.788853 15.332813 67.635696
33.643829 8.2201567 66.403519
34.460083 7.8694987 66.287979
23.715714 12.232054 67.716309
30.319395 15.008612 68.655396
33.022461 8.9145412 66.873291
30.153572 15.903118 68.530945
26.273823 14.780924 68.383118
33.748741 17.882071 67.937752
31.879511 12.867399 68.640778
31.863279 11.846814 68.281082
25.772137 15.615669 68.238487
27.297035 13.394692 68.429596
26.190924 7.1133585 64.611481
35.015976 7.2600846 65.591324
22.642303 13.327824 67.704391
33.728416 18.331635 67.585602
31.89196 13.754123 68.834335
25.017099 10.398456 67.238258
33.084305 17.360212 68.207695
26.324364 6.2754931 63.881832
24.723705 10.909968 67.440613
34.829426 6.905972 64.871162
35.740906 6.757586 64.875198
29.029804 16.961834 68.19548
25.298006 13.03476 68.070877
23.572405 16.787149 67.762489
25.288067 9.788084 66.898094
34.511066 18.922375 66.901154
29.192402 7.9355168 65.079437
30.162128 10.415798 67.196777
31.241098 20.626778 64.952736
35.375122 10.46693 69.056564
22.942701 15.530009 67.768707
34.276703 19.4492 66.164703
32.560513 10.880852 68.074799
31.241159 20.033819 66.138611
31.582006 20.46166 65.291
26.996614 7.5448399 64.898636
30.280138 7.794241 64.997131
32.912376 9.8193264 67.570175
29.09004 5.9456353 63.31723
31.347969 20.308632 65.691696
31.914768 6.8081303 64.169716
32.043137 6.2323523 63.477768
30.719942 19.281122 66.945541
31.277145 7.3677359 64.716011
30.945211 17.571323 67.991455
29.414696 5.5559812 62.890347
34.724731 11.12084 69.115883
26.704342 18.373138 67.78582
22.239288 7.9037662 65.328842
34.381805 14.503645 69.722305
30.913246 9.4667044 66.667374
28.605618 17.797108 67.869827
32.955276 16.390623 68.674156
27.703709 11.419561 67.752869
33.014816 15.463758 69.00489
26.294975 9.3455811 66.516075
24.776014 15.638814 68.055573
21.854563 11.008638 67.149857
25.936399 5.6041832 63.262131
35.815208 10.922528 69.525017
29.336201 14.507986 68.612503
31.051714 10.913797 67.63858
29.439316 13.247033 68.406433
28.361746 13.786452 68.51091
25.73196 18.390928 67.771843
34.23843 13.235831 69.554581
21.738914 8.7164946 66.024551
34.245178 12.304201 69.342285
28.969826 9.063755 66.104111
31.873789 5.8408785 62.925785
28.056641 7.8473005 65.068604
30.944105 8.5886936 65.916077
27.232164 19.203831 67.421188
29.760983 11.201175 67.601669
27.454287 12.148571 68.061371
33.671967 14.94661 69.339806
29.398497 6.7335701 63.998707
24.806087 18.746132 67.593391
24.674503 8.6107788 66.049988
28.755192 11.424767 67.694626
31.162918 14.348604 68.747452
28.071335 10.470607 67.201828
23.050119 17.473806 67.61779
28.139589 20.822355 65.263344
22.409145 9.3148527 66.554504
28.485594 9.6826878 66.627731
27.173986 19.910851 66.972946
26.760443 8.6347275 65.891121
31.845039 8.9574623 66.498993
26.286901 16.977352 68.099564
33.662361 10.850311 68.547691
29.512178 12.230455 68.059929
23.874788 8.1812382 65.722687
30.864998 18.478935 67.508133
31.841389 17.43272 68.100662
20.624193 11.165762 67.003296
27.7328 16.093758 68.403748
35.517036 14.246399 70.226265
27.365154 9.63344 66.663834
32.692574 14.233816 69.085571
36.444687 10.297861 69.536743
27.807407 17.876333 67.860001
32.629532 7.5459833 65.224731
34.813839 15.807639 69.534988
27.870434 6.027359 63.483711
26.036785 20.479359 66.376678
35.561649 16.590122 69.295242
19.464285 10.379034 66.522575
26.667608 20.220806 66.709534
24.596241 17.546783 67.81134
28.882256 19.442543 66.850037
30.339018 12.838939 68.357666
29.724825 19.325571 66.915833
19.954172 12.911582 67.257019
35.968254 13.850884 70.486504
22.061794 9.8928537 66.813278
28.909199 20.564997 65.648712
29.56213 9.708602 66.657478
29.094198 18.626829 67.424034
24.918415 7.7326841 65.265442
34.746449 16.849026 68.876434
26.633755 11.126667 67.635483
31.999369 15.646011 68.760963
29.033514 20.327194 65.97258
19.87294 11.919876 67.098526
33.499565 6.5195775 63.95499
21.140224 16.429504 67.460571
35.79039 8.2412643 67.394669
34.809597 9.2352057 67.963181
36.119839 13.100131 70.483475
28.285519 19.530283 66.932121
27.637638 20.414349 66.135269
33.322083 12.732821 69.111038
24.165607 6.676949 64.332932
23.296486 9.6364002 66.811409
30.800997 6.1243382 63.38163
28.918867 20.076643 66.295731
35.957382 12.370542 70.185936
36.89658 12.75641 70.940239
25.47821 19.939552 67.145142
35.800232 9.1732998 68.352539
36.139133 15.126332 70.422501
20.123356 9.115612 65.96463
29.569649 20.389629 65.808678
35.725922 18.405937 67.488739
32.974869 20.093872 65.41478
36.794899 14.261725 71.045082
35.481018 17.71822 68.297348
36.876202 7.1504974 66.202637
34.216328 8.6710796 67.169983
33.87318 8.9102192 67.261459
24.999557 11.981462 67.808441
33.891472 7.497046 65.528381
24.026684 13.277477 67.898552
33.405479 7.5870562 65.497429
34.594727 8.4571314 67.094673
32.789577 8.1928635 66.035141
34.992111 8.2736578 67.051689
23.381041 11.223357 67.428268
31.235388 14.895213 68.755959
31.035414 15.765442 68.618179
29.289204 15.142533 68.609879
22.156084 12.245987 67.509888
32.863121 18.17672 67.694656
22.815384 14.443213 67.777039
32.464733 8.5242844 66.279182
33.593826 9.3072929 67.477234
33.121582 7.8736286 65.77372
34.039299 7.199935 65.127594
23.466545 13.822662 67.836479
25.269785 14.551013 68.182632
31.129463 15.361036 68.697021
30.922106 16.14184 68.522179
29.168755 15.561071 68.560226
26.780293 15.857229 68.362366
26.288954 13.201155 68.274338
29.968973 17.220331 68.11998
27.237043 14.966551 68.520859
27.24501 6.9835796 64.384895
35.40554 7.6461601 66.399628
22.875992 11.693906 67.500664
31.122986 13.332054 68.597992
31.17301 12.312038 68.295929
32.583603 12.377186 68.716499
31.130482 12.853959 68.470474
31.112841 11.822035 68.091934
32.600552 11.859818 68.536781
31.807205 10.846521 67.795776
35.136078 7.9440136 66.694794
32.856392 18.468014 67.486626
32.579773 13.240057 68.94558
31.669123 19.281311 66.908997
26.604147 16.297165 68.263062
25.043251 14.978793 68.13382
25.77626 13.872727 68.265114
27.008488 15.413921 68.453705
27.757734 14.287007 68.560699
34.095783 6.781641 64.479752
34.599491 17.603477 68.273376
26.822653 12.552351 68.18457
25.637102 11.047662 67.563705
25.103079 7.2350221 64.812851
27.304886 6.588212 64.058228
23.881269 15.532917 67.901794
35.724297 7.399229 66.158134
25.232128 6.4751406 64.160759
25.959797 10.418401 67.276688
31.086357 13.826838 68.687805
33.932163 17.041313 68.535004
32.591202 13.682804 69.02282
32.581779 12.802452 68.843628
24.016891 10.290345 67.152664
25.245373 6.8733749 64.496887
22.119007 14.221941 67.69593
32.543449 17.906919 67.861328
25.512278 11.386244 67.679428
24.511211 12.628904 67.890396
34.598877 17.882378 68.046036
24.385801 16.797728 67.874031
31.999796 19.639431 66.517502
24.343079 9.7175694 66.875336
34.092293 6.9676318 64.787956
33.563278 16.764645 68.61393
24.180994 10.003502 67.023087
23.855686 10.578552 67.258133
33.565048 19.420357 66.425842
23.643984 14.931178 67.875214
28.612949 16.069643 68.444275
29.454615 17.771149 67.876755
34.214066 17.400497 68.35408
25.809309 10.736011 67.437134
30.480556 16.704727 68.323349
25.810406 12.372462 68.00676
26.163015 10.108834 67.093178
24.79981 13.69853 68.057907
24.196308 11.597614 67.620201
26.76631 14.063401 68.45813
24.129055 16.157776 67.904701
25.490921 8.9818668 66.284302
28.169931 16.946701 68.193802
24.486973 9.4046803 66.680511
26.957249 5.8381777 63.418446
29.632391 8.5180349 65.626518
34.468491 18.323673 67.618523
28.504631 8.4625416 65.590942
34.466839 18.058372 67.872787
35.327141 11.600111 69.559441
30.354485 20.778528 64.867096
28.735039 7.345346 64.564346
32.407219 9.3723936 67.034637
25.375008 6.1241055 63.812809
29.857941 7.2625189 64.457886
21.836664 12.904366 67.55883
29.906639 6.0268669 63.344784
29.702866 6.3274088 63.631741
30.245577 11.164598 67.635193
34.735428 10.126652 68.595329
35.403347 9.5248241 68.451538
31.001362 10.147829 67.172638
30.051319 9.7141352 66.702019
30.55057 20.608988 65.294937
32.459923 16.920422 68.377602
33.523598 19.110678 66.832733
30.358627 19.97406 66.297195
22.898243 8.4003344 65.893692
33.338085 10.299902 68.083389
32.935051 11.321337 68.44783
32.188808 10.351712 67.643478
31.444391 11.372803 67.960381
27.394154 8.2278748 65.471237
30.398495 20.215561 66.004997
30.140476 8.4331341 65.602585
31.922609 7.4444885 64.929436
31.111809 7.9582305 65.326263
31.322594 6.4062576 63.673344
32.690861 6.6532164 64.074036
26.346216 7.8715763 65.259575
23.179169 12.767626 67.722893
30.409821 20.433439 65.680542
27.63496 7.2026205 64.527794
29.296658 7.3408713 64.536293
33.125546 10.815718 68.282654
32.354599 9.7864637 67.330917
32.436279 8.9389858 66.670761
27.154743 6.1969604 63.724762
33.526257 9.7952347 67.828873
31.23917 6.6921654 63.973328
30.403978 7.1729698 64.395859
32.564056 6.9181604 64.407646
33.009171 6.2393308 63.504463
32.041855 19.966059 66.075623
33.995941 11.54096 68.991501
32.037735 20.143261 65.791183
30.098114 5.7761736 63.068516
32.207882 20.246155 65.491814
27.017515 17.685265 67.964493
35.564034 19.417854 65.495567
25.987259 17.656929 67.940056
34.447441 10.395546 68.647224
31.287344 18.887371 67.233841
33.807102 14.031223 69.489792
30.620483 8.1805258 65.445992
31.605247 7.7410479 65.204575
27.90803 12.945457 68.327332
27.502048 18.560574 67.637817
32.800575 6.4178638 63.759682
31.418045 17.019485 68.263229
25.577559 7.4442787 64.958557
30.899061 6.9569178 64.221786
32.245193 7.1669645 64.661354
34.273903 15.446157 69.449097
30.428528 18.061375 67.746475
30.089962 19.689342 66.597649
29.547977 16.39175 68.38829
30.235704 5.5365248 62.745583
28.619553 5.4378514 62.869888
34.307056 20.21343 63.375149
34.886158 13.692699 69.883347
34.872982 18.562134 67.360291
28.274872 5.6951771 63.14415
33.198669 18.765896 67.217407
35.01593 11.910415 69.531853
25.533962 16.31646 68.118591
22.796492 8.8696766 66.300995
26.410969 19.034197 67.617065
35.071121 9.8284264 68.533775
34.953789 14.954379 69.895233
27.962534 17.396997 68.038666
31.31176 9.7244511 66.954666
31.400948 8.7700014 66.204185
30.477032 9.2641201 66.41301
29.244091 18.163427 67.687172
30.629993 10.649692 67.407913
28.385639 16.494156 68.33432
32.517857 15.567781 68.866531
32.396336 16.437117 68.575455
32.487789 17.414253 68.137604
25.96475 7.6395197 65.100189
33.533981 16.31216 68.833527
22.526768 10.602702 67.139999
32.868004 5.981101 63.103355
31.43355 5.9749188 63.178719
32.504257 15.101583 68.958466
33.177177 14.586958 69.212997
32.477352 16.002348 68.734161
27.07634 11.511231 67.801689
27.334543 10.905599 67.506973
28.160526 11.961761 67.968643
22.489513 16.050667 67.689529
21.97913 13.607708 67.647415
28.430315 10.920277 67.443588
22.771107 16.667671 67.670456
26.596722 9.8870296 66.912491
27.023205 9.1300335 66.286575
33.563484 15.846753 69.038528
28.659636 6.3820958 63.727345
35.589878 11.83626 69.776886
25.932894 8.8261786 66.120811
26.056463 16.30068 68.197289
26.505247 17.668129 67.966858
25.014511 16.295296 68.035736
24.543142 14.997112 68.034981
31.392056 17.993053 67.783768
24.981152 9.1951466 66.492317
25.493097 17.639874 67.901413
35.667835 9.6704302 68.677063
35.926052 9.7314463 68.848969
30.757833 14.652403 68.702835
33.795704 12.530122 69.232399
36.170048 9.9888201 69.169632
28.791948 14.82075 68.602158
29.856571 14.163336 68.602951
33.792717 13.417602 69.423584
31.464979 6.208189 63.454037
24.077047 17.150139 67.791183
28.921371 13.509829 68.454041
30.717083 11.402908 67.825607
31.453857 10.456228 67.474991
32.179523 11.302396 68.141815
33.860039 12.069416 69.120918
23.716438 17.442228 67.709167
33.775326 12.96516 69.3367
29.653162 10.407717 67.147781
29.900864 13.55432 68.512589
30.547926 9.9501123 66.94783
29.917927 12.562326 68.217094
28.444181 13.134615 68.368965
28.989973 12.901187 68.295059
34.211975 10.96836 68.842865
28.2857 14.459001 68.581146
28.857838 14.176695 68.572456
27.369761 12.74511 68.268906
29.396626 13.852764 68.541443
25.187426 17.936909 67.819313
21.118214 13.112353 67.478821
34.885033 13.061363 69.786659
24.763004 18.189278 67.729523
34.958153 14.335109 69.945877
27.26339 18.130314 67.819046
27.747129 18.983952 67.409042
25.825592 18.945606 67.632431
27.938795 8.3667107 65.545212
34.850185 12.50123 69.637321
29.070843 8.5199175 65.619293
29.498569 9.0812674 66.129555
23.351044 7.9835286 65.536774
28.421406 9.0183468 66.084587
29.033648 9.6937304 66.630066
23.253368 15.990008 67.785507
28.620087 7.9403095 65.109558
26.870462 8.055438 65.370331
28.166935 7.3262339 64.58934
21.556114 11.713307 67.315094
31.373989 9.2185192 66.581909
30.476103 8.8316336 66.03656
31.42371 8.3486042 65.807816
31.346821 5.7214155 62.839935
29.457386 10.804858 67.372803
30.804893 7.588871 64.870934
30.015076 11.556715 67.797501
29.155281 11.836514 67.881241
29.848913 10.05687 66.930664
29.740196 7.89891 65.045906
27.737862 19.733309 66.981812
25.800478 9.5519686 66.706299
32.868011 14.872059 69.081711
26.737352 19.403397 67.425919
33.469883 14.282276 69.34549
26.934418 11.892591 67.952545
27.143579 11.20733 67.667946
21.939301 16.020172 67.617744
25.236855 19.12051 67.523468
33.892452 15.587754 69.240868
28.837416 6.7955155 64.075554
27.971287 12.297756 68.110168
27.824371 13.595171 68.479782
25.189293 8.3882618 65.81778
29.94256 6.6722593 63.928543
23.059761 9.2286682 66.554214
30.301592 18.913536 67.228699
34.600544 15.180791 69.686539
28.656807 11.992945 67.960205
28.961506 10.879224 67.40448
21.926521 10.478899 67.015434
24.154911 8.8446455 66.273056
29.613716 11.700834 67.832779
27.889347 10.930243 67.481934
24.380083 18.434153 67.618958
28.736546 20.84866 65.099037
30.744007 14.150378 68.679047
32.278305 13.977033 68.958595
22.496824 15.268452 67.731339
27.753304 19.372025 67.198524
31.602982 14.545553 68.825684
27.504284 10.469101 67.244232
30.308571 14.433023 68.64994
32.277626 18.828205 67.220703
24.404354 7.9599113 65.507431
29.802383 14.77002 68.641777
28.615952 10.454929 67.162018
27.927866 9.66366 66.642593
28.449501 6.0255461 63.433617
28.23667 11.374395 67.699112
32.760956 19.545198 66.433731
27.676287 20.070024 66.667603
24.797796 8.1749592 65.668968
26.77952 9.5345001 66.630463
27.292233 8.791666 65.975983
28.153563 9.3126879 66.348061
28.814724 10.045456 66.887283
31.032154 19.664631 66.581482
21.475735 14.749859 67.604874
29.263241 9.3828039 66.381645
27.70739 10.054619 66.947014
34.320274 13.843653 69.671844
31.818169 9.406476 66.86496
30.932451 9.0235062 66.305618
27.516911 7.7139254 64.996147
26.153765 8.4810925 65.811447
31.868935 8.5389042 66.116379
27.117447 20.371376 66.36248
32.991112 9.3578529 67.253372
32.776779 10.249283 67.802338
25.276091 15.634247 68.148193
33.441929 11.411596 68.707504
25.788612 16.96941 68.050072
26.80946 16.985239 68.133629
33.954803 10.281564 68.366188
26.640114 19.831806 67.173683
29.911703 13.035039 68.379059
29.955406 12.066763 68.019852
26.21571 18.346733 67.803574
29.058655 12.371665 68.105247
29.296404 11.301181 67.628189
23.77346 8.6066437 66.096733
34.511124 11.722939 69.263626
28.438934 18.279678 67.64415
34.081997 18.672817 67.252151
35.314274 13.450974 70.060051
28.185253 20.516743 65.848305
31.429768 17.531538 68.030968
31.320395 18.421021 67.531921
30.397387 18.517687 67.489746
30.201937 19.313068 66.934143
35.965466 11.702532 69.956238
34.019825 14.727586 69.5289
22.697506 9.7579126 66.827354
23.991581 7.78157 65.356598
31.835531 17.912893 67.84343
31.840662 16.920235 68.330795
33.109161 16.857765 68.483673
30.928848 18.044397 67.752441
26.016933 15.189617 68.315643
34.793396 16.350895 69.224991
27.954611 15.637738 68.501778
27.552629 16.543228 68.2901
27.590424 9.2478971 66.336365
34.463017 16.023483 69.27877
27.419567 20.218613 66.540024
26.452389 8.9729061 66.203751
27.100904 10.045782 66.989746
28.066309 6.4245148 63.80761
28.799532 17.34296 68.060852
28.269543 10.050391 66.911316
33.33847 8.5561924 66.651871
32.297195 7.8356724 65.483398
29.200502 6.3611574 63.682884
31.954226 14.261596 68.891998
33.380642 15.241756 69.169563
27.570095 17.441471 68.021545
31.536816 14.044778 68.789871
32.382019 14.525543 68.993248
31.599583 7.0784216 64.439575
33.002728 13.949163 69.17852
35.413567 14.882339 70.09581
35.695213 13.26965 70.23246
35.165268 16.678314 69.128738
28.044388 18.295891 67.667831
28.839478 18.220058 67.660622
32.983593 7.2782331 64.971573
24.948757 17.270023 67.893066
26.778999 20.518841 66.173111
26.970848 18.791565 67.631264
35.217361 15.589005 69.79184
22.561462 10.1128 66.973099
28.591297 19.114594 67.135773
25.265091 18.559025 67.693405
29.394522 18.981585 67.181808
31.859798 12.392891 68.48642
30.337816 12.362381 68.185097
30.338562 13.315174 68.489502
29.809921 18.927731 67.226273
29.218834 19.753719 66.545715
29.471647 12.721781 68.247833
30.777538 18.888163 67.249176
22.849319 9.4722214 66.693741
35.703037 16.218403 69.599632
29.621952 19.696457 66.597145
28.995712 19.047787 67.141663
35.621861 16.957882 69.019943
28.599878 20.317171 66.070236
22.035881 8.321209 65.736031
28.604454 19.824593 66.607498
26.616432 7.3213682 64.749176
26.38546 19.995314 67.071487
33.390591 17.628838 68.076538
24.257185 17.815304 67.730461
29.934521 10.785631 67.395264
29.780653 9.3848867 66.417953
29.344736 10.044737 66.890945
26.261444 6.7095671 64.274002
28.717186 9.3555326 66.359116
34.636776 7.5593014 65.912666
27.703382 5.7105126 63.212128
25.306 7.9537673 65.430527
29.496681 18.568258 67.460281
24.27742 8.3977356 65.899811
34.391911 16.553885 68.95668
29.230984 20.694826 65.335709
28.687439 18.702404 67.395874
28.200577 17.843388 67.857872
32.009098 6.5345068 63.847649
29.3057 19.375116 66.875908
24.506054 7.5350332 65.111343
35.188454 16.170389 69.483826
27.904367 20.671551 65.642982
25.003078 19.380936 67.419022
26.486099 11.457303 67.771576
35.749561 12.798562 70.169403
27.602612 11.812601 67.928429
26.785078 10.823614 67.482246
31.937782 16.064785 68.644409
34.01598 8.0204458 66.305786
33.030575 15.930904 68.866898
33.377163 6.7456889 64.306183
32.04837 15.229147 68.847504
30.178928 15.491581 68.603348
28.230581 19.156565 67.196121
24.800995 19.129581 67.470383
21.877636 22.361748 61.449909
34.103241 9.1855078 67.606865
34.985123 8.6348467 67.456177
34.005791 8.3473377 66.712204
33.643856 7.844419 65.923126
34.335358 8.2232265 66.70134
34.555756 8.9283371 67.56308
33.783073 8.5655479 66.864464
27.67906 12.530109 68.19928
34.101349 7.7022696 65.904251
24.658489 13.156717 67.985901
25.151306 12.502638 67.949928
24.357241 12.11251 67.767487
33.473866 7.2334204 65.032578
24.846758 11.459182 67.642624
25.656282 11.852831 67.842445
24.172787 13.818062 67.952057
23.871992 12.746627 67.818726
19.039915 9.8561535 66.157959
22.756767 22.202625 61.964767
23.014545 12.23567 67.628082
24.033321 11.082846 67.443916
18.072231 17.921631 66.719566
23.330879 13.29439 67.790939
18.076176 17.49934 66.880951
32.355568 8.1709948 65.875916
32.904114 8.547308 66.459213
34.901337 7.0945058 65.243027
32.695339 7.8574109 65.620705
23.540462 11.739533 67.58709
25.57412 21.559807 63.525665
33.45908 8.9233789 67.078804
33.224735 8.2083435 66.215767
33.028412 7.5651155 65.358444
34.692848 8.0878601 66.683746
34.376404 7.3696175 65.510788
23.564098 14.362207 67.863007
22.462078 12.816555 67.635391
30.808792 15.066008 68.696465
31.58091 15.309605 68.763794
31.668468 14.960354 68.825333
31.507637 15.723907 68.677109
31.42856 16.18947 68.548843
30.664349 15.409555 68.646927
30.572752 15.793299 68.577591
29.760704 15.222823 68.625259
29.645218 15.626087 68.566399
23.209793 10.708876 67.252975
28.776154 15.33448 68.572136
35.374825 8.4179811 67.395401
22.73481 13.880758 67.751541
22.66703 11.16827 67.336472
32.401184 18.395548 67.551178
35.206467 7.4618454 66.015198
33.293186 18.049927 67.78981
23.891468 14.087002 67.908112
32.156673 8.3690739 66.03009
32.527367 8.0101032 65.748932
32.727772 8.7511444 66.59745
33.063377 8.3742952 66.339378
33.284431 9.1512194 67.207588
33.709114 7.0487027 64.823196
23.605999 13.025148 67.810287
34.903984 7.7490892 66.314888
33.617714 8.7345505 66.967667
32.857964 7.7069926 65.488792
34.229355 7.5211926 65.69014
23.291517 11.981308 67.617828
33.925018 9.5340405 67.820457
22.140388 11.675078 67.389198
33.403183 8.0385981 66.083794
34.522381 7.2060595 65.291794
22.906343 14.961975 67.783127
35.733482 7.8604155 66.860855
33.255913 7.4142141 65.225845
27.755447 6.9193497 64.270187
25.526386 15.082282 68.226952
25.284828 13.782766 68.159637
24.787403 14.455374 68.080948
25.759613 14.648377 68.284233
18.170208 16.2939 67.118073
34.290771 14.96118 69.604256
19.78558 19.426958 66.325531
33.603851 6.3344035 63.624977
22.568565 11.961058 67.517227
34.565441 13.420574 69.711136
22.822968 22.513487 60.676884
30.524696 16.107693 68.504471
16.381144 19.484838 65.536179
30.937098 16.842974 68.300003
26.790428 13.288465 68.362778
26.4935 15.254476 68.394775
27.274796 15.978167 68.396751
26.240868 15.701344 68.308487
27.052233 16.42536 68.280693
26.270123 13.966885 68.369568
35.024765 10.816811 69.09182
30.017035 16.556105 68.357323
30.446653 17.373024 68.07341
26.309971 12.456168 68.099434
29.078171 16.221638 68.419205
25.790089 13.11674 68.172516
26.738352 14.811949 68.461266
29.492189 17.072136 68.16507
29.923397 17.880825 67.829346
27.502686 15.526001 68.490509
27.262505 14.16106 68.529602
27.720264 15.019821 68.556404
34.780125 7.900629 66.468994
34.207054 17.805832 68.052368
26.74605 6.9434195 64.410385
22.941965 10.935905 67.299744
23.044891 13.572998 67.770172
22.746435 12.508462 67.634399
23.229382 14.647779 67.82135
22.311264 14.801843 67.724342
31.546467 16.62118 68.425247
30.737123 13.075499 68.473923
31.51416 13.113258 68.620399
30.740274 13.53368 68.58783
30.741879 12.587742 68.320694
31.554474 12.240812 68.354027
30.748661 12.085389 68.136185
31.510004 12.66008 68.48819
25.655989 7.1407161 64.687653
32.235733 13.534254 68.89109
32.922226 12.9452 69.007767
32.225994 12.549614 68.647194
32.215034 12.072924 68.478851
35.02652 7.6040735 66.147835
25.719042 6.8714437 64.46122
32.919815 12.070184 68.745636
31.190008 19.294109 66.928741
26.779978 6.6463966 64.168648
31.097168 17.217827 68.160759
24.509228 10.355406 67.193901
20.097921 20.250961 65.78299
26.17012 22.136749 61.353741
30.612896 17.740913 67.914474
30.229168 16.967375 68.225967
22.435465 18.35741 67.281105
30.722237 16.440834 68.422554
31.457714 11.882391 68.189392
26.230173 22.377718 60.281723
24.536266 7.1739841 64.782112
32.549652 11.345066 68.29834
31.05121 11.367906 67.872375
29.817101 16.13175 68.467606
31.817863 11.353859 68.050644
32.195339 10.829815 67.911667
31.415239 10.845219 67.686295
31.79229 10.335315 67.501419
31.512772 13.57161 68.721115
32.234024 12.993896 68.775772
32.934776 12.549147 68.907852
24.741299 6.9337478 64.566345
32.924858 13.49131 69.112045
26.942608 16.646544 68.219643
26.218023 15.979935 68.26796
27.16313 16.202274 68.341354
25.409191 15.300165 68.194214
25.640749 14.865558 68.256058
25.034584 14.118479 68.127029
26.528929 13.62694 68.379608
24.677021 14.669216 68.061226
26.013275 14.308132 68.334732
32.141556 19.211687 66.898804
25.537979 13.449017 68.175247
27.389902 15.751823 68.446251
26.443811 15.508896 68.362534
26.67564 15.069017 68.437988
27.000647 14.508464 68.503731
27.934807 14.711119 68.578667
27.528931 13.842706 68.508377
27.613724 15.296224 68.522911
27.066341 12.983715 68.317886
26.583317 12.151715 68.033356
26.04847 12.785597 68.147034
35.416855 8.1216784 67.054459
31.483112 19.686323 66.538483
33.259483 18.385555 67.5383
27.782694 6.7134867 64.10054
33.843822 6.6388154 64.193115
25.136225 11.089552 67.544617
26.116102 11.105354 67.612518
34.501102 6.8121119 64.610657
25.850903 21.815573 62.733452
25.956543 11.48266 67.748871
24.09403 14.949101 67.95134
24.325859 15.581501 67.977165
22.414705 11.460082 67.379654
19.158585 6.1079874 62.938602
19.704924 7.4440131 64.399597
22.377972 13.676358 67.702812
23.814947 9.7232389 66.873642
33.138802 13.228485 69.149078
25.700981 10.014316 67.037689
25.770493 6.5079041 64.149445
35.01442 17.456081 68.472214
24.276718 10.73147 67.338722
23.498898 10.331699 67.143005
33.01815 17.82618 67.926071
24.750225 10.013858 67.032776
24.568577 16.222975 67.970535
33.462864 17.173828 68.36657
41.52298 16.809628 70.716995
33.740311 6.8333778 64.505333
24.813364 16.873411 67.927902
22.614185 14.812527 67.756287
31.347034 19.495346 66.749481
27.996834 14.013591 68.543579
33.958565 16.609451 68.794739
26.82408 6.4260793 63.976604
25.474365 10.449459 67.283066
26.411215 10.488498 67.315872
26.271156 10.791585 67.473419
30.743504 13.831061 68.64489
36.262383 7.2483292 66.129654
27.599255 13.165236 68.389725
36.094406 9.3485756 68.637268
25.29821 10.165057 67.128288
36.303261 14.315318 70.706711
33.771748 17.455452 68.23983
23.679018 16.089596 67.839081
24.854313 9.6242046 66.808456
33.151546 19.33551 66.624626
24.597935 11.788284 67.714096
32.392838 19.44191 66.641266
24.903494 12.828342 67.977516
32.186005 18.152184 67.713867
24.415665 13.487863 67.977219
32.795551 17.593628 68.055283
30.091209 18.236145 67.652809
23.434307 15.489076 67.833069
25.401138 12.178015 67.905251
35.469116 7.1698132 65.632683
21.732197 22.074116 62.506557
24.117155 12.434573 67.803673
21.998896 14.74543 67.683838
30.198441 6.2873611 63.570313
21.627943 20.763988 65.416595
25.318825 10.716421 67.404373
33.983284 19.253908 66.562164
31.658188 19.891878 66.269478
21.019911 21.833344 63.227718
34.361244 16.999126 68.66552
21.036751 5.6515541 62.743076
23.67667 9.968708 66.994652
33.766266 5.7148094 60.757046
24.058123 9.3170557 66.628891
35.134617 19.998188 63.01939
23.956575 16.693489 67.824249
28.88933 15.78739 68.510284
34.441956 9.327714 67.882721
32.431038 19.805901 66.202011
24.209948 15.263214 67.968964
23.965969 14.622457 67.927307
23.794464 11.411087 67.525436
27.593037 6.3102946 63.769703
34.11013 18.096539 67.804718
31.804237 18.886913 67.199646
33.224831 19.564114 66.299126
34.170815 16.811558 68.736267
33.974113 17.64118 68.142654
33.736588 5.7645941 61.79216
24.450405 15.896769 67.980247
32.507935 6.1162434 63.332062
28.422773 15.63699 68.519913
28.820566 16.527256 68.32888
29.239269 17.371799 68.048141
29.680204 18.170528 67.681282
29.350622 15.961674 68.490036
30.184965 17.624371 67.955322
24.689857 16.551598 67.950882
23.144508 14.111528 67.804886
29.706995 17.481134 68.006531
30.28075 16.304955 68.438499
19.888693 19.891228 66.037132
29.755018 16.809793 68.265335
31.170198 16.546394 68.42086
35.325344 6.9832191 65.20118
30.692329 17.113081 68.182274
32.754433 18.799421 67.222443
31.917171 13.292071 68.756104
34.967987 17.821911 68.137878
26.5516 12.867593 68.240738
25.552195 12.703846 68.048904
26.076128 12.038738 67.944061
26.54039 10.243659 67.168961
25.251434 11.656894 67.742737
35.759525 14.698511 70.311798
24.270243 12.955546 67.9039
24.753998 12.30452 67.85804
25.047377 13.365965 68.072952
25.520832 14.210362 68.231705
34.613087 14.067005 69.799187
24.437748 11.270004 67.544418
26.220055 9.7172937 66.807045
24.555195 14.032581 68.026932
29.281837 16.651787 68.302811
34.657688 10.673664 68.878494
23.958057 11.921317 67.678619
27.027281 13.719324 68.458313
26.507708 14.408529 68.429977
26.03126 13.536409 68.280975
25.903057 9.1627693 66.397827
27.495317 14.612929 68.561493
25.39077 9.3767776 66.598854
34.465519 7.0355749 64.997047
27.425837 5.9317904 63.452332
26.13011 18.679153 67.728355
24.701569 6.6496668 64.329788
34.235344 20.147459 63.917358
23.263382 15.126568 67.819641
25.59668 8.5980225 65.959297
22.263985 13.211134 67.651031
35.447372 7.3045001 65.864777
29.960625 20.084654 66.188965
34.65638 17.242609 68.56707
25.084211 8.7985535 66.170731
23.623873 10.899122 67.350037
28.58849 16.921408 68.208755
27.750893 16.971907 68.177597
27.968651 16.519756 68.312508
28.187714 16.063835 68.433609
34.44223 18.6357 67.287102
28.381926 17.370789 68.046829
34.123093 18.36779 67.566269
35.182617 13.92415 70.044525
24.568302 9.0237141 66.390228
29.018438 17.759531 67.886749
29.624413 5.7931695 63.128544
23.5604 15.792459 67.839386
29.89497 20.83807 64.808479
23.303745 8.7278042 66.199188
34.717159 9.6507206 68.261841
23.791592 16.420738 67.828514
35.35463 11.03635 69.339401
35.802422 8.7995834 68.0065
29.799007 8.8098488 65.909912
29.386576 8.258503 65.375107
29.28743 8.8038568 65.874084
28.93148 7.683403 64.856094
29.942028 8.1580486 65.309692
30.494423 5.7623863 63.020004
28.732874 8.7640982 65.848022
28.278717 8.1620579 65.334793
28.390728 7.6271496 64.84301
28.160782 8.6919098 65.815033
28.846394 8.2260914 65.360153
33.082947 19.080282 66.928558
30.081007 7.5238457 64.710152
29.526114 7.6269178 64.787857
34.401482 10.000742 68.385277
35.301712 12.156076 69.730301
31.050873 20.52564 65.345566
30.819702 20.330473 65.757179
31.664997 20.11216 65.957367
36.010365 14.506491 70.490509
33.218643 6.3897257 63.730145
29.070683 7.0655665 64.29776
28.472332 7.1051445 64.365723
33.50248 13.167016 69.274933
32.714886 9.1444817 66.958252
32.130386 9.1575127 66.765694
32.106079 9.6105423 67.117828
32.677612 9.5931997 67.311523
33.267426 9.5700607 67.54184
33.628166 18.724691 67.221474
30.534756 19.690281 66.589104
33.55806 12.230358 69.05677
32.156185 8.73312 66.389328
29.63047 6.9960852 64.221497
30.29501 6.0148587 63.309864
34.054165 12.858254 69.408936
30.193317 6.9035654 64.133636
29.498203 6.067977 63.40852
33.989441 18.980541 66.909454
23.446188 8.373476 65.895088
35.355667 9.9902 68.758194
27.684847 6.5132885 63.938171
30.322588 11.531549 67.820358
30.255775 10.785124 67.429955
30.66633 11.018775 67.620255
35.423481 9.1079216 68.12001
34.825195 18.144318 67.820107
23.754114 13.551348 67.869865
31.060614 10.496519 67.402786
30.604563 10.270668 67.171417
30.252388 10.015013 66.944221
31.381546 10.148729 67.264267
30.882687 9.8620338 66.953926
33.077667 5.8106499 62.469444
30.105396 9.4105473 66.470093
30.196903 20.624069 65.319839
32.32798 6.6632566 64.042313
30.465803 9.6617241 66.724113
30.945435 6.4740772 63.737846
27.650352 4.4429245 61.404575
31.627258 6.608974 63.908981
32.168026 17.1908 68.231155
32.746368 16.687866 68.516365
32.183205 17.687405 67.976212
32.15416 16.767031 68.41806
32.774704 17.131172 68.303215
23.451195 12.502701 67.725815
32.970375 6.8250823 64.357727
30.745144 20.030346 66.202805
28.814184 5.6488733 63.066685
33.303589 16.575722 68.657349
32.906864 10.55774 68.04348
33.143684 10.049472 67.831711
32.316418 11.66482 68.351593
35.838272 7.2111568 65.875931
32.783455 11.03484 68.246437
33.533772 10.562085 68.334541
33.29966 11.098917 68.505859
32.496204 10.529003 67.85894
32.048141 10.056562 67.410309
32.512417 10.068272 67.583519
33.074001 11.666924 68.656281
33.759171 10.031653 68.111305
31.923798 7.7707338 65.313782
31.625761 10.603921 67.611694
31.640499 11.624619 68.125092
31.995373 11.086222 67.976669
31.258265 11.126887 67.798325
31.618246 7.3981867 64.813362
30.872253 11.685728 67.989151
30.093451 8.7405882 65.883774
27.072472 8.4123363 65.666672
27.721054 8.0476837 65.278076
30.546879 8.5017014 65.745392
30.226252 8.0883188 65.280403
26.541067 8.2325716 65.56044
27.597301 8.5715466 65.755363
29.680096 8.2237329 65.349854
32.252796 7.4895105 65.058029
27.194572 7.8887348 65.186172
30.063282 20.319279 65.882423
32.534775 6.2658272 63.538757
30.060804 20.478333 65.628868
27.838734 7.533999 64.803482
34.501907 12.762904 69.560028
31.027906 8.2670927 65.626793
35.038166 10.305873 68.823082
30.698668 7.8703165 65.146683
31.517485 8.0396709 65.514114
31.255074 7.0226898 64.328629
31.200399 7.6587973 65.025284
35.002708 11.36227 69.326851
32.583511 7.2262135 64.808006
29.243355 7.6652422 64.827209
29.801292 7.5792847 64.74585
31.924795 7.1239605 64.547028
26.673019 7.7100792 65.08139
32.387451 19.625698 66.460159
26.035492 8.0325527 65.432388
27.316742 7.3753223 64.713287
31.75312 20.284721 65.627838
32.406456 6.4610105 63.786594
30.45096 7.4619694 64.686447
34.013016 19.981028 64.946953
30.854206 7.2639971 64.536362
31.689457 6.4093027 63.686073
28.784817 7.0985632 64.338684
29.353924 7.0332236 64.258339
27.952475 7.0303111 64.343597
32.229179 6.8922968 64.319595
32.839375 10.814199 68.1576
27.505037 6.1143956 63.606003
33.195332 11.370544 68.586838
33.043266 10.298037 67.949059
33.406235 10.829325 68.421738
32.469933 10.30957 67.721458
32.092209 9.8410587 67.280891
32.641178 9.8253298 67.468803
32.699944 9.3660583 67.14135
33.233421 9.8080149 67.707222
33.294418 9.3393955 67.374008
32.729939 8.9308434 66.771805
32.120079 9.3793554 66.946281
32.143063 8.939991 66.580032
32.165936 8.533144 66.200508
33.640961 10.293684 68.22673
27.114384 18.460587 67.726349
27.865513 18.615255 67.552597
35.757977 10.218988 69.091873
31.572742 6.7734318 64.090508
30.868214 6.6556196 63.9175
34.303127 6.599453 64.168434
32.87492 7.0281272 64.615158
29.910881 6.9521074 64.177277
30.414162 5.9024739 63.189827
35.858849 7.0788231 65.62468
33.684788 20.548862 61.722038
33.869202 9.775425 67.984985
26.293957 7.4849548 64.928459
33.653435 11.746153 68.927635
30.51926 6.8441601 64.087143
31.958874 5.6215639 62.428242
33.844032 11.184605 68.784065
22.909637 13.036076 67.712959
26.136042 17.317783 68.019241
32.474998 20.053089 65.788177
26.938545 7.1599655 64.572441
34.166122 11.852341 69.170822
34.068336 10.624244 68.612396
25.61084 17.304785 67.97123
26.655266 17.328453 68.049141
28.186102 12.673756 68.235992
26.356871 18.007477 67.882126
26.860434 18.029802 67.87323
34.347221 11.344964 69.058151
26.768099 6.2121115 63.786182
35.103077 9.3966417 68.224861
33.555054 13.805827 69.38195
33.074913 6.6138086 64.066269
27.174692 17.339619 68.056686
28.521168 20.672171 65.5215
27.41452 17.791662 67.916489
28.08543 13.355528 68.432091
26.555824 18.712633 67.703499
25.641022 7.8028889 65.271088
34.273548 18.512615 67.430054
33.75716 14.497367 69.446205
34.045227 13.645462 69.550201
28.670963 5.7957315 63.222866
33.974388 15.165952 69.410301
23.195797 8.9742327 66.397774
31.571762 18.663025 67.375366
25.832829 17.994976 67.861664
31.002554 19.100824 67.092613
34.075005 14.246243 69.597847
27.134453 12.333283 68.122894
35.781464 6.9594498 65.336365
34.246674 5.9550791 60.425007
30.786926 8.3835707 65.684975
31.764772 7.9300156 65.456009
30.448839 7.9758096 65.206894
31.271336 8.1514702 65.571075
30.307316 8.6198921 65.808884
30.948246 7.7615314 65.085876
25.676785 19.464745 67.425591
31.448278 7.5539021 64.959259
27.653128 18.229916 67.742996
34.576141 6.1910267 60.059719
35.394318 19.184761 66.226761
19.662323 14.050245 67.317627
17.305838 18.321068 66.409607
25.731705 21.091961 64.766411
20.763027 20.481569 65.651787
22.914421 17.976782 67.467773
28.354433 21.316036 63.715935
19.163166 15.077599 67.253059
17.244507 15.435801 67.182068
19.315424 21.597542 63.625328
17.327053 20.194649 65.13681
22.546247 19.2125 66.989944
25.691608 20.806389 65.519394
29.217144 21.634003 61.889061
19.791622 17.353336 67.057823
18.030073 21.449562 63.682739
28.713596 21.497009 62.88232
24.419781 22.227953 61.618603
22.612823 20.893202 65.316826
28.170959 21.093899 64.473328
19.108143 9.2990856 65.882935
17.73967 20.864819 64.536324
23.416533 21.191187 64.705353
15.470573 18.587219 66.084991
18.096766 13.014817 66.976196
24.314199 21.419733 64.092728
16.97324 14.736408 67.156845
16.846651 12.809408 66.803375
20.574837 16.957911 67.272202
17.394463 20.580778 64.800964
23.992037 20.211304 66.614273
23.296703 21.719791 63.522594
20.585972 15.006786 67.45874
19.95528 21.742325 63.358589
18.996241 12.348295 66.981766
21.343987 21.414978 64.270088
19.052967 13.522117 67.181969
27.881681 21.934597 61.521152
18.134045 22.05463 62.522255
24.608385 19.406708 67.318825
27.8507 21.055395 64.647568
23.666737 20.565376 65.915543
25.249935 20.688734 65.886864
18.741062 11.056598 66.60894
21.016323 15.631464 67.492653
22.075272 19.789444 66.574341
18.969711 11.863313 66.886765
20.505209 19.029434 66.718781
20.782833 15.343802 67.471207
17.203716 13.998663 67.089706
24.401695 19.705708 67.123779
17.453112 10.774549 66.213539
18.561695 10.174654 66.219612
20.29084 22.326305 61.753265
20.564018 13.448078 67.417496
19.000654 19.012157 66.355812
23.398335 18.25185 67.495049
27.515175 21.043839 64.717148
19.680958 11.151481 66.858246
20.244669 10.112871 66.543304
21.16116 18.679577 66.992142
24.740292 20.617989 66.120872
21.360926 10.424916 66.867584
23.344444 19.612328 66.911621
21.66156 9.5461178 66.554779
16.614374 21.473057 63.45863
19.646009 21.131575 64.551147
27.355848 21.497778 63.357708
20.754034 10.443375 66.76886
20.436571 18.173124 66.987762
21.352787 9.2634459 66.327255
21.100414 17.15625 67.348404
15.451317 20.16481 64.901314
29.649891 21.087866 64.005005
21.583401 17.410295 67.377724
20.49361 12.567551 67.302361
24.368561 18.959723 67.44838
21.240698 11.071835 67.072571
20.911926 8.9094496 66.001572
20.807768 11.733235 67.19323
15.900663 14.649717 67.145065
20.538986 12.986002 67.36615
26.910982 21.015068 64.850418
20.430534 12.084265 67.216278
19.979805 10.787625 66.776993
27.470104 20.744535 65.539612
20.608301 16.206656 67.378174
30.048317 21.020012 64.110855
21.45908 15.840624 67.558548
21.526855 10.147681 66.804535
23.42173 17.775387 67.617393
21.104599 11.453636 67.171005
21.588619 16.717304 67.494186
26.473131 20.615137 66.006363
22.573982 17.15876 67.582893
16.000298 15.794813 67.151512
19.086929 16.768457 67.090874
17.255344 17.017689 66.989853
25.528835 20.391363 66.606728
21.500145 9.8514194 66.683365
21.622034 14.092686 67.624115
21.624063 12.267873 67.434067
20.242287 11.553023 67.068817
21.557262 13.353679 67.570633
26.177048 20.192198 66.819359
18.337204 19.847252 65.642982
21.468866 12.601904 67.463715
18.907686 18.17197 66.751251
25.797894 20.21471 66.846466
19.563646 16.382915 67.190674
19.864906 12.372011 67.164917
21.544632 13.782148 67.598083
20.651814 9.3752842 66.256241
22.206152 15.630485 67.680931
24.06286 18.62365 67.50737
22.398718 8.5694208 66.014854
27.277571 20.593231 65.882187
18.658983 20.599041 65.058517
22.283724 16.488459 67.624779
23.276157 17.121794 67.696976
23.785511 18.53171 67.488258
21.12314 13.540854 67.51786
21.911572 16.472168 67.57476
21.299122 14.370901 67.57972
22.306568 8.841877 66.228958
21.788826 14.472597 67.655083
21.518232 16.243769 67.538811
21.096586 12.709877 67.423698
22.263184 11.087402 67.246841
21.850924 11.979957 67.418228
22.185789 10.788163 67.142632
21.693901 11.365471 67.238174
23.372601 17.443729 67.672104
23.151472 16.717339 67.716202
22.864437 16.0502 67.736343
22.452408 8.3145361 65.786903
22.906799 17.08972 67.650124
22.527744 21.901627 63.035313
26.418629 20.482983 66.325119
21.317595 11.988871 67.335373
23.018505 16.368971 67.730988
22.412945 16.853752 67.59874
21.995649 12.573366 67.538116
22.039368 9.0528488 66.33699
25.847057 19.812943 67.238533
