# .PCD v0.7 - Point Cloud Data file format
VERSION 0.7
FIELDS x y z
SIZE 4 4 4
TYPE F F F
COUNT 1 1 1
WIDTH 1610
HEIGHT 1
VIEWPOINT 0 0 0 1 0 0 0
POINTS 1610
DATA ascii
14.573339 27.258438 62.544128
14.821924 25.436623 57.691483
19.368338 33.305435 56.452927
14.676737 31.63464 74.761627
19.709393 39.228088 77.106796
16.539398 26.754997 57.447548
17.855206 28.121304 56.746643
11.794825 28.667522 67.295578
20.486078 31.546978 70.618912
19.365852 31.526852 61.50312
21.340769 34.549973 68.907707
17.341345 27.154446 55.797874
16.04015 27.438251 61.324268
21.48921 38.046112 75.983841
16.812271 28.795872 68.304214
17.562439 27.700237 56.681877
15.630136 28.457741 68.158524
14.943626 26.476723 60.451881
17.986946 29.498343 69.114723
14.093016 28.74482 69.003983
15.637796 30.998997 74.614944
15.914804 28.699703 68.679291
14.248199 29.001198 69.624397
15.011412 31.268709 74.594688
18.441305 30.056301 70.509689
16.221193 27.40139 60.738102
16.388229 27.355827 60.178532
16.872135 27.922333 60.577728
19.257671 34.127571 56.680061
17.023567 27.898567 59.992012
16.749773 29.277567 69.805611
14.480919 25.337017 58.069687
15.865038 32.839836 78.195923
16.565165 32.410065 78.818558
18.372002 29.677601 69.018791
19.573759 34.584255 61.692764
19.291811 35.040611 61.01339
17.951485 27.841385 55.266754
13.285271 29.459572 70.122162
19.056572 30.803272 61.24736
13.339247 25.507244 59.613274
17.258394 27.289791 56.6124
19.340065 33.766365 56.033211
17.784616 29.87722 70.858437
16.736107 27.932907 61.151642
17.068645 29.087646 68.946129
16.691959 28.16156 62.913769
16.672684 29.056185 69.213402
15.703833 26.877831 60.318378
18.911564 30.419266 61.914215
16.205936 30.793537 74.495331
19.45446 33.589355 60.771618
18.112486 29.948879 70.681152
12.742744 25.620546 60.181225
16.375196 28.697899 68.430542
17.570684 29.406982 69.407753
19.26252 34.072517 60.076839
15.306551 29.541552 70.989021
17.745338 28.825541 61.033924
19.047085 35.025482 59.877899
14.576447 28.967842 69.591171
17.526691 29.195889 68.746948
13.647438 25.044636 58.335926
20.025845 31.306044 64.190521
17.757427 27.767824 55.964783
19.269833 34.554428 60.546432
13.47039 28.946892 69.243446
19.254356 30.572451 70.823364
19.776726 30.95853 71.179832
18.026817 28.204018 56.041283
17.220308 28.497005 63.569542
20.998091 38.793091 77.539352
19.031044 35.503242 60.354225
19.435738 33.104439 60.294975
16.765997 28.2344 63.68795
20.198709 31.227808 70.008987
17.743643 28.819445 64.191422
16.838373 28.28767 64.43721
10.975405 28.893005 66.955444
17.061798 26.766697 55.565098
17.313257 28.557152 64.341873
19.739645 30.770445 64.491821
19.042543 30.687643 61.817368
18.079819 29.24202 61.579086
15.114532 26.839432 61.074928
14.935703 27.976505 66.203644
17.414103 28.406101 60.469048
20.191404 31.344902 64.834595
19.272911 33.674408 58.43924
15.255333 28.446129 68.238327
19.972733 31.02083 64.91433
16.986259 28.300055 62.41692
15.586695 29.487688 70.828049
19.442688 31.821985 61.395508
20.383387 33.222778 64.039856
19.181126 30.829325 57.558784
18.752878 30.001278 59.629959
18.77322 29.914917 58.824837
19.313271 31.571571 57.490257
15.11883 28.107933 66.918579
19.397959 30.276657 64.780716
19.233212 31.034609 56.672291
17.398769 28.607971 65.097458
16.927992 28.35429 65.216553
19.143772 34.30547 58.888859
17.58147 28.714668 62.247559
20.709469 33.992374 65.114807
19.321499 33.356499 59.073196
18.24152 29.157118 64.777237
18.589298 29.915699 61.382599
19.218359 33.991657 59.516418
18.454113 29.405811 62.834091
17.833387 28.873184 64.94635
19.008865 34.940266 59.328415
17.291443 27.997242 59.228523
20.113674 31.07897 65.541512
19.368874 32.328369 57.411514
12.131571 25.78437 60.750111
16.70248 27.391083 59.094406
13.542364 29.268164 69.929558
19.630932 30.52833 65.20533
20.340778 31.395576 65.46431
15.052679 28.254478 67.601456
17.100132 29.330627 69.68383
17.431545 28.017944 58.617874
20.467691 31.459091 66.089897
20.787918 31.940815 69.143288
20.231197 32.384499 63.713943
19.228899 33.979198 57.825497
20.239456 31.148758 66.161621
17.094961 27.631065 58.520866
19.081783 34.608887 58.279655
19.018366 29.836966 65.075912
19.391951 33.030151 59.72187
12.68383 25.387531 59.666283
19.864151 30.779152 65.618317
17.567665 28.041765 58.008713
16.092312 26.803612 58.950043
20.40398 32.379574 64.358757
17.245819 27.64362 57.922836
16.513735 27.019432 58.398029
19.248859 30.069458 65.48037
19.041748 30.167347 69.380074
20.561562 32.384167 64.989609
19.981619 30.855713 66.235886
12.061104 25.548405 60.25769
19.414471 32.902771 55.871864
15.644539 28.234938 67.326378
19.265251 31.203751 56.839722
19.482658 30.319458 65.895966
19.711872 30.567072 66.297256
17.700819 28.067417 57.405537
19.503952 31.327848 62.284321
18.56461 29.930111 69.70694
14.765484 33.859486 76.85675
18.031406 29.140007 62.213097
19.398445 32.650543 58.905773
18.928286 35.239983 58.729355
16.911953 27.255352 57.833221
20.172443 31.761543 63.999123
18.8095 35.961098 59.704147
19.890892 32.345791 62.488098
19.362204 31.949507 56.776043
21.006989 33.46439 66.685852
19.35639 33.099693 57.328297
11.082958 27.313358 63.260117
14.978039 36.177738 78.714432
16.271925 28.991325 69.275131
20.292778 31.336481 70.363457
17.39431 27.658411 57.329941
19.5263 30.776997 71.099045
21.854242 35.28894 71.315964
18.163919 28.673618 57.12989
20.609331 34.322529 64.759331
14.436378 26.03138 59.980606
15.470386 26.232384 58.806801
18.430092 29.60289 62.158649
11.542831 26.013035 61.319229
19.361565 32.973465 58.262764
19.426937 32.323238 59.560528
18.887413 30.404911 60.65889
19.384163 32.200665 58.366013
17.979713 28.961311 63.139641
19.19622 30.620121 71.306137
15.909071 26.43107 58.269909
12.838518 27.277916 63.189934
19.194445 30.869644 56.510075
19.435295 32.297798 60.557648
13.58548 26.084377 60.775955
18.629532 29.669331 58.986729
18.351017 29.283218 59.258636
19.372746 32.519543 57.731224
18.605633 29.756731 59.793083
11.522692 29.452591 68.595047
17.074409 27.259308 57.251389
10.746752 28.33905 65.45182
21.278158 32.986656 69.985214
18.908445 30.164143 58.662125
19.701563 30.846359 70.634766
16.334499 26.642302 57.724495
19.38728 31.875477 59.016308
19.335499 31.757498 57.817497
18.053579 28.911777 59.515411
18.327293 29.370892 60.063301
14.567932 25.827732 59.391132
18.031137 28.999937 60.316322
21.258125 32.852123 70.285233
18.78735 35.870853 59.176567
19.316616 31.438118 58.459686
19.215418 30.275917 63.260384
17.723919 28.562317 59.756439
18.821352 29.92115 62.737572
19.33672 33.279415 57.647385
19.160332 34.452332 57.38393
19.219925 31.009026 57.893784
18.589993 29.840092 60.59425
19.288326 31.386425 57.161182
19.365026 32.138023 57.089333
18.767525 30.141125 62.052986
18.322405 29.447905 60.862095
17.758398 30.015699 71.380501
19.506613 32.10791 61.333542
18.205723 28.289227 55.356583
15.989852 26.199053 57.23777
19.116245 30.522545 62.594727
19.489613 30.892111 63.104839
16.746441 26.879541 57.172878
19.254286 31.198885 57.525204
17.120317 39.222816 78.286385
21.854506 34.948204 71.317543
21.776436 34.085541 71.455681
17.781223 39.476624 78.725128
15.626331 38.320934 77.507378
18.095644 39.510342 78.22522
22.124331 37.723232 76.67453
18.016277 30.718281 74.25116
16.03759 38.656792 77.632904
21.804876 36.313778 71.889603
14.739643 34.250744 77.048073
21.380272 37.46907 73.575562
20.793133 37.980927 73.574875
16.775196 39.037994 79.349854
14.056473 30.636368 72.753662
14.781525 30.226324 72.492737
14.749125 35.167923 77.535431
21.680424 37.319923 74.135178
15.514046 38.111137 77.96357
14.951311 31.807411 75.302589
14.743837 34.522236 77.204071
16.916086 30.276083 72.910248
15.304718 36.813515 79.695633
16.314425 38.837826 77.938583
14.10915 32.899353 74.975319
14.669317 32.159019 75.34819
14.38788 30.400175 72.612556
15.186911 30.040012 72.230438
16.028978 29.958479 72.072556
13.750866 30.910662 72.853516
14.746878 34.812077 77.366653
20.585651 38.174648 73.872017
15.555397 29.976898 72.136993
22.001804 35.395405 71.959946
15.188835 37.604435 77.895477
13.967131 31.698132 73.893776
14.345232 32.57653 75.19928
17.195297 31.075195 75.761642
21.971153 35.976646 72.066269
14.185064 31.531261 74.078712
21.762325 36.571621 72.201477
14.976667 37.327068 77.434364
17.303064 30.165962 72.417664
15.558037 37.974636 78.794975
21.427893 35.537586 69.633148
22.206116 35.433022 72.784988
19.726965 38.770264 74.88916
20.523319 38.289314 74.335487
22.11717 36.889374 74.410461
21.524776 37.656876 74.765755
14.659754 36.563446 76.982468
15.726725 31.725723 76.086838
18.658972 39.190369 75.638763
14.748278 32.672478 75.938904
21.791145 36.902142 73.216621
18.364626 39.272324 75.918732
19.014091 39.066391 75.315697
21.493404 33.948105 70.106842
17.408871 39.292973 76.604309
21.266373 37.239067 72.029007
21.058891 37.792988 73.673996
20.758596 38.267597 74.967896
21.392979 35.868874 69.657455
15.389524 31.521624 75.398285
14.957251 36.80645 78.218872
21.653452 35.951347 70.817017
19.283592 38.94249 74.998055
17.915817 39.304317 75.88269
21.832317 36.62822 72.712234
20.140444 38.562546 74.722374
21.459291 35.155289 69.620895
21.560011 36.167114 70.644241
14.12961 33.32391 75.235687
15.746607 30.587904 73.778145
16.820839 39.155136 76.627975
15.219898 30.820297 73.997299
16.262791 30.091789 72.462494
14.809671 36.826771 77.390808
21.533384 36.952682 72.314354
21.418686 34.869179 69.375351
14.518633 36.261929 76.633682
13.775072 31.143368 73.113808
14.595812 36.830612 76.552391
21.280521 37.052711 71.352882
14.097651 29.900251 71.453873
18.222696 39.656898 79.562546
15.289412 30.38641 73.090439
21.289845 36.94474 71.038025
21.274036 37.166138 71.676773
14.684832 36.221928 77.406731
15.131571 37.91267 76.803665
15.330698 38.139397 76.943047
14.923147 37.621647 76.671272
19.975439 38.502434 73.770576
14.502419 35.760818 76.700241
13.623619 30.155216 71.601044
15.73531 38.584503 76.685539
19.329191 39.086891 75.9515
14.361332 35.149429 76.26638
16.350849 29.818752 71.588722
14.966925 35.288422 78.391579
16.430765 38.979664 76.924011
17.831165 39.329063 76.319763
14.350367 33.787163 75.888412
22.151905 36.404701 73.517044
14.396971 36.02177 76.31591
13.896385 32.933586 74.612259
13.855618 31.515419 73.570435
20.568405 37.922504 72.267548
15.012705 37.592602 77.089645
21.250217 37.440014 72.872833
19.430931 38.806229 74.430229
20.035963 38.346466 72.888367
19.678452 39.669151 79.165466
21.396645 34.002945 69.408722
17.142344 39.231148 77.186722
14.684504 29.679306 71.25499
21.40271 36.02631 69.86084
13.565756 29.73756 70.813316
21.405746 34.529842 69.292419
15.455273 30.698368 73.892509
16.31234 38.992035 76.328781
13.836084 32.122082 74.0271
21.540737 34.822037 69.927078
21.42963 33.549232 70.068527
15.468878 32.636879 77.096657
14.983067 29.608965 71.154366
13.393213 31.373808 72.857887
14.598791 30.838894 73.515305
14.336538 34.481033 76.081619
12.41415 32.761253 72.211823
13.007025 31.170021 72.203033
20.849771 35.87117 67.56691
20.556284 36.183083 66.809753
13.832138 31.317234 73.361923
14.639767 37.626266 75.848618
20.984058 35.448753 67.660164
16.458351 30.396051 73.366173
20.748251 38.529648 75.973419
16.78245 30.908253 75.064865
19.868233 39.001328 76.252426
15.416246 33.513439 78.097717
14.454752 31.359249 74.176926
15.71315 31.336952 75.389267
14.855043 35.638042 78.11187
14.67244 31.101538 74.031677
15.235111 31.823008 75.693039
18.497118 39.414314 77.063538
15.34219 33.31319 77.665451
20.803669 38.39817 75.586761
22.769169 34.477272 75.120255
21.928764 34.645462 71.740356
19.710312 39.105209 76.499191
18.842062 39.366867 76.984818
21.61478 34.522171 70.368507
14.736927 33.269722 76.389282
19.194105 39.303402 76.914993
14.846212 36.216209 78.135292
21.073496 38.192696 75.41835
18.222912 39.425907 77.14119
21.629639 34.002235 70.770027
15.050537 33.787437 77.481277
15.090298 32.680298 76.539948
19.389374 39.203468 76.578415
16.906164 39.159164 77.702057
14.58485 33.57745 76.293816
21.983532 35.024029 71.865875
21.701391 35.543991 70.779305
17.271004 39.287605 77.699646
22.090513 32.679714 77.864136
17.608818 39.392414 77.883133
14.877398 34.173195 77.362495
16.505098 38.903999 78.482544
21.724846 35.129143 70.737122
14.89509 32.969692 76.469597
19.081402 31.309805 78.293045
21.981918 34.839916 71.888687
15.140717 31.000816 74.265732
21.940655 34.28986 72.061417
21.628832 34.268829 70.577431
21.618336 33.678436 71.064026
21.657179 34.730873 70.473206
15.561769 38.371571 76.995766
17.941839 39.451836 77.691879
21.564871 37.807068 75.358154
15.822002 38.448196 78.059044
15.860966 38.600159 77.121063
21.690392 34.888092 70.590897
16.968533 30.428429 73.446381
14.892563 36.441963 78.245461
18.095345 39.449345 77.473824
14.874592 35.96909 78.267151
16.164843 38.804047 77.185677
16.01395 38.608749 78.101868
16.671385 39.032581 78.038704
21.685772 36.397667 71.513504
21.974037 36.222137 72.38443
16.467318 38.942516 77.514336
13.996565 30.416664 72.346863
14.878771 34.465969 77.580856
21.422155 37.315159 73.151466
21.212559 37.746254 73.977867
21.719519 37.120018 73.598343
14.297745 30.241043 72.254425
15.03083 36.750229 78.654175
20.70363 38.76783 76.77433
13.62376 30.750856 72.506065
14.796371 30.404968 72.880409
14.936289 36.536491 78.448196
14.642191 35.54969 77.234451
14.473898 30.595795 73.015846
21.577131 37.216927 73.347733
15.277199 30.218798 72.677299
14.122458 30.869858 73.138916
14.638786 35.148781 77.149902
14.596045 34.310543 76.700775
15.430948 38.185345 77.223824
14.6751 30.054893 72.075745
15.343445 37.981438 77.611076
15.863319 38.256821 79.339836
15.079992 30.70649 73.667496
14.602419 34.590717 76.830734
15.368559 37.775955 78.361015
21.387123 37.658924 74.260635
20.883383 37.989986 73.982956
15.715506 38.298603 78.301788
22.852043 35.218346 75.306671
14.869812 34.825211 77.785339
16.356503 30.246906 72.906693
15.578358 32.151756 76.609467
15.405188 38.128586 77.415604
20.445103 38.197205 73.476639
15.703911 29.834911 71.747238
14.535959 32.640854 75.558517
14.39283 31.60223 74.40818
14.488178 32.071579 75.010704
20.655205 38.0158 73.20179
14.634573 34.875771 77.034256
14.1782 32.442696 74.838745
14.008852 32.690948 74.681618
16.152832 38.690228 78.289932
15.031292 30.305092 72.788452
14.291065 32.99456 75.375313
14.097044 31.879345 74.282578
14.756697 35.6054 77.697701
15.54051 30.12261 72.508987
16.67189 30.672493 74.283699
18.63903 39.346729 76.68293
15.857389 30.094494 72.464851
14.957458 29.931957 71.926468
22.079079 35.768173 72.412407
14.91123 32.133533 75.691734
15.337431 32.379131 76.586227
15.905243 31.112946 75.095825
19.934164 38.894066 75.855217
16.073746 30.972244 74.895676
15.462372 30.849571 74.214218
14.854351 35.231953 77.949272
15.486532 31.255928 75.031326
15.370916 30.548519 73.51059
15.689119 30.439217 73.377884
15.138798 37.341599 78.349297
15.784899 30.750896 74.178947
16.00971 30.371113 73.263542
16.508558 30.539854 73.844467
15.126539 31.469839 75.024727
20.302113 38.719307 75.777588
14.958969 35.699074 78.554611
18.653822 39.449226 77.44014
16.138819 30.634418 74.048637
18.990803 39.409103 77.381889
12.495611 35.745613 72.219139
12.601208 38.01181 70.678337
12.453445 30.59304 71.008171
15.78558 38.009277 79.8647
16.071342 38.35994 80.028175
15.549097 37.636398 79.741348
15.418179 37.294178 79.774055
12.42909 31.212791 71.529449
19.718805 38.552303 73.299294
12.794886 31.379786 72.10051
15.643127 37.950523 79.366379
15.485205 37.722904 79.230492
15.350624 37.391422 79.334633
16.434622 38.822624 79.065086
16.87903 39.10553 78.875076
18.934364 38.413666 67.30056
10.162218 32.891617 68.90229
19.87837 38.236275 71.21756
19.999083 37.909584 69.402153
13.045717 33.796318 73.457832
16.91925 39.713051 65.764023
21.25687 37.353672 72.509659
19.669411 38.034512 68.640038
13.631231 30.44643 72.067078
16.853149 39.65205 66.513313
12.119146 38.383148 69.074776
19.074337 38.341637 67.588676
15.032778 34.157677 77.782257
17.66213 39.419529 78.284683
22.342905 32.905399 76.979385
9.4898567 29.841959 66.395767
8.5461254 28.316725 64.012482
8.0166264 28.599224 63.867233
9.5533047 29.586903 66.271393
7.0523777 28.664377 63.184502
7.6058025 28.582106 63.543045
9.3212128 27.268312 63.010193
10.078758 27.045959 62.822617
9.7325115 27.138409 62.927837
9.5591393 30.061937 66.64933
8.7440777 27.979578 63.734306
9.5824852 28.943483 65.522552
9.5247364 29.399437 66.033577
10.564163 29.831066 67.817566
9.5341473 29.212645 65.849327
10.197332 26.874731 62.566078
8.4398785 29.478779 65.014008
9.6273518 28.57535 65.143021
8.8709183 27.697718 63.417336
7.9892845 28.986183 64.22081
6.6986847 29.254288 63.381954
9.7895508 28.369652 64.940224
8.5640774 28.96188 64.687759
8.5331974 28.636597 64.354248
8.9366169 29.179819 65.220535
9.8614101 27.970711 64.282043
11.284052 29.646751 68.589966
9.7612362 30.130539 66.981178
10.142706 27.327204 63.26664
10.422499 29.634798 67.412895
9.285984 29.701683 66.033005
10.268366 27.871565 64.240868
7.6287174 29.42012 64.28714
9.2450867 29.321884 65.636803
11.145817 27.03462 62.810837
9.8270912 29.781992 66.780952
10.254047 30.090942 67.641571
10.501358 29.335459 67.124069
10.945686 29.448883 67.848854
10.477802 28.892605 66.433441
11.974581 29.529375 69.151604
12.596094 29.525789 69.700851
10.228592 28.624393 65.705704
10.506378 28.747377 66.214653
10.64115 30.085255 68.21402
8.7981186 28.483717 64.425087
11.463453 29.30205 68.269867
7.8133106 28.998411 64.078293
12.25288 28.901377 68.360558
10.432867 29.120964 66.73056
9.2593651 33.630962 67.66201
11.596264 29.096165 68.053467
12.957752 28.754551 68.615768
9.9256039 28.658806 65.437897
9.3040257 28.836224 65.201836
6.9168262 28.166122 62.662933
9.8729992 28.902596 65.791946
9.820713 29.519508 66.504738
7.0215054 29.186604 63.583443
9.8188 29.290897 66.253899
9.2359829 29.507284 65.814651
9.8377972 29.070999 66.015144
9.4408245 28.474026 64.87059
12.203112 31.821007 71.569336
12.623297 28.330997 67.190147
12.683897 28.4137 67.555946
8.6721516 31.40485 66.237968
10.816324 29.714426 68.047684
8.2926388 28.088139 63.558876
7.9565239 28.220026 63.450935
7.7749844 28.180285 63.300751
8.4279041 27.848406 63.393898
11.422283 37.092484 69.329254
10.727055 35.512047 69.326065
12.689886 39.592281 67.755905
13.087164 39.124866 69.482765
14.084272 40.286572 66.599312
11.544207 36.396603 70.196045
11.704416 29.801617 69.253387
12.113058 39.207558 67.888664
8.7219791 27.457977 63.018158
9.3422642 26.935665 62.546066
6.5377254 28.922825 63.000679
9.6756592 26.832256 62.471317
7.4476414 28.400936 63.257072
8.4640045 27.694706 63.204895
9.0847988 27.484598 63.222595
6.597126 28.437824 62.66758
6.3532104 28.532211 62.567039
8.3124104 27.356512 62.708893
9.8402042 26.672104 62.258347
11.037605 34.238903 70.292046
10.983965 34.638664 70.114014
12.061811 31.086311 70.96994
12.757511 29.823214 70.314995
7.0981865 27.815681 62.466251
7.7720985 27.3069 62.392944
6.7360973 27.348701 61.862549
7.955019 27.034916 62.201538
7.4185543 27.929649 62.785316
10.910576 33.418678 70.108704
7.5477257 27.740623 62.681335
7.4306641 27.511463 62.394314
9.0184326 27.172333 62.763977
20.393711 31.823612 81.783394
16.531097 36.812099 85.067497
19.80171 31.858112 81.465637
16.624454 36.444363 85.518822
20.461977 39.890575 80.573761
22.449312 33.644608 74.604538
18.699465 31.21166 77.403557
22.458998 34.393597 74.062897
20.138998 39.995697 80.764954
21.318045 39.722042 81.005173
16.487833 34.670628 82.097824
16.976423 34.145924 82.578682
21.397038 32.166641 77.226776
19.261698 39.965595 80.567299
23.68325 34.726151 78.49057
16.579418 37.768818 85.857834
19.215431 40.845428 83.701126
18.875597 39.929199 80.594246
22.503731 34.995632 74.005829
16.656656 38.797657 82.42067
23.126244 36.427841 77.149368
17.039057 39.165855 81.949364
18.553345 32.907341 83.509369
16.21937 35.227669 81.986755
19.893312 31.344612 75.967789
17.621969 31.339872 77.101105
15.860312 36.357506 81.651787
21.902191 39.402889 81.018196
18.189739 31.214535 77.039925
23.04217 37.747871 79.51796
22.567455 35.454857 74.244614
16.030355 35.619858 81.806664
18.399975 40.483181 83.28186
20.369631 41.115429 84.370628
17.684378 33.471775 82.976654
17.405067 39.474461 81.645859
17.324492 33.798492 82.797447
15.902437 36.851437 81.752075
23.293623 35.841225 77.129982
17.761337 39.673538 81.264626
18.558104 39.896805 80.762192
16.278931 38.012627 82.484627
19.036131 31.149429 76.532677
23.573376 35.10038 77.641258
19.459743 31.204044 76.295975
17.421692 32.574589 80.450897
18.34181 31.840311 79.756737
18.808464 32.466866 82.468216
16.053663 37.260963 82.150162
16.843163 31.867064 77.942513
22.567949 35.76255 74.407867
18.207952 39.821846 80.942719
21.442671 40.67617 83.611954
22.695744 39.130043 81.812775
22.649218 37.082615 76.810181
19.207756 32.225258 82.267014
22.603163 35.945267 74.677162
23.637526 37.150421 79.948532
17.515438 31.521536 77.665222
16.509823 33.063526 79.853882
20.374918 31.611618 80.293686
21.494837 38.804737 78.609024
20.677679 31.715677 76.565353
16.789652 32.898247 80.052567
16.694176 35.514378 84.537857
16.523382 32.008087 77.755905
17.808931 32.189629 80.119278
21.929859 38.514656 78.622368
18.882803 31.749805 80.121643
22.297537 40.565334 84.03952
17.600763 34.411964 86.200813
22.379379 36.472878 74.530556
17.978165 40.349571 83.678558
16.791601 39.124207 84.805191
22.353024 38.236526 78.851532
18.912251 30.847351 73.750916
16.525137 38.205441 84.73513
21.370377 31.876476 80.423508
16.980705 34.991802 84.741241
18.424938 30.736835 73.95108
16.18881 32.178913 77.523689
22.790825 38.394222 80.355728
17.166517 34.841618 85.331284
15.240412 36.290009 79.633194
23.24683 38.687729 82.054382
17.214733 39.941032 84.728683
17.134045 30.875143 75.049522
20.263876 39.229279 77.887306
21.215891 39.156292 79.192154
20.468111 31.591709 79.105286
19.957392 39.360786 78.043098
20.787249 31.735052 78.280014
16.27219 37.010693 83.394104
15.761637 34.513336 80.073425
20.479399 31.609497 74.914444
15.476725 35.309425 79.997986
17.486942 40.129036 84.162125
16.118273 33.826366 80.123459
22.34026 36.648853 74.738213
21.234989 31.850391 82.734947
17.370432 30.82103 74.892876
17.316917 39.345417 79.19014
17.641912 30.77261 74.66349
16.638342 38.638348 83.691475
16.680693 38.97559 79.930199
15.331844 35.877743 79.856873
16.090731 33.133331 79.132332
19.719233 40.359127 82.143723
23.146137 34.601639 76.189079
23.217125 36.966324 78.302734
15.992165 38.100765 80.579559
21.255083 39.421387 80.103752
22.419367 37.146362 76.118813
19.72681 31.362011 78.377388
16.75938 36.659775 86.894104
19.693598 39.485397 78.333038
23.976685 35.718681 79.472801
17.483191 39.74279 83.148201
15.773844 33.391342 78.845169
15.401018 34.692917 79.33358
19.34115 39.577049 78.549667
20.670685 39.118183 78.156654
22.388237 37.672638 77.360779
16.133825 38.329823 80.619179
17.031549 33.303352 81.185013
18.566498 39.607594 78.646294
15.301098 36.517597 79.854752
22.270889 32.941589 76.004791
16.129478 34.364178 80.794556
15.397682 34.227585 78.887352
17.275185 35.030678 87.232498
22.08205 37.51445 76.008667
15.546377 33.798981 78.792854
18.944628 39.607033 78.568176
18.072012 30.831308 74.806183
15.481724 37.118923 80.177284
18.812958 41.145058 84.956314
17.717882 31.783184 78.842354
17.643412 39.476009 79.346695
20.660669 41.601772 85.615311
17.160124 39.275223 79.552879
20.319675 39.692177 79.721207
16.654093 38.32579 86.5457
22.371632 36.722229 75.008575
15.603477 35.716278 80.618256
15.124344 35.000046 78.798126
15.83497 32.537868 77.602959
16.857065 39.395561 85.822357
15.597971 32.872574 77.669815
21.517458 38.351654 77.079163
18.861057 31.431757 78.813919
17.426245 30.934544 75.324623
18.435703 33.277504 84.827148
16.369778 31.394176 76.068512
22.031002 34.095104 72.62294
16.394329 38.702133 80.305878
15.946356 37.769058 81.050964
19.412556 32.568558 84.279716
18.325691 39.610687 78.964844
20.437603 42.058701 86.598892
17.996069 32.547272 81.361061
17.101116 39.257515 80.294685
18.431597 40.137398 82.303947
16.415609 38.644012 80.945694
22.848572 35.95507 75.674614
21.655235 38.116241 76.629578
18.435202 30.842005 74.603439
16.56921 35.935715 84.346092
22.640038 39.758736 82.979622
15.579777 37.425678 80.206207
15.809231 31.965033 76.59903
15.719725 37.711723 80.269577
17.37842 34.190517 84.018036
21.178644 40.255943 82.326065
16.297817 38.670715 79.545784
16.498363 36.130367 84.174667
16.917171 31.277271 76.214012
22.290565 37.928764 77.79261
15.367577 36.624279 80.070953
15.56069 36.872192 80.625046
21.786425 37.685822 75.65303
16.736277 35.041176 83.588203
18.000158 39.56086 79.149666
17.92963 30.571232 73.593925
17.481665 40.454361 85.587067
16.665026 31.143322 75.663284
15.054611 35.36581 78.783287
22.009212 37.977509 77.112839
16.138344 31.636944 76.361473
21.811712 37.891411 76.32724
16.163378 31.855474 76.822952
16.20274 32.627934 78.546829
21.067043 38.634243 77.074921
20.611351 38.927052 77.255966
21.457243 38.521145 77.539421
22.35825 36.916451 75.451164
22.085024 37.091324 74.878685
16.428802 36.412506 84.056343
21.839445 37.287544 74.581726
16.920418 31.006317 75.419334
16.132547 38.573448 79.202675
15.260073 37.076569 79.299408
15.57373 33.128227 77.978622
19.393063 31.113562 74.808411
15.062691 35.827492 78.992699
21.366369 38.023071 75.573013
18.507624 30.961123 75.297531
21.791296 37.483097 75.050598
21.139936 38.264439 75.878876
15.595495 33.238297 78.224289
20.84849 38.782791 77.158798
20.570362 32.054764 83.688507
15.272766 34.014961 78.28511
15.013636 34.47694 77.995979
20.040998 39.024399 76.616051
15.053776 35.589279 78.883553
20.72385 38.651047 76.375763
18.375158 31.123554 76.522514
16.357592 35.84539 83.188644
23.962831 36.301929 79.932182
17.863878 39.576878 79.756104
15.929401 38.496498 78.400597
15.212439 33.751537 77.858078
17.572536 30.636038 74.077774
20.021091 39.564888 78.958649
17.445051 39.372452 78.56102
21.318804 38.262405 76.293442
19.467115 39.11322 76.210434
15.564823 31.620325 75.739731
17.678572 31.005867 75.685303
15.926825 31.458721 75.808578
17.872383 39.357983 76.794151
20.942936 38.500534 76.291122
20.23765 38.406448 74.035019
14.955212 37.083809 77.854988
20.436283 40.168083 81.517456
22.733191 34.854591 74.913048
18.074411 31.057812 76.053589
19.991558 39.810955 79.915962
22.818157 34.085258 75.506012
20.835213 39.535709 79.886139
19.494616 40.130219 81.354187
21.665024 39.287521 80.330833
16.975733 33.928528 82.174126
22.172424 32.624924 78.809937
19.471575 39.902275 80.243553
20.933685 40.104382 81.687347
19.043205 40.4729 82.713287
19.894188 40.666092 82.996445
18.008942 32.956745 82.409576
21.292578 32.121674 76.346802
17.186792 33.566986 81.983749
16.750853 33.960247 81.684067
16.645443 34.845444 82.844521
22.986797 33.574097 77.653702
16.400778 36.91148 84.199905
21.350801 32.061104 78.144691
16.50919 34.170994 81.471901
16.158318 34.836018 81.407684
16.990179 33.745975 81.869812
16.488478 35.109776 82.722054
19.463377 39.829277 79.869659
22.744936 35.206841 74.89473
18.972219 40.066711 81.267784
20.510437 40.703838 83.233826
22.863649 36.486252 76.371063
19.930706 40.169903 81.454842
16.430189 37.310989 84.401451
18.971882 39.828682 79.897049
23.43009 37.036987 79.139999
22.847265 37.681564 78.798317
23.089752 35.893047 76.469666
18.054178 33.383575 83.833405
20.013811 31.395508 76.799591
20.369345 40.05674 81.091171
17.537336 39.582436 82.310074
21.956871 39.11097 80.367409
16.427057 38.512558 81.836617
18.873585 31.256681 77.835754
18.51753 40.82423 84.175873
16.468933 38.318428 83.082474
17.290016 39.429516 82.547089
18.644394 40.340687 82.618195
16.869162 39.093262 83.023315
19.897688 31.326883 75.060097
21.575424 39.884026 81.742432
16.575645 38.722343 81.601517
16.885614 39.076817 81.293739
23.330765 36.420464 77.783859
17.692944 33.206745 82.348221
17.059874 39.277771 82.778458
22.92469 37.032791 77.572845
16.317444 34.497044 81.445068
19.45299 40.576191 82.816849
15.972685 35.271786 81.340652
20.582024 31.685719 75.699387
18.116144 31.373842 77.791367
20.916218 39.947918 81.232986
17.601456 31.175659 76.44072
16.180017 35.87122 82.517082
16.575703 33.890503 81.212189
16.320807 35.488003 82.620895
23.496975 35.977581 77.893906
22.743752 35.45705 74.929672
17.953609 31.113012 76.341034
21.259174 40.007179 81.703552
20.147671 39.88147 80.29071
22.989985 36.192482 76.406105
21.93684 39.690536 81.793373
18.776104 31.305605 78.11174
22.737804 38.7313 81.06179
18.643904 32.352608 81.849197
23.295576 35.212181 76.780655
23.655243 35.681545 78.188522
23.154045 35.565144 76.48127
18.153898 32.727695 82.100891
22.352444 38.914043 80.679176
17.34387 34.016273 83.420357
17.451237 33.372639 82.181778
16.091347 36.225842 82.417816
15.824297 35.687599 81.24305
17.736185 33.705284 83.819954
15.693857 36.326157 81.135216
16.838511 34.584908 83.028183
22.901577 34.933079 75.46701
15.74015 36.852451 81.227867
20.664124 39.997421 81.145782
20.252039 39.594936 79.292175
15.737146 36.008442 81.170074
18.181185 40.638485 84.076752
18.734159 31.054657 75.92012
19.39143 31.151533 75.453476
17.229177 39.352974 80.949203
18.312717 39.952316 81.600235
17.641596 39.561096 80.615952
18.515358 31.061558 76.10862
19.228657 31.272858 77.897369
22.39411 35.438313 73.540443
23.376389 34.811794 76.925797
19.74921 31.30401 76.972839
17.922758 39.801956 81.973221
16.987398 34.401398 83.184296
22.567665 38.31076 79.590057
19.068022 31.072126 75.536636
18.316124 31.665623 79.127335
19.536705 31.262505 77.11734
17.153704 34.207104 83.273643
16.065285 36.507881 82.447647
18.114132 39.880428 81.787628
17.066051 39.233551 81.141571
17.276304 32.377403 79.807236
17.736641 39.71904 82.160774
23.418152 34.47345 77.230118
23.242432 37.816528 80.178375
16.911299 33.113892 80.639046
16.118582 36.739487 82.592056
16.725798 38.905998 81.447647
15.704298 36.595898 81.172798
18.970697 31.072399 75.7742
16.599718 31.786316 77.282486
15.814383 37.109684 81.32695
17.528099 32.782696 81.07869
16.174057 37.132057 82.768112
18.377716 32.020817 80.399536
17.001972 32.016369 78.569656
23.147438 37.365738 78.946228
16.344616 37.901817 83.112793
16.225342 38.124947 81.868675
18.468256 39.784355 80.122467
16.252203 37.514503 82.939835
15.981478 37.53878 81.56926
18.633268 40.018974 81.401062
16.644907 38.719402 83.049538
17.558512 31.650707 78.216843
15.892324 37.358124 81.387032
17.949678 39.670174 80.400208
18.890224 32.176125 81.631332
16.077238 37.762638 81.705872
22.793451 35.631252 75.192825
19.693462 31.250765 75.378662
19.320271 31.775173 80.702759
18.389931 32.53363 81.982475
22.380865 35.224361 73.439514
21.284382 39.568787 80.553001
18.210564 39.735268 80.260666
16.760685 35.755882 85.434349
17.547377 33.833179 83.573509
20.389931 39.789528 80.148277
17.42815 39.470055 80.779526
23.706097 36.729198 79.439545
20.882431 31.712627 79.58078
16.958942 39.124741 82.481873
19.665665 31.589363 80.156761
20.698322 31.709415 77.434387
22.401024 35.931824 73.902832
22.655682 37.343685 77.427155
22.357897 35.808998 73.640343
22.646818 36.805016 76.20578
19.819563 31.511763 79.627014
22.381878 36.161777 74.057655
20.924269 40.528473 82.899414
16.483789 37.517391 84.918602
17.754831 31.985729 79.490631
23.043812 38.617409 81.45829
17.04475 31.548952 77.181519
21.639431 39.13533 79.880882
17.274704 31.824806 78.396744
19.399643 31.262945 77.504669
23.166229 36.735527 77.733925
17.358551 31.277351 76.597366
17.852983 31.500786 78.031303
22.226648 39.661751 82.162064
16.525051 32.734451 79.343521
23.592812 37.541111 80.592842
17.127712 31.414711 76.859993
16.577271 33.34787 80.406662
16.888205 32.550804 79.579895
16.757254 38.900951 81.833664
19.058565 31.988462 81.180908
16.605799 35.507294 83.945892
17.902279 32.374275 80.743309
20.372543 31.671444 80.907074
21.242352 38.799751 78.077072
21.693325 38.522125 78.082031
20.940176 39.137077 78.676453
19.940771 31.666771 80.710258
18.879026 31.585423 79.478485
21.751278 38.809677 79.138206
16.420237 36.032639 83.66378
20.553549 39.500854 79.34877
20.909042 31.87154 76.033623
17.207037 32.938438 80.837128
16.097679 33.485474 79.637756
20.398977 31.557079 77.086205
16.82679 35.068893 84.186401
20.862377 39.668476 80.336212
16.901506 35.364002 85.484894
20.189377 31.473772 75.472603
17.487913 32.175709 79.648087
18.499838 31.319138 77.935181
18.026184 31.815884 79.3106
17.699343 32.566345 80.895126
20.977592 31.858797 77.796341
18.596678 31.622776 79.300552
18.121176 32.195381 80.587357
21.471825 38.664524 78.077286
18.671946 31.951143 80.613472
21.904425 38.367119 78.090881
16.565191 38.430984 84.218643
22.31671 38.081711 78.324287
21.967611 38.663605 79.146286
16.194403 32.395401 78.024292
16.885748 39.245453 84.158768
19.249071 31.560268 79.720154
18.906563 30.916164 74.351715
18.42189 40.314789 82.792496
16.465946 38.00304 84.241768
18.024057 40.169155 83.169113
16.703911 35.286312 84.068344
17.480846 39.932755 83.643768
21.401926 31.954227 79.623833
16.630671 35.995068 84.927055
16.708469 38.841675 84.186516
20.36363 31.560528 79.574272
16.427412 32.249809 78.207336
22.486856 36.544857 75.101814
22.622574 36.230766 75.110703
17.168005 34.587303 84.383492
22.110775 38.22488 78.207603
21.335945 40.444641 82.939323
18.664459 30.864456 74.460419
17.536076 40.340973 84.754913
22.190451 38.531151 79.259369
16.689571 32.12117 78.388756
22.701563 38.005463 79.195068
17.902412 40.507107 84.224136
17.103477 39.637878 84.143555
22.515997 37.927197 78.448097
22.408443 38.622543 80.002975
22.24419 36.49279 74.008499
22.725344 35.946342 75.156273
16.011839 32.489536 77.866928
16.972744 34.845345 84.30172
20.906464 40.912567 83.947617
22.558304 32.813503 79.570442
16.304451 31.887751 77.07737
16.689413 38.880707 85.293388
19.431845 32.04174 81.847519
19.194609 30.994112 74.23629
16.581652 38.38945 85.285866
22.897175 38.105179 79.930252
22.272366 39.272461 81.378555
19.715359 40.971355 83.907516
19.927183 39.273285 77.593498
15.37483 36.248531 80.115829
20.263165 31.502064 78.339615
23.092833 38.207729 80.692329
20.944565 31.768862 79.021759
20.789238 39.296135 78.975029
20.808844 39.414043 79.433022
21.085644 38.966545 78.381378
17.252886 39.78019 83.888
20.237144 39.136543 77.434326
21.619417 38.994019 79.42614
21.098965 31.866264 78.646065
20.881792 31.857697 75.119598
17.740913 40.049213 83.396935
20.229172 39.35907 78.366409
20.439592 31.573387 77.931549
20.316574 31.536074 76.275208
20.965359 31.878357 76.933815
19.953171 31.466869 79.14006
20.891584 39.804382 80.784752
17.242439 30.698936 74.412926
16.251711 36.612709 83.21244
15.743698 34.225998 79.739502
20.09783 31.46633 78.723923
15.436556 34.987957 79.664566
16.321844 37.406845 83.572823
16.121454 34.101563 80.465912
15.785816 34.795418 80.400436
16.163002 37.638206 82.318542
15.211771 35.801769 79.478912
17.808783 30.896383 75.189552
20.134138 31.41184 74.579178
16.523071 36.39027 84.623405
16.475311 36.615612 84.513542
19.424519 39.468815 78.050087
15.577942 34.604843 79.706467
16.43033 38.420528 82.452133
15.321999 35.383495 79.609695
16.7237 36.053894 85.870544
18.219942 40.256645 82.976173
15.639431 35.191032 80.353729
17.733465 40.466766 84.490509
16.296724 33.100822 79.495682
15.464609 35.835014 80.23494
15.925032 33.88353 79.765076
16.319065 33.762062 80.476715
16.540236 37.31374 85.415077
15.944046 34.442341 80.437073
16.967953 30.77165 74.671265
21.232738 39.287033 79.649872
16.494806 38.225601 83.721489
19.172651 39.770149 79.538025
16.81937 39.038368 83.661858
16.520603 35.762405 83.806595
19.700851 39.98225 80.665222
18.593004 39.562302 78.261292
20.635584 39.022587 77.710907
20.786852 31.895451 82.779175
23.079498 35.024895 76.015846
15.90065 33.528053 79.27182
19.295237 40.290237 82.041725
15.969032 32.995926 78.703529
16.31144 32.756134 78.982826
16.300991 33.438789 79.998642
20.881216 31.702219 80.30278
16.519756 37.926857 85.120216
15.141479 36.085575 79.301102
16.356775 36.26218 83.55941
15.079123 36.249321 79.074234
16.314293 38.677391 79.925491
15.542171 35.502468 80.303711
22.950037 37.289932 78.168373
23.456535 35.491539 77.406479
20.575752 31.61945 73.622025
16.579632 38.22683 85.729774
22.898836 36.761734 76.971321
18.883118 31.174019 76.997383
23.456196 36.644997 78.506897
16.63825 30.810551 74.71022
23.346537 37.441639 79.687775
22.279976 37.440979 76.393661
22.230484 37.223885 75.729202
19.109676 39.650673 78.878105
17.130888 39.263485 79.926346
22.526403 37.384506 77.084686
20.138943 40.402344 82.250977
22.402697 37.4114 76.741997
18.693253 32.669449 82.927116
19.559662 31.377867 78.768768
22.532404 36.839703 75.850044
19.890684 31.377884 77.991806
15.148905 36.933205 78.97934
22.468184 34.010483 74.319504
16.628151 38.640553 84.732819
23.183611 34.24781 76.466843
16.96842 39.523521 84.691833
18.787378 40.660076 83.404106
17.755468 39.874668 82.91156
19.337269 30.962767 73.41481
15.882029 38.024525 80.261879
21.820511 32.035812 80.765388
15.837225 37.795723 80.590385
19.681671 39.578171 78.752701
15.553698 34.310196 79.373245
15.565145 33.517845 78.511574
16.092657 38.18026 80.919312
20.027533 39.464729 78.54483
15.24699 34.611092 78.847748
20.597578 31.636776 78.681557
15.809317 33.120319 78.558388
15.606758 34.891254 80.036118
15.27495 35.080849 79.282822
15.751989 33.664688 79.124741
16.13821 32.875511 78.843437
16.696083 38.980583 80.292145
18.030113 33.184109 83.137489
20.436651 39.081451 77.572525
21.99045 36.529549 73.107315
20.833691 38.958691 77.848801
17.161446 39.42955 83.082016
20.499731 40.28653 81.948082
22.953878 34.706474 75.61731
21.025322 39.350624 79.539581
19.488359 40.050354 80.985413
19.925814 40.077507 81.08474
20.648819 39.719017 80.229439
19.288065 40.190365 81.674667
21.437397 39.211494 79.764893
19.717373 40.250065 81.772003
21.074512 39.619507 80.443237
16.904451 31.738251 77.615372
21.911604 39.010002 80.007591
21.498671 39.508873 80.667557
20.037556 40.279358 81.851669
23.60009 33.497093 80.966248
19.844936 39.901138 80.290825
19.718159 32.046356 82.27002
16.536877 35.212173 83.061447
19.918999 39.718193 79.489746
18.861696 40.295998 82.309547
18.244884 32.936882 82.850998
17.737402 33.017105 82.009445
21.738998 39.654999 81.390099
16.333244 36.654045 83.657219
21.134777 39.919273 81.344208
21.96405 33.024246 73.983261
19.274359 40.404755 82.401718
16.344969 37.055969 83.841354
20.229509 40.545513 82.670441
16.378429 37.357033 83.980782
19.520592 40.737488 83.244499
15.813978 35.376678 80.987206
18.720444 40.499146 82.995773
19.111492 40.629189 83.104149
22.851616 33.144516 79.422989
15.633919 36.045216 80.866585
19.796696 40.501396 82.533401
16.030491 36.000591 82.062454
15.855925 35.987724 81.518234
17.07015 33.48455 81.590118
16.567991 34.767094 82.466103
20.28754 40.287933 81.883469
20.760143 40.266441 82.041374
21.201769 32.106964 74.169464
17.239206 33.697998 82.362839
16.314079 34.268875 81.136955
16.372124 35.142525 82.360229
16.328657 34.73246 81.74987
20.528212 40.558208 82.801544
15.985004 34.949005 81.06839
16.556026 34.346519 81.82753
16.890018 33.631218 81.464989
16.695129 34.939232 83.20533
19.01989 40.009689 80.923851
17.859066 33.202065 82.711662
23.932825 33.420029 82.114182
22.076391 33.64119 73.282852
18.463003 40.653404 83.714638
21.657419 39.996117 82.143837
21.987589 32.83799 75.001343
17.855104 31.201004 76.71019
16.175491 35.065788 81.69545
16.139389 34.604191 81.105194
21.406843 32.299244 74.322723
17.847471 33.457272 83.430908
19.966827 31.271925 73.553177
18.367737 33.518436 85.694031
18.595644 39.749344 79.728874
24.297451 36.175949 80.960167
18.37678 32.709476 82.452103
17.845236 39.733639 81.619072
18.152851 33.765953 85.869766
16.044724 36.886719 82.301224
17.985125 39.892422 82.325233
16.837952 32.433048 79.270218
18.377323 40.037025 81.952835
17.317614 39.413216 81.297386
17.069525 34.184124 82.935036
16.405989 37.560894 84.077652
16.063112 37.895611 81.413437
15.926397 37.201698 81.672699
15.815104 37.369606 81.096939
23.03355 35.648651 76.108467
21.86681 39.896111 82.16449
23.112551 36.158051 76.784424
19.569099 39.752895 79.518448
24.325962 35.559067 80.84626
16.460993 36.87999 84.598999
22.864391 36.229889 76.021347
20.781265 31.761566 73.793106
19.019417 39.890118 80.239037
21.402191 40.072189 82.031952
24.061985 36.84198 80.789307
17.390825 33.256123 81.812531
22.062269 33.304268 73.747856
23.57345 36.181549 78.321419
16.922165 34.617363 83.427711
23.762756 33.795757 80.781914
16.769545 34.509346 82.655273
17.519413 33.47031 82.549438
23.302572 37.033867 78.711708
16.464737 37.763039 84.58078
16.622 37.303894 86.10614
21.440096 39.810299 81.380249
18.510389 32.288094 81.448547
22.74131 36.505409 75.982491
23.94095 36.092548 79.645218
16.265026 35.843124 82.83683
16.090225 35.287323 81.683884
16.420469 35.479774 82.989906
16.187445 35.560642 82.238876
15.995331 36.47673 82.113228
24.186625 35.866924 80.473831
18.076452 32.640549 81.737869
23.247969 37.403175 79.327011
24.494843 34.561344 81.95047
18.799528 40.831337 83.922333
18.924072 40.125271 81.611458
15.798498 36.624496 81.476746
20.588951 39.257549 78.518524
22.995966 36.443161 76.737717
22.758835 37.634842 78.416824
16.76639 38.943092 82.720703
19.587143 40.466042 82.477173
15.6057 36.575096 80.858841
16.566317 36.401718 85.009338
22.152863 32.474163 79.627113
16.540068 38.568466 82.749664
16.373598 38.164993 82.782349
17.182116 34.307922 83.620087
15.71228 37.118374 80.98175
17.227764 39.334766 82.188461
19.319866 40.692162 83.181061
24.120623 34.039524 81.473236
18.926329 39.766434 79.553284
17.140787 39.280685 81.469147
17.719048 39.757149 82.550972
21.782644 39.351242 80.678123
23.990759 36.447056 80.126373
17.19643 31.75193 78.082474
24.032722 37.098724 81.092285
18.027491 31.314888 77.443596
17.355705 31.892803 78.708542
16.421556 38.062057 83.415222
16.738541 38.875137 83.353424
16.557951 38.475948 83.384819
17.455935 39.618931 82.786224
16.964592 39.248089 83.3293
16.308235 38.372734 81.545334
20.458805 31.941902 82.780342
16.543539 38.654034 82.128075
16.840038 35.379936 85.055122
16.32732 38.27282 82.159836
22.969704 35.940701 76.090485
23.335312 36.11121 77.482193
21.871674 32.121174 80.435913
20.032612 31.398411 77.198044
20.208559 31.411358 73.650864
19.924318 31.359016 76.418442
17.477293 39.521694 81.978699
23.045477 37.332676 78.554657
22.32493 39.088428 81.044678
20.004337 40.526737 82.592529
16.472672 37.09507 84.758308
17.528151 33.727051 83.226624
17.927864 31.566166 78.347015
23.262283 33.737686 79.074005
19.764688 31.156286 73.345901
21.768343 31.981346 81.096321
22.239138 34.016434 73.470024
23.326857 33.942356 78.45401
24.018164 37.295563 81.393219
22.657471 32.508575 81.243309
24.428316 35.274719 81.280487
16.660604 36.968605 86.3013
22.398924 33.242222 75.299431
22.340237 34.878136 73.358177
20.093758 31.976955 82.491966
23.413752 34.12405 78.045471
23.991484 37.557983 81.760651
23.693243 38.116547 81.997826
23.928598 34.947098 79.545044
22.231831 34.23513 73.279778
21.869453 32.540554 76.675819
22.289356 34.548454 73.310669
23.384302 33.577606 80.074493
21.760303 32.522808 75.666389
22.623764 33.475864 75.744766
22.688744 33.397945 76.331421
20.765644 31.696945 80.837677
23.841404 35.232506 78.960594
16.623636 37.507034 86.235779
18.805965 32.900864 84.244263
22.555157 33.105358 77.751366
19.565916 32.149918 82.567635
22.924175 33.891479 76.109505
23.795586 35.712982 78.814804
19.127398 32.545696 83.374596
23.545477 34.607079 77.815506
23.708084 34.461784 79.092255
22.955465 39.227463 82.487961
21.781153 32.501251 76.21257
21.031937 32.02874 72.804077
17.330904 34.457405 84.706741
21.838135 32.500835 77.103523
21.083384 31.757984 80.787003
18.44372 33.126213 84.133286
22.719776 33.340477 76.832657
24.695984 36.179684 82.21051
21.647345 32.945744 72.67627
22.580931 39.477329 82.322029
19.162283 32.441387 83.017555
19.261673 32.336567 82.818359
18.431484 30.633982 73.289505
21.269072 31.785069 80.865654
21.763948 32.340553 78.443672
23.964931 34.667831 80.047531
20.867723 31.804024 82.208588
24.303919 37.685417 82.625687
21.224001 31.801107 82.144844
22.46888 32.99218 78.189209
22.667418 33.236717 77.301582
21.747183 31.930883 81.742203
17.466751 34.325748 85.016563
19.039057 32.690155 83.852715
18.155466 30.581459 73.407257
19.443504 32.231003 82.717545
23.276764 33.995361 77.415665
22.612005 34.4286 74.602692
23.271383 38.966988 82.592758
23.029858 34.201157 75.971016
23.357403 38.325104 81.589386
21.740665 32.412563 77.542664
22.642523 34.051224 74.882385
22.594326 34.698624 74.443527
19.336864 31.018261 73.962708
22.628452 33.813347 75.048569
22.630363 34.236763 74.734711
23.623924 38.458923 82.432434
18.902838 30.757433 73.143875
24.083803 35.431305 79.908691
22.261684 35.002682 73.006104
19.587629 32.408531 83.834877
22.225542 32.796143 77.423874
23.702116 35.218513 78.341232
23.028685 33.695683 77.148804
21.287226 32.136528 75.865479
20.108604 40.852005 83.548943
21.821831 32.325031 78.935432
22.321569 32.927071 76.512512
21.7181 32.358902 77.996346
23.008217 34.372818 75.822586
21.376987 32.126984 77.675949
21.425987 32.075394 78.600143
20.626707 31.7314 81.262039
22.496525 32.94532 78.68203
17.901724 33.643723 84.235336
22.878902 33.415207 78.105896
18.203733 33.366329 84.31723
23.685738 35.971039 78.524025
23.638939 34.909435 78.06073
22.107286 32.64579 78.313103
21.384386 32.173286 76.77565
20.456968 40.87957 83.706665
17.451017 34.240616 84.476883
21.187098 31.916098 83.244095
23.598051 36.658653 78.992722
20.188259 32.130653 83.528816
19.768068 40.813972 83.423904
22.254599 39.462696 81.7733
23.441448 35.142151 77.176971
19.35383 30.865736 72.471481
17.437912 30.40831 73.176643
22.700716 38.93512 81.418289
20.285933 31.74403 81.299835
20.027317 31.733719 81.110939
23.234636 34.904434 76.481918
23.856743 36.001247 79.179176
23.295549 34.163551 76.963013
19.547298 31.817295 81.071739
23.31233 34.389832 76.836029
21.166918 31.852016 79.339737
18.097586 33.586082 84.830399
23.079165 38.394165 81.076859
21.07575 31.936052 77.36467
22.081385 35.097385 72.271355
23.524933 37.10923 79.529633
23.563423 35.588524 77.789986
23.348669 37.889473 80.63871
22.647936 35.040939 74.530029
20.639437 31.635437 79.930527
24.051132 34.360626 80.749428
22.284464 35.743263 73.281311
23.184246 35.135441 76.389969
17.45273 30.495834 73.525078
23.628756 35.363258 77.927917
18.310583 32.446484 81.603058
20.927202 31.892504 75.542038
17.72455 33.834152 84.209366
23.268126 34.681618 76.570282
22.102238 35.409233 72.363525
20.145065 31.546864 79.943062
23.486837 34.921837 77.300423
22.763983 38.558884 80.708504
22.796618 37.325119 77.802834
19.412191 31.219494 76.77755
20.561859 31.66766 75.311218
22.512472 39.006271 81.21701
19.386492 31.168289 75.897148
19.670078 31.272175 76.595207
19.754251 31.242647 74.711868
18.427826 30.523823 72.706184
19.278391 31.999893 81.494499
21.130058 31.794758 79.964165
20.254696 31.510098 75.837341
17.526264 31.130665 76.141068
22.945517 37.710114 79.15744
19.121304 31.122105 76.10939
22.782356 37.055855 77.197662
22.025578 34.694977 72.142906
23.464985 37.477581 80.084106
22.380611 38.767708 80.340836
23.394886 36.53278 78.140251
23.900391 34.114189 80.596497
17.322344 33.904945 83.077072
23.445351 36.843349 78.821968
22.184826 38.871223 80.183685
23.866392 36.800491 80.091599
19.553938 41.207638 84.632576
22.440958 32.539459 80.432915
24.02409 35.933392 79.82975
19.247786 41.062283 84.347809
18.981697 41.000698 84.32
22.092266 32.123665 81.356262
20.041117 41.341618 84.913338
21.794016 32.242508 79.378433
22.601048 32.747448 80.063774
20.644815 31.675213 74.344788
22.265945 32.326744 80.811325
20.879833 31.847235 74.555328
21.331945 32.206348 74.854576
17.032803 39.754997 85.253937
21.15255 32.101852 73.501671
21.637878 32.466576 75.160553
22.271137 33.794632 73.804276
21.975004 32.942101 74.446342
21.916363 33.580467 72.735863
22.132431 32.864231 75.503082
21.424831 32.365829 73.756027
16.879908 39.445904 85.226944
21.835758 33.083355 73.26001
20.414959 31.533255 74.119659
20.629454 31.655754 73.10392
21.115196 32.025093 74.670494
21.81019 32.202293 79.745796
22.250011 33.224308 74.769638
21.756243 32.815544 73.599823
24.134459 36.307056 80.509811
22.220522 33.348022 74.232925
22.289518 33.604912 74.081184
18.774868 40.980576 84.41851
21.68005 32.561951 74.641373
24.069485 35.97718 80.068901
24.083324 35.795921 79.974182
