# .PCD v0.7 - Point Cloud Data file format
VERSION 0.7
FIELDS x y z
SIZE 4 4 4
TYPE F F F
COUNT 1 1 1
WIDTH 1352
HEIGHT 1
VIEWPOINT 0 0 0 1 0 0 0
POINTS 1352
DATA ascii
0.13628864 -0.25571465 0.065957233
0.16584505 -0.2470779 0.057617448
0.14532258 -0.23389214 0.0845863
0.2043383 -0.25692329 0.029526224
-0.25535563 -0.20470273 0.030171689
-0.21953422 -0.20238596 0.061227154
-0.20403993 -0.23149335 0.077503845
0.17675047 -0.22298388 0.083914645
0.20366664 -0.21928334 0.060112182
0.21046294 -0.21151471 0.079218157
0.23046124 -0.21365553 0.043289393
-0.30039009 -0.16938527 0.024541968
-0.24910371 -0.16612777 0.055922784
-0.22309865 -0.17583053 0.086920448
-0.21195777 -0.21022578 0.081106432
0.23330334 -0.20223847 0.0736527
0.24426371 -0.19677579 0.068053931
0.30964923 -0.20291953 0.093554758
-0.3286345 -0.13651186 0.024968054
-0.28898698 -0.13617076 0.044813793
-0.25339392 -0.13847986 0.066722572
-0.23326977 -0.1456987 0.085803486
0.32366607 -0.16358748 0.059308413
0.34310973 -0.140898 0.04050396
0.36891121 -0.12397101 0.032455157
0.35347643 -0.13240618 0.035305791
0.39427993 -0.1461087 0.058171235
-0.34873301 -0.088764578 0.032612607
-0.31312001 -0.09480723 0.047832984
-0.26521754 -0.11325721 0.068662666
0.39923126 -0.11058167 0.052334435
-0.37262118 -0.04919878 0.033206537
-0.33442289 -0.059400078 0.048088949
-0.30153468 -0.066913605 0.062392805
-0.28286603 -0.082193203 0.068300784
0.40125561 -0.070594773 0.046081088
0.35966629 -0.048107725 0.059953023
0.37390238 -0.086604677 0.059567224
0.42294857 -0.067250997 0.036415353
0.44008598 -0.068889 0.029655771
-0.40899438 -0.0020697427 0.028865669
-0.38037699 -0.016808312 0.037845228
-0.35081434 -0.020619797 0.050404307
-0.31895965 -0.037500128 0.061347019
0.38096634 -0.01692109 0.045304086
0.3472496 -0.012679019 0.059211891
0.42479074 -0.039710142 0.030935312
-0.42845511 0.04062555 0.03003132
-0.38028303 0.015309678 0.045228634
-0.34686238 0.011912349 0.059050739
-0.32217985 -0.0087225819 0.066311143
0.35004839 0.020293307 0.051063724
0.31198964 0.037154507 0.06522835
0.3248021 0.0058070016 0.065922216
0.37879962 0.015720902 0.039082058
0.41720289 0.0076958747 0.024393115
-0.45909688 0.089447938 0.025127728
-0.42390811 0.08656542 0.039326917
-0.3929247 0.053260364 0.04680286
-0.36007634 0.046157125 0.059816357
0.33300209 0.059783056 0.049042199
0.301882 0.0692176 0.061993625
0.37411878 0.048810162 0.033020046
-0.38361427 0.089426875 0.056455214
-0.39235523 0.12192018 0.056139458
0.31108707 0.094305299 0.049450204
0.26541197 0.11212888 0.069535054
0.28390867 0.081595883 0.068274871
0.34506291 0.088386215 0.03482917
-0.37370881 0.12622945 0.035830818
-0.39595696 0.14571382 0.057296854
0.28547063 0.13449521 0.048098627
0.25282016 0.13662863 0.068760037
0.31802574 0.13022068 0.033028871
-0.35563466 0.13268723 0.035829395
-0.3481721 0.13904193 0.039689939
-0.31636584 0.15671888 0.045416836
-0.28766873 0.18331476 0.069716416
0.24643555 0.1640946 0.059858494
0.22439069 0.17357726 0.089345708
0.23490775 0.13922472 0.088695407
0.29463869 0.16818748 0.02861426
-0.24008174 0.19895281 0.064671434
-0.23041713 0.21535535 0.042229656
-0.22785777 0.2042754 0.069374464
-0.19961365 0.22222798 0.060668245
-0.20583881 0.21421219 0.081705488
0.21905243 0.20262885 0.063211948
0.20255281 0.23481268 0.074279368
0.21288224 0.21034624 0.082885943
0.2535724 0.20390555 0.032278344
-0.20423041 0.25793236 0.029483516
-0.17239881 0.22491403 0.087832414
-0.16357528 0.25119385 0.056385174
-0.13765077 0.23603271 0.087744154
0.21210267 0.23567709 0.041140597
0.19750953 0.24547721 0.070294686
-0.17035079 0.30334836 0.023065373
-0.13373272 0.25670353 0.066952623
-0.1273316 0.30022779 0.042905871
-0.10853598 0.26760295 0.069371618
-0.08360175 0.31175333 0.052476227
-0.077631131 0.28495932 0.068928592
0.16349238 0.31725416 0.056294631
0.1851005 0.28547922 0.071544617
-0.1438338 0.33566996 0.019148454
-0.095540702 0.34005755 0.034888104
-0.063666947 0.30351919 0.062649056
-0.051049214 0.34022838 0.048003249
-0.032499019 0.31356987 0.065558344
-0.010728134 0.348286 0.053984683
-0.0029595552 0.32668132 0.065637492
0.15761089 0.35566884 0.060698424
-0.054017439 0.38163832 0.028148426
-0.014263269 0.38159561 0.038222197
0.015718624 0.34790161 0.059492912
0.024943212 0.37896761 0.047577303
0.04544045 0.35831961 0.060064632
0.066702053 0.39053872 0.049800128
0.078015476 0.3700473 0.059959002
0.12681964 0.37369457 0.036818519
0.13881071 0.36565688 0.046266161
-0.015122445 0.43018907 0.016756848
0.024356201 0.42200619 0.028933149
0.054669142 0.41067424 0.039467003
0.11134558 0.40318891 0.050892889
0.14382808 0.3984426 0.056407668
0.063690268 0.43820399 0.029619897
-0.15966575 -0.37668696 0.065961793
-0.11460027 -0.37036046 0.064039923
-0.17536019 -0.35463241 0.075495705
-0.12408037 -0.34402937 0.075479761
-0.070367306 -0.33854279 0.07186123
-0.023648355 -0.32304537 0.071799725
-0.18950689 -0.33282274 0.084414043
-0.13848102 -0.31787199 0.086811401
-0.080168001 -0.30527306 0.087126873
-0.041401133 -0.30437902 0.083033144
0.010798716 -0.292173 0.080546096
0.056818791 -0.28132111 0.076447532
-0.19480157 -0.27484253 0.10542082
-0.22405332 -0.26742271 0.10845966
-0.15896989 -0.28780252 0.099408068
-0.095151775 -0.2758069 0.10099966
-0.057504714 -0.2730633 0.099501736
-0.0076245801 -0.25851601 0.10253346
0.022704246 -0.25132823 0.10388275
0.05251693 -0.25051934 0.099240363
0.030037854 -0.23510364 0.12110643
0.091977663 -0.24574739 0.093492687
0.12520812 -0.23794459 0.090050399
-0.21559964 -0.2253277 0.095324583
-0.23405077 -0.24423067 0.11620096
-0.22529015 -0.20486504 0.10567935
0.068563566 -0.23635556 0.1279352
0.10563549 -0.23671715 0.11914983
0.14885569 -0.23180342 0.10875122
0.18065172 -0.22722594 0.10505439
0.22586554 -0.21310745 0.09223564
0.20594983 -0.22212772 0.10162861
0.24080263 -0.22604121 0.10892746
-0.2289978 -0.17919907 0.10741046
0.26061243 -0.20817947 0.093091227
0.27946129 -0.19332099 0.10395878
-0.23719494 -0.12706935 0.090629235
-0.23306049 -0.14785233 0.11107084
0.32935765 -0.16237628 0.084422305
0.29311258 -0.16022065 0.097911283
0.36528957 -0.16817321 0.071257047
0.38236716 -0.15540543 0.06361825
-0.24616396 -0.091186993 0.093465634
-0.23731965 -0.10382494 0.12035534
0.31251922 -0.11395079 0.087616026
0.27177608 -0.091414772 0.10291726
0.34370479 -0.13467398 0.076909348
0.37547976 -0.13181566 0.064187974
-0.28115228 -0.058393016 0.076183587
-0.25064862 -0.052369729 0.099374183
-0.23655687 -0.066983931 0.1271545
0.29860485 -0.061857514 0.088604584
0.2686826 -0.051770955 0.10155145
0.33970445 -0.083634175 0.073438302
-0.29024544 -0.011587737 0.081547752
-0.2505914 -0.022833254 0.10463642
-0.23448923 -0.029083751 0.12281305
0.29301292 -0.030271895 0.087292016
0.25758326 -0.0067374725 0.10349268
0.31906497 -0.028385613 0.074859068
-0.31856105 0.028883507 0.075368434
-0.29185128 0.030986007 0.087691195
-0.2555652 0.0055548516 0.10437106
0.29298729 0.012138959 0.080346793
0.25298759 0.020700373 0.1033694
-0.34178296 0.086635746 0.073750071
-0.297708 0.066008784 0.089666024
-0.268038 0.049953036 0.10147657
0.25312454 0.049261164 0.09826263
0.23641306 0.063311614 0.12576534
0.23529866 0.027361641 0.12173225
0.28615683 0.056126092 0.074189968
-0.3716161 0.13169724 0.065845624
-0.34606802 0.14026965 0.076571383
-0.31823075 0.12858552 0.086886853
-0.28512332 0.10389615 0.098008089
0.24870594 0.087164186 0.092443489
0.23801149 0.096825086 0.12300666
-0.38090372 0.15735267 0.064154379
-0.36515006 0.16891409 0.071228005
-0.34280512 0.18403196 0.080602475
-0.29271114 0.15919083 0.098015778
0.23724502 0.12676615 0.091899097
0.23626472 0.14077048 0.11689198
-0.28717899 0.21590117 0.10164683
0.23366009 0.17669354 0.11381869
-0.25193158 0.20712319 0.089644954
-0.2254755 0.21419369 0.09252435
-0.2395177 0.22747852 0.10936935
0.21662946 0.22711352 0.096624337
0.22683503 0.20613834 0.10725842
-0.20533173 0.22433832 0.10334691
-0.17677355 0.23289962 0.11230596
-0.13875407 0.23574656 0.11489608
-0.12514892 0.23815559 0.091340192
-0.096746787 0.2384181 0.1230434
-0.086485408 0.24776724 0.094039068
-0.063504942 0.23684274 0.12578726
-0.048312183 0.25288653 0.098813564
-0.027134603 0.23615001 0.12080321
0.22588433 0.26543251 0.10946046
0.23437959 0.24502565 0.1162525
-0.053619117 0.2854422 0.075289279
-0.019446202 0.2541692 0.1028401
-0.010127513 0.29566085 0.079357669
0.009949021 0.26106659 0.10179859
0.042018097 0.30574286 0.082920961
0.055839919 0.27518994 0.098732702
0.081256464 0.30485168 0.087855764
0.1080989 0.28882185 0.096807986
0.14533482 0.32171005 0.086319685
0.15624736 0.2889044 0.099325784
0.18895079 0.33530268 0.083787657
0.20942855 0.28635046 0.10205256
0.024375221 0.3248904 0.071475714
0.069939055 0.33918059 0.071926713
0.12191104 0.34438246 0.075517908
0.17490205 0.35660842 0.075079724
0.11248732 0.37022951 0.064210184
0.15056573 0.37633395 0.065612152
-0.1991023 -0.24109617 0.11715107
-0.15919624 -0.25167301 0.11303087
-0.10919254 -0.25408918 0.11082114
-0.071527265 -0.25338277 0.10998747
-0.02785999 -0.23207447 0.12189255
0.016780494 -0.23326717 0.12328826
-0.22274417 -0.21680456 0.12512755
-0.18628895 -0.20916575 0.12820825
-0.16049999 -0.21536671 0.12645009
-0.11008373 -0.21058424 0.13050538
-0.061729986 -0.21865042 0.12960225
-0.038543094 -0.2102198 0.14490092
-0.0058856416 -0.22198991 0.15029071
0.032364886 -0.23334633 0.14400889
0.070874088 -0.25886765 0.16566169
0.10601986 -0.25206196 0.14637806
0.14235123 -0.24591024 0.132296
0.19048317 -0.25026223 0.13301009
0.2253633 -0.24070354 0.12239508
0.19009395 -0.21586271 0.13396618
-0.20551451 -0.1866007 0.13518023
-0.25188774 -0.18467426 0.13450259
-0.16822478 -0.18846962 0.13611384
-0.12011391 -0.17838903 0.14514208
-0.082756691 -0.18053471 0.15953192
-0.057034355 -0.19793148 0.15518023
0.22273047 -0.18907693 0.12372246
0.19187175 -0.1697651 0.13496441
0.25427651 -0.21015915 0.11294431
-0.25877544 -0.14329849 0.14625563
0.22038607 -0.14635327 0.12508713
0.18060645 -0.11934683 0.14454103
0.25343487 -0.16905187 0.11278117
-0.24947727 -0.10021382 0.14398497
0.20992397 -0.096552573 0.13216133
0.18235664 -0.079847664 0.16082342
0.25384745 -0.123561 0.11172371
-0.2584947 -0.064913146 0.1670426
0.21074568 -0.056699775 0.13718154
0.19990689 -0.053458504 0.15722254
0.24282557 -0.073847435 0.11559878
-0.23305196 -0.015545428 0.12420961
-0.23317581 -0.030691292 0.14339589
0.21174249 -0.034814063 0.14584818
0.23049997 -0.029154647 0.12374324
0.22120494 -0.0090311058 0.14839132
-0.22872818 0.025928237 0.12539691
-0.22227125 0.0072162892 0.15143672
0.23328027 0.01465701 0.12404789
0.2345154 0.029109405 0.14908576
-0.24126674 0.074087486 0.1163493
-0.21175078 0.03425746 0.14683105
-0.21250074 0.054770816 0.1360677
-0.20413703 0.047686934 0.15283839
0.26019302 0.076876618 0.16420762
-0.25586244 0.13191989 0.11100934
-0.21158962 0.098237872 0.13105176
-0.18827461 0.078275457 0.1530488
0.26108992 0.1167744 0.1537105
-0.25976029 0.17703065 0.11052332
-0.22270858 0.14932153 0.12404704
-0.18195349 0.12136099 0.14362395
0.25757048 0.15641963 0.14284438
-0.25522324 0.212302 0.11256848
-0.22445193 0.18950717 0.12304283
-0.19358581 0.16948155 0.13432379
0.25071719 0.19241503 0.13245346
-0.22559708 0.2414484 0.12222567
-0.19570726 0.2093033 0.13225272
0.063392162 0.2205148 0.12885086
0.038929716 0.21170692 0.14376403
0.057582699 0.19903652 0.15433519
0.083524272 0.18125422 0.15936336
0.11081316 0.21243837 0.1300336
0.12017566 0.17963016 0.14504015
0.16088262 0.2174398 0.12601532
0.16702779 0.19032204 0.13587211
0.18533568 0.21154407 0.12773475
0.20236205 0.19017683 0.13441546
0.21987899 0.21975259 0.12452879
-0.19666308 0.24989553 0.13109249
-0.16198851 0.257056 0.14113234
-0.12361086 0.26108453 0.15170918
-0.07929419 0.26077989 0.16340955
-0.030132981 0.23505981 0.14828712
-0.014381855 0.23433149 0.12294459
0.0097873555 0.22148286 0.14703748
0.031080507 0.23410827 0.12101162
0.071131475 0.25375065 0.11035106
0.11336768 0.25590202 0.11060362
0.16781162 0.2605817 0.11020272
0.20211917 0.24617337 0.11575451
-0.0063812286 -0.24015687 0.18547407
-0.031823944 -0.21255338 0.16446757
0.028539335 -0.25141251 0.17645322
0.066288926 -0.21727264 0.16969706
0.041395124 -0.20418711 0.17746598
0.10252775 -0.22875178 0.15910484
0.14023574 -0.2427094 0.1479073
0.17025539 -0.2400054 0.13933204
-0.22408265 -0.15105005 0.14542338
-0.18195976 -0.16012812 0.14508456
-0.13329026 -0.16206735 0.15082285
-0.10425176 -0.15808268 0.16976312
-0.087530054 -0.18857041 0.2082763
-0.057456594 -0.19983742 0.17802574
0.061454061 -0.18433972 0.17587353
0.090399168 -0.17734382 0.16880332
0.062678933 -0.16036643 0.18412079
0.12952536 -0.18443055 0.15518422
0.16557314 -0.19829337 0.14244121
-0.2411671 -0.12350776 0.15253289
-0.19589661 -0.13415551 0.15240163
-0.14354025 -0.12780166 0.16474347
-0.12054298 -0.13311569 0.18544303
-0.10437534 -0.15937075 0.19729543
0.090908252 -0.14632024 0.18307614
0.12258071 -0.14218324 0.16820711
0.11911222 -0.12810659 0.19105576
0.15782329 -0.14358862 0.15094586
-0.24845541 -0.092736453 0.16042282
-0.18913275 -0.094290465 0.16517539
-0.14667703 -0.091817364 0.18224731
-0.12695691 -0.12189083 0.18879193
0.13369909 -0.12008854 0.18588549
0.15643328 -0.10539575 0.1715654
0.16030692 -0.10433972 0.19875321
-0.22310919 -0.063539647 0.16974005
-0.18844715 -0.061091609 0.17499459
-0.16128156 -0.06344939 0.18327686
0.18984966 -0.086512432 0.20807216
0.20141932 -0.056465734 0.17893229
-0.20308925 -0.038980968 0.17808667
-0.25104153 -0.025088536 0.17716759
0.21352826 -0.031133749 0.16494904
0.24222082 -0.001950672 0.18443739
-0.23894969 0.010947797 0.18651187
0.25330874 0.033700831 0.17519589
-0.21229544 0.034199376 0.16563778
-0.1971622 0.059305578 0.17188942
0.22478959 0.071125239 0.16793549
0.18936108 0.064717568 0.17415182
0.20436877 0.043719336 0.17702267
-0.18228833 0.078904688 0.17717442
-0.15733474 0.10567395 0.17052418
-0.17049116 0.10534596 0.2141726
0.18899406 0.097721957 0.16444252
0.14663771 0.09372019 0.182009
0.16151898 0.065779582 0.18283442
0.23408376 0.095388666 0.16072519
-0.15946247 0.14316015 0.15043591
-0.13253804 0.12147943 0.18833724
-0.12333269 0.14277036 0.16784722
-0.12106203 0.1278629 0.19027363
0.14441973 0.12974007 0.16386908
0.12064346 0.13432978 0.18539007
0.1270813 0.12311203 0.18869711
0.19021012 0.13813965 0.15196459
0.23420449 0.13003361 0.15136638
-0.16597264 0.19890071 0.14230028
-0.13180943 0.18720889 0.15403281
-0.091786928 0.14713572 0.18252861
-0.092479661 0.17937306 0.16781448
-0.063960209 0.16179205 0.18339275
0.10444506 0.15919824 0.1695883
0.08777944 0.18955699 0.20829681
0.10444023 0.1602426 0.19657224
0.13282613 0.16361058 0.15071039
0.17882636 0.1631109 0.14466432
0.21520898 0.1586678 0.14382723
-0.17291586 0.23053502 0.13879222
-0.13916236 0.22911084 0.14879221
-0.1099892 0.23243326 0.15684956
-0.063679479 0.18574086 0.17509225
-0.070701286 0.21922529 0.16838649
-0.044802703 0.20511305 0.17656541
0.032198325 0.21312313 0.16332385
0.057261817 0.20043907 0.17600536
-0.035780437 0.25427198 0.17451513
0.00050442741 0.24329226 0.18390583
-0.035949279 -0.22615938 0.19300582
0.013910014 -0.20590541 0.18370309
-0.05640455 -0.19842349 0.20026708
-0.027013026 -0.16420732 0.19994733
0.0092559513 -0.16833921 0.192829
0.038262043 -0.168891 0.18644525
-0.1016235 -0.15586384 0.21506549
-0.12184046 -0.13921757 0.21242554
-0.052855775 -0.15293917 0.20663573
-0.07303942 -0.10911337 0.22480071
-0.024901189 -0.14100818 0.21175133
-0.00026025 -0.14468452 0.21177383
0.030827388 -0.14759381 0.20907125
0.063104592 -0.14613916 0.20243266
0.095379524 -0.13775866 0.20229685
0.1208049 -0.13182193 0.21894084
-0.13295031 -0.11845964 0.21922499
-0.13808925 -0.094796412 0.20172115
-0.037573047 -0.12644495 0.22519732
0.14000455 -0.12146118 0.21264593
0.1525548 -0.098316997 0.21483003
-0.16619301 -0.037583552 0.18787912
-0.14623657 -0.063838609 0.20232362
0.15486389 -0.05240247 0.20630118
0.12713511 -0.037441477 0.22491288
0.10862906 -0.077138536 0.22437675
0.19984624 -0.054572906 0.19986334
-0.19740564 -0.0078175077 0.18606515
-0.1615808 -0.019701684 0.19423239
-0.14734755 -0.032635089 0.21107967
0.14321734 -0.022997139 0.21048574
0.17198677 -0.020711251 0.19711691
0.14555064 0.0012703576 0.21159473
0.22737885 -0.034777902 0.19298731
-0.22350466 0.042162478 0.19473949
-0.16947955 0.024512002 0.1981402
-0.14387907 0.0032207591 0.21324725
0.16253801 0.02287861 0.1934218
0.14785433 0.035027348 0.2100672
0.19902994 0.012569316 0.18501709
-0.1992791 0.076650552 0.20449319
-0.13945051 0.029920293 0.21280281
-0.15158336 0.046629194 0.20636296
-0.1215267 0.04891124 0.22502677
0.16684669 0.04093248 0.18710837
0.14641762 0.065656014 0.20193639
-0.14317638 0.073036008 0.21169809
-0.14309153 0.10090515 0.21661808
0.13811599 0.096468613 0.2014837
-0.14414471 0.12354452 0.22151217
-0.12183534 0.13486762 0.22733957
0.057924934 0.15473665 0.20711976
0.024991844 0.14233103 0.21141052
0.038902953 0.12836714 0.22291128
0.081378043 0.11838707 0.21997267
0.12193069 0.1404607 0.21235438
0.13298188 0.12002735 0.21921617
-0.095453292 0.13857612 0.2021414
-0.062940337 0.14717387 0.20209898
-0.041081104 0.169801 0.18574484
-0.029435696 0.14865243 0.2088355
-0.0098251095 0.17008743 0.19239736
0.00042837823 0.14582941 0.21148227
0.028013425 0.16628554 0.19974717
0.061508443 0.21133964 0.20019418
0.1036618 0.15941748 0.21509112
-0.017278757 0.20717928 0.18282501
0.033814121 0.22844116 0.19237031
-0.11088778 -0.11694805 0.22285719
-0.015748151 -0.13480866 0.22589432
0.018853895 -0.14445446 0.25235665
0.05910112 -0.1482686 0.24242213
0.097222239 -0.14255081 0.23340186
-0.14416522 -0.091661058 0.23460539
-0.085342251 -0.086539194 0.23373869
-0.045678791 -0.10779396 0.27258614
-0.065862723 -0.085880063 0.26370394
-0.017320981 -0.13018335 0.26235324
0.020928152 -0.11316923 0.2498716
0.045188759 -0.11168811 0.24259268
0.030739125 -0.099397518 0.25190109
0.080980286 -0.09465377 0.23312169
0.11885911 -0.11251437 0.22304852
-0.14870311 -0.054780181 0.24350379
-0.10312057 -0.055554055 0.24091908
-0.069825485 -0.063915201 0.28851148
0.05006234 -0.088170938 0.25521469
0.083680585 -0.071812525 0.25226581
0.1065876 -0.0493121 0.26161069
-0.14411396 -0.015578 0.25298646
-0.11022665 -0.019809877 0.25049543
-0.09251269 -0.026613932 0.25926259
0.13586669 -0.014532872 0.22544616
0.13068075 -0.017185682 0.26251894
-0.13216618 0.022396889 0.22831559
-0.12937221 0.019954089 0.26311231
0.14516 0.019544687 0.25234297
0.1159316 0.019774942 0.2500222
-0.11028958 0.045889486 0.26339817
0.11767324 0.052993868 0.23979273
0.090907395 0.052443214 0.25144354
0.10093615 0.033241287 0.25064406
0.14894766 0.056502208 0.24336115
-0.11097661 0.098991536 0.22257617
-0.096446119 0.070655733 0.23766358
-0.067211449 0.10936338 0.2358499
-0.059933107 0.085962377 0.25338963
-0.045281891 0.11302006 0.24231821
-0.022858137 0.10045671 0.25421077
0.095590219 0.089496911 0.22988071
0.078997768 0.081583925 0.24426229
0.14421017 0.093418673 0.23421417
-0.092387125 0.14466205 0.23442629
-0.05624482 0.14926316 0.24306931
-0.017158747 0.11583909 0.25069958
-0.017554112 0.14518964 0.25266871
0.020862009 0.12933148 0.26338479
0.015282544 0.13609079 0.22561245
0.060977723 0.10539464 0.23762941
0.11582796 0.12163261 0.22317921
-0.060276195 -0.08806587 0.27989665
-0.029951043 -0.089754842 0.26928079
0.011174749 -0.09533596 0.25986162
-0.055113621 -0.068104878 0.28242755
-0.039178878 -0.056483958 0.28782246
-0.015189354 -0.071507305 0.28255767
0.029491473 -0.074571483 0.29103127
0.06207874 -0.070076577 0.28913218
0.042212274 -0.058539081 0.29410058
0.085948966 -0.061457194 0.28099597
-0.093177795 -0.0017751125 0.26307443
-0.074030541 -0.021439597 0.29210752
-0.051373228 -0.041376047 0.29451627
0.060384076 -0.044558953 0.28485566
0.087740436 -0.036197811 0.27184016
0.072148502 -0.017580505 0.28162661
-0.091163963 0.035439912 0.27003217
-0.069962151 0.02245261 0.28224391
0.093058757 0.014246783 0.26162463
0.066846408 0.018607439 0.30696145
-0.092545718 0.060306378 0.27058482
-0.064873599 0.045854464 0.28227636
-0.073220223 0.067796551 0.28527135
-0.04259013 0.072924964 0.29629293
0.072269224 0.054687675 0.29191676
0.041528657 0.055780724 0.28836343
0.049695048 0.037007872 0.29796141
-0.018744135 0.086186737 0.26993737
0.0010686037 0.10331788 0.25856274
0.022746982 0.07218127 0.2806116
0.053898115 0.099327505 0.27606174
0.069645792 0.080632955 0.26544416
-0.013474048 -0.03216074 0.32834691
0.003254157 -0.056235965 0.31534368
-0.048066754 0.0048254514 0.32137978
-0.0058906814 -0.0073874355 0.34869313
0.01758136 -0.013177766 0.33769149
0.042575866 -0.03872899 0.29826036
-0.041850992 0.043282289 0.29691648
-0.01988066 0.014955399 0.33562157
0.0062421989 0.0082826866 0.34873015
0.043270018 -0.0067273933 0.32468253
-0.0051672882 0.059199661 0.31398556
0.010717086 0.032868303 0.33181483
0.022044459 -0.057140242 -0.31217757
-0.041930147 -0.030921062 -0.31154832
-0.028997509 -0.030837353 -0.31750757
-0.01373565 -0.029094286 -0.32401344
0.00036838735 -0.03220658 -0.32378566
0.012258058 -0.044796694 -0.31645694
0.009465307 -0.026910754 -0.330414
0.035087395 -0.047981024 -0.30421105
0.036069117 -0.035057217 -0.30988556
0.019082528 -0.030684173 -0.33008942
-0.050058667 -0.021540787 -0.31696659
-0.034840856 0.0088594193 -0.31976539
-0.042112652 -0.0079194382 -0.31766415
-0.02745147 -0.0020815872 -0.32899323
-0.0202627 -0.014429831 -0.33774844
0.01278653 -0.015533099 -0.34138718
0.00027770345 0.00057780027 -0.35562041
-0.0085243583 0.010855746 -0.34653494
0.037014678 -0.022836698 -0.31367806
0.040042982 -0.0080463672 -0.31503901
0.033668913 0.004107269 -0.32381698
0.019660883 0.00056478847 -0.33639315
0.048725288 0.0090565607 -0.31272423
-0.033094943 0.02219912 -0.31800297
-0.032932363 0.033354037 -0.31409088
0.0045779711 0.035095111 -0.32097831
-0.0059244493 0.029554995 -0.32825011
-0.012071451 0.016175175 -0.34142989
-0.018366223 0.030197328 -0.33105463
0.028035605 0.018491331 -0.33232734
0.019347262 0.033580676 -0.31895962
0.033996344 0.034796722 -0.31240818
0.058880176 0.022326505 -0.31145436
0.048331518 0.034894384 -0.30498549
-0.032412179 0.044038225 -0.30952111
-0.01017173 0.044338036 -0.31697229
-0.021894753 0.053364858 -0.31521556
-0.023920009 -0.10585359 -0.26601589
-0.013642518 -0.10654859 -0.27178463
0.0013291242 -0.10510277 -0.28102672
-0.060477208 -0.070552349 -0.26240164
-0.044996601 -0.079265408 -0.26559934
-0.032901332 -0.092742428 -0.26516998
-0.033536829 -0.078736112 -0.27218953
0.010392447 -0.060178507 -0.30486876
0.0054033226 -0.073268026 -0.29470134
-0.0077556376 -0.094366767 -0.27833724
-0.017417103 -0.081510149 -0.27887079
-0.0010177239 -0.084123045 -0.28603724
0.035092805 -0.061137453 -0.29540744
0.05021552 -0.059285052 -0.28124624
0.039117634 -0.072261818 -0.28229257
0.028882453 -0.084995151 -0.28050369
0.018025497 -0.096564822 -0.27780822
0.013692202 -0.086862072 -0.29325211
0.065888889 -0.054004598 -0.27050397
-0.091701798 -0.028072136 -0.27388135
-0.069324657 -0.05308808 -0.27083424
-0.081337921 -0.037086997 -0.27584818
-0.070171133 -0.037621137 -0.2854678
-0.059508018 -0.036607243 -0.29456753
-0.051672757 -0.032249857 -0.30444452
-0.047156215 -0.04460109 -0.29428566
-0.037017271 -0.04148481 -0.30280453
-0.027861668 -0.067681782 -0.28303969
-0.034452211 -0.053957906 -0.2917203
-0.0032093988 -0.059965819 -0.29935655
-0.018094342 -0.058097478 -0.29504585
-0.0094027817 -0.04544273 -0.30919084
0.048798177 -0.039314948 -0.29464725
0.063178338 -0.030646021 -0.28555608
0.05936164 -0.044894926 -0.28154263
0.080221213 -0.049404349 -0.26273248
0.092247583 -0.033604849 -0.26510733
0.092035748 -0.018957477 -0.27296853
0.077058524 -0.020137563 -0.28033027
0.10515545 -0.021316597 -0.26756164
-0.097971089 -0.01576193 -0.27813849
-0.10528673 -0.0010339532 -0.28122205
-0.0546108 -0.0093004815 -0.30873811
-0.072913006 -0.018571908 -0.30242014
-0.065866709 -0.0074077076 -0.30050966
-0.09464696 -0.0090382807 -0.28831217
-0.078561313 -0.0058488273 -0.29278231
-0.057048019 0.0039722254 -0.30183363
-0.046374936 0.01350047 -0.30758214
0.051509582 -0.013705526 -0.30275613
0.063926302 -0.017410412 -0.29090598
0.064030796 -0.0042077475 -0.29634988
0.063139327 0.0094219157 -0.30281875
0.075946972 0.0056211636 -0.29357952
0.090471491 -0.0077839675 -0.27971157
0.088455088 0.0018115569 -0.28588635
0.11895478 -0.011997594 -0.27111527
0.11204202 -0.0040258099 -0.27645379
0.10428505 0.0030595497 -0.28198424
-0.11077019 0.010206836 -0.27350721
-0.085045002 0.034855947 -0.26835346
-0.097751856 0.019260734 -0.27122858
-0.083334111 0.019536972 -0.27721855
-0.081851564 0.0053925887 -0.28522295
-0.043523733 0.037186109 -0.30122432
-0.069316968 0.020951299 -0.28554752
-0.056384902 0.031185597 -0.29152954
-0.057608351 0.017392959 -0.29626447
0.011393614 0.048102058 -0.30712375
0.038957905 0.048012089 -0.29628724
0.030031875 0.061991647 -0.28742954
0.016037798 0.061621793 -0.29383862
0.04482289 0.059079796 -0.28250471
0.061870042 0.035325453 -0.29547578
0.059535608 0.050691321 -0.2813752
0.072783142 0.040046994 -0.28179547
0.085761331 0.030425958 -0.27918002
0.088693969 0.013461662 -0.29252037
0.10765844 0.011188757 -0.27058256
0.097733319 0.02152063 -0.2742435
-0.072812214 0.053961065 -0.26547152
-0.030496854 0.084564961 -0.28010479
-0.056687564 0.061083384 -0.2743682
-0.036478862 0.071615525 -0.28609705
-0.034677424 0.052873142 -0.30188486
-0.048768025 0.044441678 -0.29220718
-0.044457335 0.05675732 -0.28911793
0.0026550738 0.060253419 -0.30021924
-0.01043618 0.057844102 -0.30722624
-0.016617434 0.080726914 -0.29790729
-0.0073699821 0.070734315 -0.29780194
-0.0044061984 0.084409222 -0.289471
0.03324496 0.091884591 -0.26594785
0.017636197 0.090910554 -0.27456582
0.018999645 0.07547038 -0.28240249
0.0057690195 0.087927245 -0.28232762
0.054182265 0.066471741 -0.270576
0.049880974 0.080908567 -0.26259723
-0.027180044 0.094917163 -0.27210212
-0.0058544362 0.10021783 -0.28514606
-0.015882282 0.10340045 -0.27213857
-0.0041633877 0.11089205 -0.27176356
0.020108579 0.10414556 -0.26894
0.0099389413 0.11721259 -0.272872
-0.12353455 -0.14416035 -0.21161267
-0.10885515 -0.14724645 -0.21540773
-0.09332101 -0.14881356 -0.22041656
-0.078758627 -0.14890638 -0.22534537
-0.065171704 -0.14851516 -0.22822931
-0.050334565 -0.14787909 -0.22914271
-0.034008045 -0.14523204 -0.23147742
-0.016637392 -0.14195034 -0.23144697
-0.00097122887 -0.13953163 -0.22849298
-0.13246942 -0.13852029 -0.21989323
-0.1199855 -0.10939068 -0.21518251
-0.1260048 -0.12473093 -0.21662833
-0.11081745 -0.12486418 -0.22183134
-0.1038748 -0.14350948 -0.23006037
-0.073493272 -0.14289589 -0.24175133
-0.076950647 -0.12681651 -0.23652127
-0.094124213 -0.12581031 -0.22868744
-0.035033327 -0.10443994 -0.26020899
-0.041844159 -0.11460793 -0.25466204
-0.05078784 -0.13813221 -0.25137606
-0.062630273 -0.13032286 -0.24405359
-0.046532672 -0.12518021 -0.25188515
-0.02736631 -0.12816297 -0.26257077
-0.016637791 -0.12156767 -0.26852173
-0.01245799 -0.13386281 -0.24440494
-0.01660727 -0.12654689 -0.2599664
0.01846656 -0.1070255 -0.26421389
0.04148424 -0.10518933 -0.24723849
0.025480198 -0.11627981 -0.24608651
0.013309393 -0.12581487 -0.24126616
0.0078286687 -0.13454358 -0.2317052
-0.0025109476 -0.12816638 -0.24835716
0.063171223 -0.10353908 -0.23408405
0.080786392 -0.10566567 -0.22464325
0.097464256 -0.11036016 -0.21885115
0.11292665 -0.11814787 -0.21625592
0.12614685 -0.12720232 -0.21641251
0.12820908 -0.11165935 -0.22211464
0.14272363 -0.12931494 -0.21121748
0.14615482 -0.11771196 -0.21275042
0.14326233 -0.11126501 -0.22735664
-0.11531976 -0.093863666 -0.21654975
-0.11334977 -0.077297695 -0.22039378
-0.075094543 -0.063933991 -0.25719777
-0.082383424 -0.074258 -0.24460681
-0.086331949 -0.10901514 -0.23111953
-0.10043906 -0.088440284 -0.22590826
-0.08351206 -0.091067411 -0.23599084
-0.050340258 -0.10096321 -0.25248334
-0.067349829 -0.091707468 -0.24581687
-0.055373285 -0.085944414 -0.25568819
0.046499331 -0.082683489 -0.26592195
0.055419952 -0.092290573 -0.2494075
0.064790145 -0.078384474 -0.25408405
0.071498476 -0.064324059 -0.25939098
0.081980512 -0.071632013 -0.24774359
0.096626036 -0.091229416 -0.22972126
0.096992753 -0.073500358 -0.24026196
0.13340014 -0.09785831 -0.22876318
0.12934712 -0.081294052 -0.23481295
0.11326632 -0.076462038 -0.23596379
0.14894424 -0.10413785 -0.21536587
0.15071009 -0.08913102 -0.2186399
0.14453931 -0.086560547 -0.23654719
-0.13562869 -0.033034269 -0.21752207
-0.1183845 -0.057480767 -0.22381499
-0.12712263 -0.043160684 -0.22218183
-0.11649623 -0.042875107 -0.23396532
-0.10801437 -0.035097361 -0.24896504
-0.10085418 -0.027454261 -0.26392147
-0.088091813 -0.056827616 -0.25203094
-0.097821608 -0.044508841 -0.25256306
-0.089340314 -0.041924421 -0.26340982
0.093946233 -0.046680417 -0.25714481
0.096598417 -0.05883462 -0.24909829
0.107005 -0.043658946 -0.25473976
0.11326575 -0.028044801 -0.26241902
0.11899691 -0.037138246 -0.25686207
0.12795454 -0.063004375 -0.24329793
0.12793803 -0.043683149 -0.25335518
0.15110642 -0.072393075 -0.22256507
0.15007317 -0.053935129 -0.22600678
0.1395302 -0.052938033 -0.25023234
-0.1382131 -0.014267226 -0.22318149
-0.14076905 0.0095546246 -0.2307736
-0.115334 0.0086846566 -0.27389556
-0.13043649 -0.0025888474 -0.24173738
-0.12240079 0.0042743152 -0.25936851
-0.11945961 -0.019082697 -0.2467818
0.12297932 -0.0097264824 -0.26307616
0.12926626 -0.01136537 -0.25341952
0.12859261 -0.026704103 -0.26285863
0.14704202 -0.035238583 -0.22949463
0.1436803 -0.016777277 -0.22957776
0.1360378 -0.0099903056 -0.24049258
-0.14490464 0.030590814 -0.23176301
-0.14825809 0.050148357 -0.22911367
-0.10817267 0.02555172 -0.26512271
-0.12486563 0.021883763 -0.26594672
-0.11517284 0.034742057 -0.25893599
-0.13765562 0.048412692 -0.25263909
-0.12365443 0.041434158 -0.25486392
-0.10255796 0.043289121 -0.25648028
-0.08813794 0.048523732 -0.25914899
0.083057329 0.048326705 -0.2647728
0.09330219 0.057737615 -0.24755824
0.10847673 0.025931055 -0.25707307
0.10660155 0.045911696 -0.24331987
0.1185146 0.032874282 -0.23900206
0.12868656 0.021063194 -0.23345169
0.1309911 0.0035384519 -0.24114032
0.14153577 0.00057859748 -0.22567281
0.13678747 0.012113875 -0.22714709
-0.14929704 0.067982189 -0.22711293
-0.14959542 0.083167545 -0.22347248
-0.12526566 0.060932763 -0.24457833
-0.12734072 0.079535067 -0.23576647
-0.14404649 0.082262129 -0.23856699
-0.064951897 0.069937378 -0.26096779
-0.091618948 0.061249945 -0.25007659
-0.075822577 0.076810561 -0.24831873
-0.10993453 0.077315092 -0.23619413
-0.092227109 0.076911926 -0.24025227
-0.058345497 0.08415895 -0.25500998
-0.041849285 0.088418387 -0.26531604
0.047354922 0.09500514 -0.2567966
0.079356514 0.06634248 -0.25289536
0.065147191 0.072732493 -0.2585915
0.060864404 0.098969325 -0.24755368
0.073468469 0.083560467 -0.24626446
0.076759852 0.098887041 -0.23822591
0.10538521 0.065698154 -0.23186095
0.10780279 0.082258433 -0.22332186
0.094434813 0.0970167 -0.22824241
-0.14921276 0.096831918 -0.21886539
-0.14490378 0.12347676 -0.21108992
-0.14760779 0.11058398 -0.21452537
-0.11177554 0.11847419 -0.21635614
-0.12610246 0.12588066 -0.21718895
-0.12750985 0.11008373 -0.2229204
-0.13211037 0.095255412 -0.22988099
-0.14361712 0.10691904 -0.22927226
-0.091949224 0.094912037 -0.22901116
-0.09544874 0.11258501 -0.21826833
-0.077778332 0.11033115 -0.22291726
-0.028849455 0.13045301 -0.22670434
-0.057031792 0.11286546 -0.22989096
-0.033606019 0.11997069 -0.23671404
-0.030288154 0.10341582 -0.25942656
-0.048267767 0.095994264 -0.25225329
-0.042587284 0.10789678 -0.24438928
0.0064734784 0.12135672 -0.26380077
0.0052813767 0.12750614 -0.25288367
-0.014555279 0.12743297 -0.23973721
0.044595111 0.10865357 -0.25426313
0.027524529 0.11319602 -0.26312682
0.025844842 0.12829739 -0.26372331
0.037373714 0.12073232 -0.25702351
0.041387722 0.13568847 -0.25560561
0.08307185 0.11473494 -0.23286061
0.077003576 0.13072121 -0.23714253
0.061856657 0.13686979 -0.24557714
0.11209811 0.09818121 -0.2183079
0.11788593 0.11321652 -0.21664171
0.11153777 0.12796597 -0.22223735
0.094494037 0.12929761 -0.22919595
0.12656283 0.12635985 -0.21673453
0.13779311 0.13803828 -0.21806988
-0.023717286 0.13937704 -0.21811543
0.0018246826 0.13525428 -0.2376502
-0.0078053218 0.14239453 -0.22125904
0.01239965 0.14413787 -0.22745402
0.051466875 0.13932067 -0.25123912
0.032216545 0.14733987 -0.22860059
0.050300084 0.1501922 -0.22615683
0.075994521 0.14412905 -0.24094984
0.067313634 0.15127927 -0.22382012
0.083569258 0.15123372 -0.22058682
0.10768434 0.14416379 -0.22880389
0.10038123 0.14979844 -0.21683276
0.11611866 0.14710183 -0.21309721
-0.01246394 -0.18225414 -0.17266215
0.0038629207 -0.18163259 -0.17465065
0.022446886 -0.18038721 -0.17717414
0.044056132 -0.18005152 -0.18001167
0.0657098 -0.18405956 -0.1832037
0.087278046 -0.18910939 -0.188979
0.1104433 -0.19325578 -0.19793919
-0.13632369 -0.13988155 -0.21023291
-0.14448667 -0.13906354 -0.20101248
-0.11413646 -0.15077956 -0.20055464
-0.12016971 -0.15449916 -0.18438528
-0.13720861 -0.14735435 -0.18485394
-0.08289478 -0.15445332 -0.2096404
-0.085116185 -0.16101417 -0.19262998
-0.10287001 -0.15897101 -0.18737344
-0.020579139 -0.17340298 -0.18155658
-0.034228988 -0.16695461 -0.19053784
-0.069182582 -0.16019531 -0.19999516
-0.056750771 -0.15551676 -0.21227778
-0.051930144 -0.16390039 -0.19518252
-0.019027518 -0.16352798 -0.19508258
-0.018095937 -0.15282671 -0.2124005
0.01244717 -0.16908176 -0.1856301
-0.0015426087 -0.16013665 -0.1973239
0.016101034 -0.15558253 -0.19932379
0.013154163 -0.14369738 -0.21559593
0.029763667 -0.14879106 -0.20353141
0.056276396 -0.16818689 -0.18718724
0.047742996 -0.15426399 -0.1955367
0.096572794 -0.17566909 -0.1944374
0.085202426 -0.16115226 -0.1948175
0.067135401 -0.15753658 -0.19352144
0.1232108 -0.15268606 -0.20887364
0.11365753 -0.15700984 -0.20427482
0.10257416 -0.16255081 -0.19918086
0.12051875 -0.18082796 -0.19387877
0.12465604 -0.16963355 -0.20665452
0.13901883 -0.14494561 -0.20195006
-0.15005355 -0.10514577 -0.20367917
-0.13852231 -0.12650388 -0.21370566
-0.14777976 -0.13373412 -0.21452367
-0.14901289 -0.11967 -0.20861398
-0.17557999 -0.10911735 -0.19960794
-0.1618453 -0.11352342 -0.20360886
-0.14024489 -0.097536288 -0.20525397
-0.1286698 -0.097655021 -0.21005553
0.035819985 -0.12679915 -0.22608736
0.04239165 -0.13967085 -0.20920506
0.054705016 -0.12936847 -0.21479444
0.06727235 -0.11818659 -0.21983658
0.076708034 -0.14759353 -0.19923468
0.071302019 -0.13329907 -0.2077544
0.10142132 -0.14575878 -0.20364843
0.087004147 -0.1381436 -0.20452595
0.099186823 -0.12873696 -0.20984797
0.14740418 -0.12544388 -0.20073259
0.14613716 -0.13597174 -0.19152498
0.15362763 -0.12233642 -0.18593417
-0.18184075 -0.097694308 -0.19420306
-0.18746997 -0.084110804 -0.18842891
-0.14970021 -0.092343532 -0.20074341
-0.15634276 -0.082029767 -0.19626418
-0.17097975 -0.083860531 -0.19187489
-0.1259211 -0.068357714 -0.21378025
-0.14433917 -0.082772322 -0.20162861
-0.13593106 -0.07565257 -0.2060196
-0.13565004 -0.088193141 -0.20617135
0.15570581 -0.095837072 -0.20173225
0.15974744 -0.10556402 -0.18480554
0.16373554 -0.087670967 -0.18645266
-0.18514664 -0.065095372 -0.18309237
-0.18070841 -0.045950387 -0.18036729
-0.14536931 -0.025416307 -0.20905985
-0.15167475 -0.038167801 -0.19921161
-0.16327232 -0.069078624 -0.19142361
-0.17126788 -0.056662478 -0.18615569
-0.15768437 -0.053020317 -0.19333439
-0.13676415 -0.060614988 -0.20733871
-0.14496073 -0.051687535 -0.20257618
-0.13549031 -0.046876587 -0.21208987
0.16883861 -0.032575011 -0.18850094
0.16597658 -0.069072649 -0.18886027
0.15877455 -0.059590556 -0.20619839
0.167128 -0.050431911 -0.19030836
0.17482033 -0.018110801 -0.18063009
-0.17941663 -0.025004143 -0.17831986
-0.1804513 -0.0061179176 -0.1760845
-0.15286233 0.015026664 -0.21202181
-0.16879195 -0.013924393 -0.18614116
-0.16029243 -0.0005149052 -0.19713001
-0.15690339 -0.020693626 -0.1972103
0.15452991 -0.018376445 -0.21068504
0.16138317 -0.00079763401 -0.19644582
0.16501081 -0.018227052 -0.1937495
0.18327628 -0.0088131512 -0.17263368
0.18183929 0.0065395623 -0.17517084
0.1697221 0.013829067 -0.18558255
-0.18162948 0.0099712573 -0.17384432
-0.16355619 0.017769219 -0.19539833
-0.17321083 0.01913782 -0.18228489
-0.16718754 0.032994151 -0.19074939
-0.15620781 0.057087597 -0.21157907
-0.16455016 0.051239409 -0.19473806
0.12901969 0.04101932 -0.22175474
0.15706451 0.017836614 -0.19807814
0.14556602 0.015875336 -0.21298987
0.14190507 0.046854123 -0.2064686
0.15048772 0.033054225 -0.20173424
0.15714708 0.050181951 -0.19384347
0.18047604 0.024408022 -0.17767355
0.18141848 0.044497196 -0.17972155
0.1723965 0.054737218 -0.18529812
-0.16101249 0.069652371 -0.19901031
-0.15512075 0.084860221 -0.20834634
-0.16179661 0.085365601 -0.19180571
0.12014491 0.070317768 -0.21793549
0.13496839 0.076249942 -0.2066215
0.13165821 0.059015162 -0.21203862
0.16510732 0.065779872 -0.19007802
0.15937161 0.07911282 -0.19447754
0.14714964 0.085783288 -0.20049599
0.18755566 0.062716544 -0.18160129
0.19188912 0.080845073 -0.18632026
0.17515659 0.079522826 -0.18934087
-0.15972242 0.10259782 -0.18700045
-0.15136383 0.11446787 -0.20013183
-0.15528701 0.1193443 -0.1845846
-0.098937154 0.12966861 -0.2098864
-0.065935612 0.12365784 -0.21669267
-0.07191705 0.13640085 -0.2063362
-0.08749304 0.13939498 -0.20449832
-0.055127285 0.1353562 -0.21030067
-0.038600892 0.13609619 -0.2153317
0.12672313 0.10127813 -0.21131514
0.13644011 0.09330336 -0.20610216
0.15996554 0.095791541 -0.19792637
0.16244917 0.11194609 -0.20251581
0.16330902 0.12848929 -0.20911594
0.15314816 0.13592309 -0.20127299
0.1390755 0.12341127 -0.2121619
0.15011273 0.11840671 -0.20758215
0.13857637 0.10873927 -0.20795998
0.18652098 0.093560182 -0.19165167
0.17536044 0.10402883 -0.19723849
-0.14849269 0.13577759 -0.18520159
-0.14054383 0.14321168 -0.2000225
-0.12360858 0.15181911 -0.20952423
-0.11381956 0.1559826 -0.20489039
-0.10162578 0.14585617 -0.20409288
-0.12570499 0.16801636 -0.20748876
-0.077752993 0.14933121 -0.19902454
-0.0862303 0.1615546 -0.19536303
-0.102134 0.16100594 -0.1998565
-0.019280409 0.14813936 -0.20868829
-0.044947911 0.14537357 -0.20416121
-0.033055935 0.15333439 -0.19923951
-0.068619967 0.15961337 -0.19323929
-0.049766544 0.1577322 -0.19375321
0.016416704 0.15533456 -0.20929845
0.00068454247 0.16279115 -0.19493908
-0.018168028 0.15905218 -0.19607626
0.018115241 0.16606374 -0.19265133
0.032582697 0.16964184 -0.18784153
0.057217687 0.15923497 -0.20628895
0.049771924 0.16766159 -0.19016685
0.093772836 0.15648484 -0.20223166
0.068218485 0.16648741 -0.18898895
0.086946346 0.16440125 -0.18646176
0.10538038 0.16059025 -0.18422443
0.12206223 0.15525 -0.18339646
-0.11979815 0.1791319 -0.20366922
-0.097873427 0.17424607 -0.19546182
-0.11339191 0.18943855 -0.19966689
-0.089795299 0.18726839 -0.19042225
-0.057915851 0.17033684 -0.18695234
-0.067647927 0.18478049 -0.18391037
-0.045630675 0.18228491 -0.17983942
-0.012912947 0.17144868 -0.18432179
-0.023418073 0.18250158 -0.17662804
-0.0042528757 0.18375494 -0.17385286
0.019694565 0.17584307 -0.17980811
0.011826362 0.18456468 -0.17157964
-0.05098971 -0.27150276 -0.14198509
-0.029770244 -0.27239764 -0.14859377
-0.0069861771 -0.28010023 -0.15713456
0.012665808 -0.27213314 -0.14963242
0.028316796 -0.26493508 -0.14899094
-0.057385985 -0.2510455 -0.13805023
-0.063072734 -0.23308894 -0.13666734
-0.016863547 -0.25943482 -0.15101874
-0.026624439 -0.23840725 -0.14717926
-0.046073131 -0.23529981 -0.14154348
0.023476809 -0.26706165 -0.16574712
0.015267824 -0.24565685 -0.16065742
-0.0046172626 -0.24356186 -0.15384774
0.041122645 -0.25841835 -0.14596207
0.051835872 -0.25173852 -0.15307471
0.051639985 -0.25053471 -0.17451882
0.032908991 -0.24587722 -0.16700074
0.065081134 -0.24279226 -0.15645351
0.077911265 -0.23345652 -0.15581517
0.088989511 -0.22531119 -0.15221116
-0.09495987 -0.19837223 -0.13674934
-0.079951331 -0.2052497 -0.13859177
-0.069243796 -0.21787767 -0.13741472
-0.065073475 -0.20455639 -0.14382695
-0.026410982 -0.18260291 -0.17075196
-0.032199208 -0.19261545 -0.16070327
-0.036693539 -0.22018705 -0.14655288
-0.049563538 -0.20522748 -0.14816639
-0.033176087 -0.20536301 -0.15260492
-0.018815884 -0.20263025 -0.15759809
-0.0061493511 -0.19336995 -0.16528359
0.0066377628 -0.22475199 -0.15839133
-0.00041257616 -0.20749131 -0.16008684
0.018958587 -0.20902112 -0.16468795
0.031581331 -0.19450714 -0.17199676
0.04683445 -0.23080888 -0.17150818
0.039715551 -0.21139854 -0.17023034
0.061318249 -0.21671344 -0.17703748
0.075201288 -0.20282955 -0.18303059
0.08338704 -0.22733301 -0.16802034
0.083480425 -0.22480524 -0.18580464
0.11510648 -0.19194123 -0.18151273
0.1256036 -0.18452194 -0.16346507
0.11507971 -0.19740959 -0.16212176
0.10451027 -0.2092264 -0.16015746
0.096910186 -0.21806389 -0.1539471
0.092890203 -0.21837737 -0.17095838
0.13842064 -0.17356642 -0.15124168
-0.15340529 -0.13850434 -0.18752179
-0.16291757 -0.13849296 -0.16997637
-0.17161924 -0.13920619 -0.15208901
-0.15707052 -0.14893769 -0.15265048
-0.097440369 -0.18720146 -0.14411025
-0.10853142 -0.17582056 -0.15123001
-0.14093448 -0.15882267 -0.15234582
-0.12915125 -0.15728346 -0.16824299
-0.12444424 -0.16751294 -0.15243125
-0.092375733 -0.1779312 -0.15718411
-0.088666946 -0.16882466 -0.17429617
-0.062909871 -0.19215846 -0.15292524
-0.074577205 -0.17990689 -0.16221684
-0.04053387 -0.18241671 -0.16858067
-0.057319645 -0.18112208 -0.16621263
-0.04727238 -0.17285462 -0.1801381
0.12812795 -0.17040087 -0.19099227
0.13207647 -0.17238168 -0.17164257
0.13629262 -0.16074055 -0.18232875
0.14156795 -0.14815784 -0.18769889
0.14628778 -0.15179402 -0.16772024
0.148932 -0.16001935 -0.14942145
0.15668184 -0.1462969 -0.15122744
-0.20620838 -0.11519331 -0.13716161
-0.18408862 -0.13102584 -0.14834349
-0.19600679 -0.12267865 -0.14320284
-0.19400918 -0.1181046 -0.16182849
-0.19294775 -0.114012 -0.1812095
-0.19096096 -0.11162774 -0.19909659
-0.16868375 -0.12946841 -0.18843232
-0.1816272 -0.1204769 -0.18994734
-0.17452653 -0.12165023 -0.20504785
0.17923181 -0.10056345 -0.15195121
0.16360173 -0.13193098 -0.15324982
0.16190307 -0.11845594 -0.16926029
0.17122942 -0.11597459 -0.15370709
0.18970816 -0.091186993 -0.14509225
-0.216484 -0.10141249 -0.14389415
-0.2284386 -0.084986322 -0.15162918
-0.20062755 -0.076562829 -0.18404989
-0.21893147 -0.093205668 -0.16516629
-0.2196316 -0.088340916 -0.1880434
-0.20623885 -0.10409657 -0.1739676
0.17322475 -0.078678876 -0.171765
0.18422498 -0.067590103 -0.15991402
0.18173708 -0.084784739 -0.15630175
0.19967797 -0.088475302 -0.13877684
0.20928249 -0.073942535 -0.1389844
0.21056829 -0.05828511 -0.14322476
0.19686663 -0.056217175 -0.15158932
0.22303797 -0.064681955 -0.13766472
0.23861396 -0.061311699 -0.13675588
0.2570329 -0.061164498 -0.13722111
-0.25975204 -0.038674038 -0.14650276
-0.25151303 -0.052324172 -0.152052
-0.24054185 -0.068607412 -0.15403536
-0.24894257 -0.05390751 -0.17540859
-0.1925648 -0.034807801 -0.17366807
-0.22649083 -0.050407138 -0.17303656
-0.20786318 -0.043686565 -0.1722362
-0.21392976 -0.064607069 -0.17864132
0.17605603 -0.04332554 -0.17681567
0.18541455 -0.050877783 -0.16349468
0.18555918 -0.03545839 -0.16675645
0.18462045 -0.022014478 -0.16990262
0.19563776 -0.025949107 -0.16023348
0.21121377 -0.041735653 -0.14783612
0.20955241 -0.025223948 -0.15306817
0.25081289 -0.045069743 -0.14157565
0.25069103 -0.025952352 -0.14719407
0.22796224 -0.024483616 -0.14857981
0.27629805 -0.060043834 -0.1399758
0.27927053 -0.04268349 -0.14559308
0.26831359 -0.031918157 -0.14718297
-0.26797536 -0.022091297 -0.15115911
-0.27679461 -0.0020771739 -0.15983458
-0.23633365 -0.033505198 -0.16692699
-0.24164543 -0.014789321 -0.1604194
-0.2711429 -0.015171588 -0.1632743
-0.19218925 0.0017874695 -0.16706538
-0.22042455 -0.016777448 -0.16223165
-0.20532717 -0.006300339 -0.16272849
-0.20487076 -0.02414511 -0.16740078
0.19391264 -0.0011318974 -0.16615029
0.20724843 0.0060547665 -0.16188601
0.20508854 -0.011185767 -0.158485
0.24876316 -0.0064986763 -0.15324612
0.24462046 0.012687162 -0.15946586
0.22273844 0.015566127 -0.16131087
0.2858721 -0.022366595 -0.15296026
0.27834207 -0.0010725899 -0.14504983
0.27393371 0.010629933 -0.16176613
-0.28292581 0.014926926 -0.15518963
-0.27784154 0.035378125 -0.14790359
-0.2452409 0.003966901 -0.15430358
-0.24697173 0.023394071 -0.14828371
-0.26530838 0.027050154 -0.14861341
-0.18267156 0.023733629 -0.17146176
-0.2028071 0.012230952 -0.15935539
-0.19332728 0.028145423 -0.16140538
-0.22536902 0.023853667 -0.14941576
-0.20706141 0.026495915 -0.15388389
-0.18313651 0.038083266 -0.16871904
-0.17352544 0.045871548 -0.1799479
0.19392261 0.033580963 -0.17279597
0.20973976 0.041794334 -0.17109533
0.20673053 0.023065701 -0.16644782
0.25407863 0.049556989 -0.15140824
0.25198337 0.050819159 -0.17407836
0.23889755 0.031301763 -0.16585702
0.22908802 0.047818191 -0.17171574
0.27013069 0.019153707 -0.14534253
0.26193497 0.036275852 -0.14370224
-0.27553588 0.055289578 -0.14152868
-0.24906869 0.042428691 -0.14260522
-0.25613207 0.05850124 -0.13822505
-0.23736151 0.0600954 -0.13745658
-0.2074082 0.075082302 -0.13962616
-0.2215156 0.064582042 -0.13826776
-0.20862994 0.059067268 -0.14397016
-0.20885287 0.04287827 -0.14862223
-0.16976883 0.087489337 -0.1740385
-0.19429874 0.058926046 -0.15278146
-0.18125051 0.072180703 -0.16196032
-0.1822869 0.055067495 -0.16590798
0.20448521 0.073401876 -0.18218125
0.22588405 0.083338097 -0.18561187
0.21692471 0.061641436 -0.17704289
0.24397784 0.064838298 -0.1549684
0.2339562 0.078674354 -0.15443568
0.22795342 0.083850026 -0.16737801
-0.19713999 0.090898313 -0.13964069
-0.17902257 0.089963861 -0.15763368
-0.18729402 0.094539337 -0.14607112
-0.17637466 0.10605577 -0.15287882
-0.15830934 0.12716219 -0.16941376
-0.16795117 0.12192331 -0.15484968
0.16331615 0.13249333 -0.19354194
0.1703428 0.13252266 -0.17707534
0.19423096 0.1104886 -0.19791014
0.18392488 0.12458347 -0.17114003
0.19821393 0.11442231 -0.16543221
0.2100427 0.10461394 -0.16029811
0.21922156 0.093094662 -0.17042282
0.22558765 0.09005753 -0.15093161
0.21854648 0.097668715 -0.15294231
-0.14037357 0.15098117 -0.18769945
-0.14144754 0.15884832 -0.17076334
-0.15141223 0.15301408 -0.1544448
-0.16005868 0.13775755 -0.15467514
-0.13290162 0.16473751 -0.187255
-0.12678294 0.17029557 -0.19789022
0.044367336 0.17645466 -0.17672598
0.079553545 0.17354935 -0.17174791
0.070383221 0.18397672 -0.159959
0.053580649 0.18522096 -0.16362479
0.087404467 0.18182737 -0.1557921
0.10275923 0.17988186 -0.15064518
0.11885797 0.16304484 -0.16771227
0.11729172 0.17243582 -0.15185013
0.15810375 0.13979189 -0.17837881
0.14676042 0.14537159 -0.180453
0.15157223 0.14821567 -0.16494164
0.14772449 0.15728348 -0.14984341
0.13303371 0.16461109 -0.15160385
0.17492028 0.13798875 -0.15175731
0.16114913 0.14930017 -0.14866011
-0.14211863 0.16730456 -0.15444736
-0.114799 0.20392434 -0.14638831
-0.13202552 0.18079326 -0.15469706
-0.11783699 0.19533372 -0.16087353
-0.11739994 0.18651304 -0.19159758
-0.12585874 0.17645751 -0.18578839
-0.12133935 0.18628497 -0.17588207
-0.078221641 0.20154406 -0.18447897
-0.087585859 0.22140484 -0.18758897
-0.10325752 0.2098383 -0.1664165
-0.032676399 0.19644327 -0.17199619
-0.04071353 0.21300326 -0.17055038
-0.063532278 0.21673939 -0.17801151
0.0056522554 0.19561103 -0.16469479
0.00049913162 0.20978335 -0.15972553
-0.019214325 0.21115884 -0.16456893
0.038261477 0.18571609 -0.1665711
0.025093945 0.18528475 -0.16927823
0.018229358 0.20544276 -0.15697455
0.030648869 0.1956694 -0.15959969
0.032603767 0.20837255 -0.15194806
0.079814918 0.20791727 -0.1379651
0.065119572 0.20715564 -0.1431123
0.061054312 0.19553672 -0.15167901
0.049257148 0.20805594 -0.14748278
0.094557248 0.19060419 -0.14332584
0.093366824 0.20163234 -0.13617903
-0.1095866 0.21236207 -0.13736148
-0.090721503 0.22248934 -0.16312711
-0.09724135 0.22118503 -0.14342009
-0.082085319 0.23155262 -0.15209641
-0.051675033 0.25281677 -0.1512505
-0.066804297 0.24263114 -0.15440522
-0.051853269 0.25122291 -0.17468454
-0.047656186 0.23183846 -0.17191476
-0.0056812116 0.22729801 -0.15801577
-0.013028287 0.24848843 -0.16007204
-0.031741373 0.24793607 -0.16674592
0.037813038 0.22263512 -0.14599368
0.029198494 0.24080066 -0.14643529
0.0073363278 0.24637011 -0.15311372
