# .PCD v0.7 - Point Cloud Data file format
VERSION 0.7
FIELDS x y z
SIZE 4 4 4
TYPE F F F
COUNT 1 1 1
WIDTH 1460
HEIGHT 1
VIEWPOINT 0 0 0 1 0 0 0
POINTS 1460
DATA ascii
0.6461488 0.36157772 0.47323215
0.63384688 0.35921156 0.48738641
0.64252841 0.34885135 0.47291601
0.68161786 0.38123626 0.45137587
0.66427791 0.36852002 0.46009099
0.6826359 0.36453903 0.44603968
0.31749144 0.34999019 0.66280711
0.31975284 0.36005956 0.65117145
0.34948003 0.33806282 0.65916288
0.35532957 0.35117292 0.66825652
0.3653124 0.36356637 0.67511594
0.32872432 0.36015731 0.66610599
0.34221762 0.36416298 0.68641603
0.33996758 0.36977848 0.66780174
0.36772215 0.34061339 0.65552402
0.3797183 0.32880288 0.64656985
0.62977308 0.37421703 0.50273913
0.62962657 0.40393275 0.50339401
0.62941086 0.38961741 0.50406891
0.6255244 0.40354115 0.51380002
0.6424216 0.39812645 0.4865616
0.63529456 0.38445431 0.49216267
0.64454973 0.38605586 0.4816654
0.37418517 0.37471381 0.68154085
0.37251279 0.3920866 0.67103755
0.37444794 0.38462216 0.69081295
0.38843536 0.40992522 0.6583941
0.38297004 0.39776969 0.67116678
0.39242172 0.40213639 0.67161047
0.55478442 0.42811862 0.60404837
0.61589015 0.43772158 0.55619997
0.60877049 0.44373247 0.54367852
0.62167501 0.41405928 0.52524799
0.61723185 0.428882 0.52716672
0.61977971 0.42235315 0.53836435
0.62248784 0.42826042 0.55498391
0.40320837 0.40536404 0.67452031
0.40454093 0.42475811 0.65224707
0.40984112 0.41707078 0.65956211
0.43389198 0.44511065 0.64547396
0.44872004 0.44344586 0.64366293
0.42167276 0.42664826 0.65316498
0.43400806 0.43540058 0.64820874
0.47647583 0.4437477 0.63727248
0.46285099 0.44316405 0.6408906
0.50460184 0.44504425 0.62710023
0.49009505 0.44478548 0.6326263
0.52113914 0.44400093 0.62024426
0.54273713 0.43862069 0.61003757
0.53190386 0.44330326 0.61502802
0.54746318 0.45342234 0.60970318
0.59744644 0.47138256 0.58585244
0.60466635 0.47224244 0.59807324
0.56393236 0.47258949 0.61029935
0.579759 0.46766147 0.60351026
0.58497536 0.44780612 0.59432143
0.57518327 0.43088502 0.59339952
0.61055875 0.44642919 0.55986708
0.60349262 0.45667788 0.56448025
0.61064965 0.453843 0.57391834
0.61338878 0.46151757 0.59126151
0.45625916 0.45295247 0.64066571
0.44447881 0.46394384 0.6444304
0.45448431 0.48534915 0.64775479
0.45534396 0.46829623 0.64266503
0.46696982 0.47875822 0.64233315
0.47988185 0.47653207 0.63806289
0.4838163 0.46108204 0.63369584
0.51767373 0.46232507 0.62275004
0.49649188 0.47785741 0.63350463
0.51779485 0.48663884 0.63009715
0.53986639 0.51169759 0.60402608
0.54761887 0.51071125 0.61648238
0.55944687 0.50968814 0.6275472
0.53314149 0.48113778 0.62314361
0.55009639 0.47814092 0.61677003
0.56894177 0.49572453 0.6004945
0.56637233 0.50251615 0.61644047
0.58273029 0.493301 0.61362576
0.47665739 0.4965688 0.64591694
0.46925285 0.51312 0.65485287
0.49549344 0.53668875 0.65852571
0.48536977 0.51673794 0.65203893
0.50391191 0.51734972 0.64714003
0.51286149 0.50287652 0.63815683
0.51857424 0.52298748 0.62463105
0.52780652 0.52566093 0.64415258
0.53325129 0.51741612 0.6213057
0.37785482 0.15197834 0.5521211
0.40771362 0.17846541 0.54744226
0.38854089 0.16915885 0.55638075
0.46480975 0.17575827 0.50359255
0.49204996 0.17653239 0.48796922
0.47499609 0.17627014 0.50977874
0.49349102 0.17301765 0.50566661
0.51769876 0.18134543 0.46990329
0.50962394 0.17185774 0.49730951
0.52403349 0.17355749 0.48710531
0.54741514 0.19292456 0.4520666
0.53832459 0.17768075 0.47657436
0.55314684 0.18367514 0.46669164
0.57647204 0.19875969 0.45100492
0.5674181 0.19134767 0.45779482
0.36402795 0.19406214 0.57276624
0.37109801 0.1706388 0.56785214
0.37351283 0.1624037 0.56607169
0.3706466 0.17265137 0.57871419
0.36919555 0.18282968 0.59030402
0.38436204 0.19236168 0.58326983
0.40057787 0.19655186 0.57327867
0.40423167 0.18934846 0.56243974
0.42245728 0.20028833 0.56798714
0.44162279 0.18646246 0.54256725
0.44430509 0.19213019 0.56320316
0.44190657 0.19680937 0.57350701
0.45622286 0.17839846 0.51762986
0.46499988 0.17767926 0.5137282
0.46640453 0.17810509 0.52491814
0.45718914 0.18299794 0.55221379
0.47141337 0.17534533 0.54090452
0.4781473 0.17322502 0.53104037
0.48698506 0.1713244 0.52106553
0.50112164 0.16075033 0.53378499
0.51546645 0.17798772 0.52591163
0.52712446 0.19170108 0.52254611
0.52917606 0.16172682 0.50497913
0.52831155 0.18136927 0.51359189
0.56049001 0.17188375 0.47973394
0.53974581 0.18362078 0.50291985
0.55355477 0.19096005 0.49254936
0.60033625 0.20304254 0.45014787
0.59845644 0.19491723 0.4560906
0.58792228 0.18732686 0.46215022
0.58291972 0.20081757 0.47000489
0.5691154 0.19761571 0.48078662
0.62091947 0.2145817 0.44503969
0.60922474 0.20377025 0.45049071
0.36375177 0.20272624 0.58552593
0.36406407 0.21604414 0.59892964
0.35582507 0.22001544 0.58099174
0.39705512 0.20565459 0.58615202
0.36990389 0.21048391 0.61740029
0.39254782 0.21552464 0.60044289
0.4410497 0.20281085 0.58619475
0.41636074 0.21652634 0.5909186
0.43583116 0.21327797 0.59719157
0.53430516 0.20078225 0.52455306
0.54351783 0.20676237 0.52090204
0.55185705 0.2069235 0.50595564
0.55716419 0.21620461 0.51458555
0.60121095 0.26428387 0.49390033
0.59179103 0.24939597 0.50540566
0.57815808 0.23120442 0.49332976
0.58037132 0.21637234 0.47854128
0.58452988 0.24029131 0.50965846
0.5751276 0.23058276 0.5145787
0.6035983 0.23783101 0.46615773
0.59032083 0.22653902 0.47369078
0.60516107 0.22302955 0.45930618
0.36583036 0.22939174 0.61062855
0.36925972 0.24236152 0.62150717
0.35841435 0.2461697 0.60405517
0.41437241 0.24458238 0.62209153
0.37779436 0.23782122 0.64032662
0.387622 0.22753119 0.618276
0.39597285 0.2436482 0.62956077
0.42722073 0.2402131 0.61989838
0.43360561 0.22418183 0.60839558
0.61567259 0.29254365 0.48964125
0.61704874 0.292171 0.50260621
0.6071952 0.26573944 0.51142585
0.61888605 0.28115463 0.51578808
0.62155592 0.30882663 0.48986816
0.61856329 0.30076653 0.49472803
0.37389302 0.25709227 0.63073045
0.37907618 0.27600649 0.63728642
0.36595017 0.27251863 0.62257463
0.40314478 0.25769082 0.64055395
0.3872847 0.28189731 0.64603424
0.39631206 0.26986724 0.66197574
0.62343186 0.2925688 0.51520658
0.63984251 0.29973191 0.53412032
0.62822807 0.33750072 0.50380057
0.62224948 0.30890554 0.50056946
0.62963063 0.32140926 0.51307213
0.62817633 0.30506325 0.5163728
0.38272053 0.29441828 0.63991165
0.37479073 0.30389768 0.63647676
0.38666633 0.31814235 0.64425921
0.38430482 0.30798811 0.64156461
0.39597601 0.29186368 0.65283871
0.39321011 0.31120649 0.64682066
0.40629214 0.30395529 0.65791893
0.61060423 0.33859259 0.55822426
0.62896901 0.31843942 0.54204047
0.61887038 0.33205637 0.55042279
0.63125604 0.33642092 0.54495555
0.63027489 0.36744964 0.51388192
0.63535821 0.33727443 0.52168512
0.63752288 0.35329628 0.52705854
0.64793527 0.33946696 0.53998899
0.38250589 0.36581939 0.67040437
0.41659898 0.31355277 0.66162443
0.41589832 0.33555833 0.65482771
0.42545927 0.35645151 0.65714157
0.39490634 0.3594929 0.66193759
0.38859576 0.34198737 0.65262175
0.40870726 0.34861696 0.65492165
0.46442235 0.36834088 0.65735757
0.44540787 0.3629382 0.65807033
0.47762424 0.37271518 0.65611839
0.60621458 0.34886488 0.56455648
0.60008347 0.36447379 0.57236689
0.63493764 0.35578072 0.54835194
0.61047661 0.37099823 0.56355333
0.62522292 0.37322569 0.55654329
0.626472 0.39950064 0.52654004
0.63735926 0.36945787 0.53198439
0.63585711 0.38600525 0.53830492
0.64784515 0.37309611 0.54926389
0.39573374 0.37168413 0.67055893
0.38552666 0.38036314 0.68186021
0.40027565 0.39714652 0.69130993
0.40038216 0.38341945 0.67856014
0.41372359 0.39025599 0.67950743
0.43218598 0.38942814 0.67247784
0.43925411 0.3772777 0.66296113
0.47064877 0.38191062 0.6590085
0.45070657 0.39658177 0.67259049
0.46644998 0.3968702 0.66823459
0.49302343 0.37577477 0.65380085
0.49892926 0.38623306 0.65519702
0.4810105 0.39848328 0.6657095
0.49738392 0.39848137 0.66194212
0.53439629 0.40584296 0.66004008
0.51401514 0.39681774 0.65744287
0.54058951 0.42610431 0.61419022
0.53969431 0.41067141 0.63432384
0.53917885 0.4172425 0.62294328
0.54953158 0.40587816 0.62829387
0.59296858 0.4019056 0.57939219
0.56695783 0.41535074 0.59755313
0.56235284 0.40574211 0.60711843
0.57746136 0.40218902 0.59136832
0.59178329 0.37602434 0.58193165
0.58534861 0.39059213 0.58602965
0.62792546 0.43104726 0.56809431
0.63569516 0.42273062 0.56965768
0.62584472 0.40525687 0.56623876
0.60953808 0.40475473 0.57190788
0.62053108 0.38935986 0.56305802
0.62660211 0.41696063 0.54899234
0.64033896 0.40958616 0.56361806
0.63207662 0.40336472 0.54509068
0.42445272 0.40585166 0.68962562
0.41547298 0.41058934 0.67205453
0.43519881 0.42515168 0.65624523
0.42989799 0.41419804 0.67220581
0.44838265 0.41854265 0.66865873
0.46032801 0.41345394 0.68390024
0.47078395 0.43220425 0.64624214
0.46565026 0.42112243 0.66412008
0.48276338 0.42200571 0.65885985
0.49735048 0.41410446 0.67401958
0.50037932 0.4329828 0.63485384
0.4988777 0.42171061 0.65190637
0.51311946 0.42187262 0.64160812
0.52836758 0.41489989 0.64067239
0.5266912 0.43403876 0.61961603
0.52477622 0.42489785 0.62757277
0.53251457 0.42565137 0.6204145
0.59988606 0.41576251 0.57879007
0.59673506 0.43511081 0.58608836
0.62164521 0.44980061 0.58414364
0.612046 0.43525511 0.58110398
0.62947708 0.43614447 0.57649797
0.45728534 0.18913826 0.58722156
0.47935414 0.16831142 0.56391883
0.46668094 0.18127078 0.59112525
0.47681868 0.18248206 0.57724571
0.505202 0.17976056 0.53877646
0.48664808 0.18326482 0.56482065
0.50167191 0.18639973 0.54910862
0.52459526 0.19609888 0.53177893
0.51559305 0.19206917 0.53795433
0.45884022 0.19152793 0.59821528
0.46199313 0.19528323 0.61232555
0.45332235 0.20023297 0.60359418
0.48651758 0.20667331 0.59822136
0.46783137 0.19745934 0.60568953
0.47285986 0.19187793 0.59183556
0.47666901 0.20077959 0.59821743
0.49357533 0.20220415 0.58441168
0.4979763 0.19509736 0.56578779
0.51022094 0.2020867 0.57109666
0.56744903 0.20815203 0.57160795
0.54892695 0.20835054 0.55611968
0.53023708 0.20445256 0.56237185
0.53321528 0.20472449 0.54254681
0.52451062 0.19964112 0.53932989
0.53693306 0.20521116 0.53236502
0.56882256 0.22336954 0.52536082
0.56623352 0.21393588 0.5505749
0.57672811 0.22249973 0.53916693
0.59333467 0.23875239 0.52815199
0.58555937 0.23064306 0.5325622
0.42446834 0.25125915 0.62826312
0.43464148 0.2559754 0.63479489
0.44795489 0.24348643 0.63566095
0.44276142 0.23250851 0.62457824
0.46289358 0.22152248 0.63819873
0.46572188 0.20585805 0.61972225
0.46972996 0.21478035 0.6277374
0.47596356 0.21438807 0.61982536
0.48026437 0.21099553 0.61070871
0.56960678 0.21853682 0.57135272
0.57774758 0.22985396 0.56520247
0.58646333 0.24704213 0.56148934
0.5872094 0.22017545 0.55437291
0.58692378 0.23517153 0.5566138
0.62476581 0.26484415 0.53524113
0.60565197 0.23754862 0.54306567
0.61468935 0.24922302 0.53859276
0.59792596 0.24076861 0.54813904
0.42335594 0.26124886 0.63686597
0.4238764 0.27622682 0.65048182
0.40975937 0.26652545 0.64652681
0.4509058 0.2562196 0.6431644
0.44164288 0.28414372 0.65421957
0.45310301 0.27497023 0.65099096
0.59192991 0.26259363 0.56279856
0.59722984 0.28316987 0.56882775
0.62450349 0.3051911 0.54162246
0.61272371 0.27243775 0.54265666
0.61197364 0.29428965 0.5476591
0.6018548 0.28009939 0.55492932
0.42956427 0.29062545 0.66349
0.43270856 0.30396616 0.67873812
0.41950601 0.29387879 0.6747371
0.45734102 0.2926046 0.65965414
0.4645741 0.30239308 0.66560638
0.4472104 0.31231299 0.68135005
0.46171314 0.31020561 0.67287034
0.47457251 0.31295496 0.67269742
0.59039915 0.31222716 0.61774623
0.60356146 0.30249798 0.61274225
0.59969157 0.29587424 0.5884794
0.60129488 0.31502709 0.59026998
0.60474479 0.33309025 0.56571698
0.60258961 0.32434905 0.5714305
0.6112926 0.32345474 0.55504555
0.60635889 0.32172763 0.56146777
0.61192739 0.31154439 0.55192614
0.439044 0.30976045 0.67855459
0.42803302 0.32136023 0.6649887
0.4497326 0.34957296 0.66009462
0.44064888 0.32771283 0.66776943
0.45638144 0.33282989 0.67021906
0.46232018 0.31841981 0.68273497
0.50865042 0.36124241 0.65217507
0.49386764 0.36633936 0.65417027
0.49588099 0.35424602 0.65836638
0.47301537 0.3333385 0.67349255
0.48633426 0.32427847 0.68193626
0.49109292 0.33848172 0.66978657
0.54334313 0.35895628 0.63987559
0.52222985 0.36160058 0.6478309
0.56456387 0.35326257 0.63124144
0.58802915 0.3271639 0.6199792
0.57712656 0.34436852 0.62579978
0.59779829 0.34432662 0.62175691
0.59535074 0.35970822 0.58302683
0.59976971 0.33285457 0.59435391
0.59566605 0.34963918 0.59740961
0.59711546 0.3453981 0.60937274
0.51731652 0.37020615 0.64792717
0.507999 0.37812057 0.65102339
0.52897316 0.39163703 0.65149355
0.52150434 0.38027549 0.64827543
0.54311538 0.38273558 0.64434618
0.55322832 0.37180513 0.63834393
0.56249744 0.3958956 0.62461948
0.56858933 0.38602972 0.64266908
0.57751155 0.38000199 0.62201548
0.58928299 0.36271316 0.61943614
0.58446181 0.37924442 0.59449106
0.58510178 0.37120709 0.60881215
0.58903474 0.36621839 0.599105
0.49633354 0.21086851 0.60319412
0.52588689 0.20489457 0.58251977
0.51535773 0.21357968 0.61621344
0.52369684 0.20802692 0.60357034
0.55690658 0.20483278 0.58331609
0.54780853 0.20416644 0.59717977
0.47177285 0.22923423 0.64999807
0.48698744 0.21864808 0.62046188
0.50731641 0.21938881 0.62444258
0.50582343 0.2267707 0.63597852
0.49167785 0.23685049 0.64883208
0.51579201 0.2374808 0.65303624
0.53662765 0.21327043 0.6311965
0.54614007 0.23042791 0.66081703
0.54949033 0.22849214 0.64450467
0.57131529 0.22950412 0.57445639
0.56394875 0.2267198 0.58662325
0.55510712 0.21483415 0.5912658
0.55693936 0.22447531 0.60162663
0.55156732 0.22572681 0.62483919
0.58404374 0.25159806 0.570831
0.57414949 0.23847482 0.57938343
0.48487598 0.24236728 0.66190588
0.48371696 0.26961541 0.6618197
0.4671768 0.26130959 0.65375614
0.53061628 0.24464893 0.66482878
0.50174439 0.2770358 0.66641635
0.52260947 0.25511351 0.67367363
0.56593883 0.23751368 0.65781593
0.54441363 0.24744196 0.67158329
0.56187361 0.23882824 0.67255598
0.56520069 0.23449428 0.61623573
0.56719297 0.24225438 0.65614188
0.576693 0.24278274 0.63734162
0.59498024 0.27708656 0.59097046
0.58006507 0.24902099 0.5821718
0.58679974 0.25899899 0.59752858
0.57621092 0.24438995 0.60724139
0.48509538 0.29220206 0.66315627
0.4719466 0.29523638 0.6621331
0.48836261 0.3144345 0.67225313
0.48891336 0.30356771 0.66643399
0.50339735 0.31346956 0.67105961
0.52233249 0.3036117 0.66757178
0.51969945 0.28260738 0.66751707
0.54799986 0.24915236 0.67395675
0.53834027 0.28659421 0.66613698
0.55227506 0.27000138 0.66655207
0.5792045 0.31372017 0.62479103
0.57405853 0.29102772 0.63696325
0.57420564 0.26791692 0.64193332
0.56624186 0.25773612 0.66556865
0.57080132 0.25154144 0.64900017
0.59423798 0.29344809 0.61595607
0.58414519 0.27795473 0.6247049
0.5962168 0.27107674 0.61585879
0.52375358 0.32079917 0.6758486
0.51073384 0.33744535 0.66651708
0.53747082 0.34650549 0.64672238
0.53215253 0.33234581 0.66012096
0.55084234 0.32270667 0.65166414
0.55865908 0.29248142 0.66549838
0.56756771 0.33004922 0.63122612
0.56274724 0.31078705 0.64529264
0.5691601 0.30392802 0.63962567
0.56996846 0.27834257 0.092651397
0.56965303 0.28394163 0.095043749
0.57179564 0.2843008 0.093158603
0.1709684 0.25599563 0.31645548
0.17113429 0.26716736 0.32037088
0.16533172 0.26717356 0.32805005
0.19432706 0.25536117 0.2877
0.19521384 0.26463813 0.28887179
0.1764743 0.26537812 0.31289461
0.18130186 0.25032279 0.30125093
0.18243502 0.26183867 0.30426693
0.18836831 0.25828338 0.29587251
0.49109167 0.32413185 0.1561538
0.48233756 0.32704517 0.15705863
0.16817071 0.27572316 0.32600999
0.16371025 0.28137547 0.3330684
0.16845649 0.28413391 0.32554072
0.1662761 0.2935195 0.32681727
0.17126814 0.28996673 0.3198235
0.17099261 0.29895532 0.31560233
0.17595515 0.28889966 0.31269524
0.18130846 0.29149151 0.30314374
0.18167968 0.2823981 0.30599791
0.18817046 0.2783736 0.29766256
0.18197951 0.27267516 0.3065123
0.49458575 0.35134187 0.15706378
0.50256395 0.34503818 0.15557739
0.48848984 0.33507776 0.15688604
0.48236221 0.3448467 0.15678743
0.49233958 0.34289643 0.15686148
0.13586926 0.32806477 0.37686893
0.13966098 0.32146877 0.37039524
0.18985544 0.5584619 0.4671495
0.19470859 0.56543267 0.47255129
0.18667462 0.56486684 0.48097011
0.21036464 0.57386947 0.44959363
0.2062391 0.57019764 0.45787287
0.20054722 0.56343406 0.45433086
0.19968317 0.56567359 0.46400058
0.51412475 0.60728437 0.27685291
0.51944935 0.60835969 0.28679699
0.52488458 0.60400963 0.28219789
0.19843778 0.57265383 0.48004484
0.19975595 0.58013898 0.48973775
0.20770876 0.58035201 0.48104918
0.21457542 0.58712977 0.4838829
0.23583522 0.60228193 0.45173687
0.24142985 0.60689855 0.45636344
0.21509731 0.58294326 0.47331041
0.22439729 0.58977616 0.46758163
0.22983462 0.59528267 0.47104731
0.23304731 0.59777129 0.4619498
0.21837001 0.58347076 0.46376967
0.22241512 0.58728647 0.45416474
0.2135516 0.5779196 0.4587343
0.51558781 0.73323941 0.37142166
0.52185053 0.73002517 0.37269667
0.52394396 0.73217469 0.36847684
0.19106472 0.16636169 0.27626583
0.20002809 0.15929826 0.29061943
0.18068364 0.15873614 0.31103843
0.19364113 0.15863524 0.2979632
0.18716492 0.15839313 0.30500835
0.18066941 0.16443537 0.29149926
0.2214646 0.16154265 0.27039361
0.20516312 0.16138324 0.28136352
0.20515753 0.16721477 0.26493022
0.21415076 0.16057137 0.27708828
0.4425379 0.23110968 0.16887942
0.42173907 0.24923499 0.16938195
0.42537123 0.23379514 0.17318128
0.42865998 0.24378695 0.17052883
0.43556345 0.23758216 0.17042789
0.44589195 0.24176851 0.16731097
0.45404875 0.24731621 0.16454305
0.43253383 0.26379925 0.16507846
0.43042046 0.25427377 0.16779158
0.44675684 0.25330469 0.16606371
0.43943492 0.25864893 0.16623461
0.44685337 0.26428527 0.16452381
0.58795035 0.27372384 0.13627714
0.5892514 0.29173863 0.13057497
0.59642905 0.28984225 0.1441254
0.59202564 0.28135657 0.14005002
0.60038996 0.29881534 0.14769846
0.59665436 0.30923569 0.13850611
0.60407597 0.30753213 0.15119816
0.60157466 0.3260223 0.14369249
0.60862732 0.32297456 0.15547585
0.60667217 0.31535852 0.153635
0.11772287 0.29341489 0.40901256
0.11664876 0.30222404 0.4165923
0.13678291 0.31896907 0.38025326
0.12600553 0.3227998 0.40827471
0.12935406 0.32049364 0.39977002
0.13029757 0.32834575 0.39581746
0.13306931 0.31969821 0.3902418
0.12668055 0.31234658 0.4042072
0.12298062 0.30350566 0.40708995
0.1385757 0.3005878 0.37791237
0.13600704 0.31073663 0.38394126
0.12835151 0.30247247 0.39738575
0.13363227 0.30190188 0.38756719
0.13010931 0.29271033 0.3900094
0.61134201 0.35077828 0.15826499
0.60494089 0.36483306 0.14761087
0.61174083 0.35948297 0.15920022
0.61004263 0.33057266 0.15684843
0.6038599 0.34401864 0.14567897
0.6109252 0.34037173 0.15771481
0.11944631 0.34926677 0.42994425
0.11835837 0.34170201 0.43318659
0.63935065 0.39720419 0.1957995
0.63215101 0.40566945 0.19369425
0.64016688 0.40528786 0.19882664
0.11506936 0.35093287 0.4468559
0.11651358 0.35888705 0.44330907
0.11752099 0.34909171 0.43809402
0.11842373 0.4464063 0.52391869
0.11740273 0.43981299 0.53011066
0.1195533 0.44925201 0.54422885
0.12122193 0.45503914 0.53765297
0.11936608 0.44750425 0.53408158
0.1264272 0.51382709 0.53630394
0.11696196 0.51512307 0.52102387
0.12380871 0.50754201 0.53167909
0.12149402 0.53042871 0.52986515
0.12978673 0.52114832 0.54177701
0.59880203 0.55989736 0.26972616
0.60143483 0.58244252 0.28538287
0.58536386 0.57288194 0.27673352
0.59303206 0.57704568 0.28152838
0.59606498 0.56843477 0.27563959
0.57813191 0.5699209 0.27097508
0.58170497 0.56268007 0.2651208
0.57098699 0.56801736 0.26387087
0.60612816 0.56383002 0.27370864
0.61445934 0.56990457 0.2775535
0.61745483 0.56156027 0.27277946
0.13048348 0.54109621 0.54276454
0.13224733 0.52908772 0.54529321
0.13834715 0.53379625 0.55441529
0.15004639 0.5532527 0.56827563
0.14660668 0.54661894 0.56471425
0.13970017 0.55174255 0.554497
0.14266348 0.54015356 0.56005144
0.59032959 0.5860846 0.28774711
0.58650851 0.59346074 0.29263198
0.56536913 0.58185023 0.27765247
0.5745483 0.57714128 0.27696651
0.57895654 0.58841431 0.2884565
0.57198989 0.58434147 0.28325248
0.5680728 0.59070086 0.28828239
0.51586723 0.70235217 0.42405224
0.50175983 0.70958829 0.4151094
0.50769579 0.70343566 0.425942
0.52145571 0.70729238 0.40943313
0.52585375 0.70061594 0.42204234
0.55577725 0.70247889 0.39407846
0.535622 0.6989466 0.41926348
0.55904365 0.69552982 0.40695357
0.5436781 0.69771481 0.4157809
0.55148387 0.6965766 0.41165647
0.53961039 0.70445997 0.4030031
0.56670451 0.69459355 0.40124708
0.58759534 0.69155169 0.38491365
0.57414156 0.69352198 0.39575121
0.58123183 0.69257915 0.38990363
0.57108814 0.70110595 0.38285884
0.24419962 0.11372334 0.30191758
0.23755343 0.11363301 0.3080382
0.24359462 0.12309608 0.29934329
0.55818456 0.17016177 0.15830001
0.55146396 0.17143339 0.15066855
0.17290111 0.14170796 0.35976022
0.16347669 0.15072554 0.35849321
0.16808516 0.14952379 0.35366577
0.161957 0.15637624 0.3461298
0.15417239 0.16255134 0.3365519
0.15231735 0.15867919 0.35652104
0.14939705 0.16353102 0.34178409
0.14391214 0.16495301 0.34706894
0.13474354 0.17015453 0.33556473
0.17942108 0.15381962 0.32715032
0.1709995 0.15478037 0.33638784
0.18862449 0.13832328 0.34324712
0.18079169 0.14699978 0.34032071
0.18447296 0.14669752 0.33605087
0.176753 0.14764339 0.34464434
0.17267163 0.14848009 0.34887207
0.19140361 0.12797457 0.34948397
0.18009515 0.1314469 0.36084235
0.18786231 0.12866923 0.35323656
0.18410794 0.12985113 0.35699511
0.18130475 0.13940394 0.35125148
0.22962594 0.11343795 0.3156442
0.22857478 0.13607246 0.30398917
0.23632447 0.13302752 0.29967278
0.2296313 0.12580207 0.31054661
0.2225728 0.11496177 0.32216015
0.21959284 0.14015064 0.30808124
0.2097393 0.11976331 0.33355573
0.21519366 0.13020894 0.32168093
0.21617022 0.11718437 0.32790917
0.19549994 0.12771571 0.34486708
0.20278151 0.1232298 0.33936125
0.19046146 0.15207256 0.31777793
0.18877187 0.14701512 0.33009037
0.21216722 0.14137161 0.31357133
0.20564191 0.15091269 0.30475169
0.19655502 0.14434671 0.32556319
0.20444605 0.1425741 0.31968707
0.20061605 0.13480052 0.33304995
0.22263297 0.15328358 0.28621978
0.23214073 0.14798284 0.28746203
0.22595252 0.14526042 0.29604134
0.55965722 0.17712235 0.15544213
0.5579505 0.18616287 0.14718166
0.56453955 0.1839264 0.15593471
0.5681566 0.19176568 0.15477303
0.57149154 0.18452467 0.16129026
0.12442294 0.17271648 0.34748602
0.1391739 0.16616152 0.35245535
0.12357786 0.17026617 0.37894908
0.13460448 0.16737834 0.35829142
0.11746064 0.17447379 0.36194417
0.1306307 0.16847274 0.36414447
0.1271036 0.16934513 0.37104735
0.60073996 0.24735017 0.16175343
0.59474349 0.27032942 0.14832914
0.59434116 0.2597822 0.15161151
0.60458088 0.28737947 0.15597908
0.61150002 0.24748409 0.16853815
0.60765785 0.27419341 0.16171676
0.60987687 0.2605744 0.16571061
0.60200262 0.26560915 0.1582108
0.6189307 0.2548914 0.17113057
0.61279643 0.28315625 0.16479492
0.6218397 0.2780897 0.17118993
0.6319617 0.27274081 0.17520794
0.6258266 0.26386279 0.1732945
0.6337316 0.32548398 0.17862742
0.63814402 0.3330487 0.18156676
0.64312261 0.31932631 0.18183771
0.65105128 0.30458546 0.18166429
0.62865072 0.31822991 0.17525217
0.64481378 0.29296398 0.17939091
0.63614696 0.30524051 0.17812239
0.64788198 0.29845932 0.18047677
0.63758814 0.28098115 0.17698394
0.64151657 0.28742939 0.17827606
0.61218321 0.30424157 0.16183445
0.61737633 0.2918618 0.16759782
0.62598383 0.31195676 0.17329268
0.61689407 0.318295 0.16579027
0.62078369 0.29931962 0.16974124
0.62352097 0.30582899 0.17156009
0.6304372 0.29341111 0.17521071
0.65428829 0.31318879 0.18322037
0.65617228 0.32356378 0.1850028
0.61842585 0.33832011 0.16721086
0.62463808 0.34248653 0.17363054
0.62537885 0.3317022 0.17357209
0.13481817 0.51211256 0.55222696
0.13486275 0.5019424 0.55648661
0.13331777 0.49112391 0.59276509
0.13800445 0.49956688 0.59646344
0.13887006 0.50840569 0.56383049
0.14068028 0.50492734 0.57510924
0.13708782 0.496133 0.57459891
0.14048687 0.50228608 0.58604342
0.14289284 0.50801742 0.59972233
0.14428255 0.51474714 0.57512575
0.15240447 0.52381784 0.60670733
0.14905766 0.51881319 0.59093034
0.14771092 0.51620859 0.60365498
0.15732363 0.53156513 0.60847944
0.15273203 0.54436356 0.57518375
0.14789063 0.52268142 0.57830775
0.14497691 0.52911741 0.56710595
0.1557359 0.53867733 0.58468217
0.15183151 0.53064251 0.58187389
0.15754697 0.53448164 0.59591401
0.15902573 0.54671884 0.58574384
0.15850732 0.55613136 0.57968342
0.16230467 0.53945661 0.60898066
0.16454445 0.56617194 0.58460927
0.16505212 0.54746228 0.60027832
0.16564775 0.55593306 0.59236568
0.16270918 0.55156511 0.58975214
0.16540411 0.54406857 0.61196077
0.16844209 0.54853421 0.62553948
0.16867545 0.560619 0.59469175
0.16999914 0.55080128 0.61527759
0.1702809 0.55513793 0.60462308
0.1676787 0.5474093 0.61376911
0.17139658 0.56460249 0.59680641
0.17141169 0.57657218 0.58980715
0.17257269 0.55456245 0.61660862
0.17606777 0.56349742 0.60868275
0.17840558 0.5742352 0.60204202
0.17479026 0.56935644 0.5993917
0.1789858 0.59910119 0.59074801
0.17438957 0.59460449 0.58722377
0.17953244 0.58630437 0.59628606
0.52913356 0.69664776 0.43371847
0.52641201 0.69579744 0.44335616
0.53661525 0.6942122 0.44286412
0.52822542 0.69599366 0.45694742
0.54403025 0.69396985 0.45254546
0.53868032 0.69570953 0.45875505
0.55215955 0.69607121 0.46186861
0.5667364 0.69808531 0.4663128
0.594064 0.69399333 0.45924869
0.55001223 0.69215107 0.44481105
0.57968068 0.69203508 0.45506597
0.56488001 0.69132924 0.45020479
0.5731355 0.69497883 0.46054685
0.58614242 0.68907654 0.44954121
0.56380504 0.69039607 0.41920614
0.55692834 0.69065154 0.43957359
0.54936427 0.69286907 0.42839205
0.57038236 0.68748903 0.42982039
0.56365114 0.68912148 0.43476462
0.57808328 0.68693697 0.43980458
0.59179437 0.68501335 0.39625472
0.60186118 0.67978024 0.3976239
0.57828939 0.68762338 0.40828314
0.59104443 0.68191445 0.4129833
0.60409719 0.67717779 0.41620076
0.59765697 0.68006498 0.40661702
0.57724011 0.68573493 0.42456758
0.58412236 0.68386638 0.41894135
0.60637498 0.68629259 0.44734347
0.59243882 0.68614185 0.44410673
0.61156172 0.67641282 0.42553562
0.61948621 0.67823207 0.43496642
0.59896207 0.68294305 0.43809977
0.60537899 0.67973572 0.43210524
0.59118426 0.6822204 0.42876455
0.61474669 0.67284119 0.40583098
0.61675775 0.67323804 0.41825488
0.53456378 0.70144928 0.47486055
0.54381949 0.70727527 0.48342308
0.53381348 0.70731747 0.48508948
0.54652834 0.71245754 0.48984715
0.56118131 0.70100713 0.47160673
0.53073025 0.69811809 0.46610713
0.53449142 0.69717795 0.46340746
0.5496704 0.70648873 0.48138443
0.54290748 0.69984722 0.47070146
0.55347925 0.7051481 0.47888678
0.55706757 0.70335209 0.4757269
0.29228568 0.0066497624 0.23001455
0.28958893 -0.0069480836 0.23476267
0.28747582 0.0024154484 0.24176519
0.28280112 -0.0034163892 0.25185508
0.30615526 -0.04172954 0.19585745
0.31125778 -0.04099977 0.18723191
0.31683531 -0.039712965 0.18256977
0.33206078 -0.027918905 0.17366029
0.33048731 -0.02992925 0.1836336
0.34639394 -0.019534737 0.17878999
0.34508133 -0.020819575 0.18278912
0.26758277 0.038422316 0.29717427
0.26932114 0.022315145 0.29220659
0.27017891 0.03475675 0.28986493
0.27314273 0.031556606 0.28145021
0.274299 0.01412195 0.2775701
0.2764456 0.028439671 0.27222908
0.28155702 0.03392756 0.25261581
0.27893043 0.024719983 0.2654857
0.28513017 0.0094720721 0.24854845
0.28657553 0.022500247 0.24289256
0.28104901 0.020054579 0.25982198
0.28306532 0.015115023 0.25436011
0.27850038 0.0063048899 0.26509631
0.25710458 0.068719178 0.29530999
0.25211614 0.073348582 0.29356354
0.24680892 0.078249753 0.29956478
0.25737363 0.068114966 0.30610529
0.25340241 0.073287159 0.30309895
0.25454366 0.071840376 0.29993427
0.26570877 0.053088546 0.2944836
0.26883638 0.045135796 0.2899166
0.27472252 0.041151553 0.27093479
0.27261096 0.04926312 0.26708281
0.26516968 0.058299124 0.28382927
0.27025822 0.050211847 0.27698296
0.26778829 0.052088141 0.28611976
0.51369447 0.11318469 0.16256887
0.50341964 0.11181557 0.15137309
0.50749367 0.11678314 0.1505525
0.23068327 0.10278037 0.31649518
0.23515216 0.096003532 0.3124055
0.2269689 0.093478113 0.32054541
0.23902316 0.084629595 0.30809841
0.23747152 0.087934226 0.31769431
0.23491567 0.091999084 0.32693622
0.22988069 0.093206286 0.32340616
0.20754151 0.12705246 0.38341638
0.19070145 0.12881511 0.37918374
0.19301684 0.1265555 0.37575939
0.15893067 0.15198299 0.36341619
0.17798249 0.12431726 0.36814874
0.17592067 0.13319102 0.36485144
0.17056568 0.12888286 0.375177
0.17221524 0.13475367 0.36849797
0.16827424 0.13641715 0.37246263
0.16446888 0.14437887 0.36851886
0.19225881 0.11563084 0.35455224
0.18482025 0.12015674 0.361637
0.2137949 0.11888519 0.37130094
0.20028323 0.12037393 0.36657536
0.20329247 0.11763173 0.36235207
0.19731477 0.12276697 0.3700839
0.19529447 0.12452731 0.37272212
0.22297898 0.11890075 0.38149503
0.2207066 0.12318841 0.38791844
0.22207677 0.1205034 0.38383871
0.22137836 0.12180969 0.38580424
0.21007523 0.12344649 0.37797928
0.23248987 0.096195638 0.33608943
0.20340833 0.1087963 0.343894
0.22078577 0.097629786 0.32680631
0.21533924 0.10133865 0.33235967
0.21450433 0.10608819 0.34336782
0.21801661 0.10146323 0.33467346
0.22394565 0.10179809 0.34049013
0.22506273 0.11535358 0.37627444
0.20968302 0.11062139 0.3507044
0.20623943 0.11471552 0.35771865
0.23045678 0.10056168 0.34574547
0.21872447 0.11104947 0.3580634
0.22873193 0.10556823 0.35700327
0.22711989 0.11032501 0.36701339
0.16382544 0.13837689 0.37701666
0.13526505 0.16338536 0.37924671
0.15481094 0.15315333 0.3681263
0.14352179 0.1610668 0.36713633
0.14621621 0.15571932 0.37883753
0.15058716 0.15437898 0.37326494
0.15585372 0.14732581 0.37808502
0.14142302 0.15725592 0.38527644
0.13580212 0.15917909 0.39321187
0.15851669 0.14036718 0.38305002
0.14502308 0.15138714 0.39113721
0.15252979 0.14052472 0.3929702
0.14645001 0.14451092 0.39881364
0.58297396 0.2311309 0.15004794
0.60613483 0.21935377 0.1698494
0.59659755 0.22559115 0.16407886
0.58769423 0.219708 0.15937166
0.5894624 0.22880168 0.15765764
0.60661721 0.23116969 0.16835947
0.59146577 0.24176356 0.15477146
0.5906446 0.23709902 0.15574481
0.61006123 0.24227408 0.16846876
0.59899932 0.23927869 0.16231757
0.60921651 0.23951077 0.16843116
0.60812175 0.23591876 0.16839413
0.61716449 0.23269662 0.17196712
0.62134612 0.23819233 0.17286341
0.6205889 0.24022512 0.18807594
0.62238848 0.2422753 0.18726242
0.624695 0.24606463 0.20204307
0.62966043 0.24933711 0.17438577
0.62460786 0.24465619 0.18497925
0.64355904 0.2677871 0.1770135
0.63091767 0.25118363 0.21425563
0.63919622 0.26279968 0.19149655
0.63521791 0.2573016 0.20449798
0.63156176 0.25360823 0.18944348
0.64019126 0.25864512 0.21704778
0.6456393 0.270347 0.19272001
0.64783227 0.27005821 0.2057763
0.65109164 0.2681843 0.21600485
0.64692861 0.26451468 0.21657564
0.64992142 0.27515009 0.19426325
0.6539644 0.27070302 0.21555653
0.65894508 0.27720121 0.21172693
0.65644932 0.2738952 0.21368852
0.65423375 0.27707541 0.20404497
0.66175842 0.29149711 0.18032339
0.6622709 0.28187209 0.20881003
0.65395463 0.28139046 0.17893614
0.65297008 0.27906764 0.19204868
0.66055942 0.28519392 0.19980015
0.65651166 0.2834684 0.19072169
0.66045541 0.28837609 0.18948589
0.66436529 0.31141001 0.18332152
0.67233396 0.31498346 0.18361694
0.67121136 0.30346066 0.18169656
0.66515732 0.29436243 0.18787067
0.68449438 0.3162123 0.18860254
0.66637117 0.287687 0.20535553
0.67828327 0.30743569 0.19227411
0.67197919 0.29689133 0.19912517
0.67114425 0.30043763 0.19054796
0.72648931 0.35529873 0.18542637
0.7289179 0.3625302 0.1823211
0.73765367 0.35135579 0.18860517
0.73460329 0.35994485 0.18482068
0.75324547 0.35349727 0.18659785
0.74332798 0.35877952 0.18586653
0.74729002 0.37624738 0.17945464
0.7509166 0.36499482 0.18352269
0.77096546 0.37804398 0.17720827
0.76083851 0.38492966 0.17653285
0.75842303 0.36992502 0.18128368
0.76542056 0.37401968 0.17922528
0.77064109 0.36210677 0.18115233
0.82942355 0.41583976 0.16046242
0.81375039 0.41026878 0.16052061
0.80789101 0.41734734 0.16512874
0.83545589 0.41751635 0.1526553
0.8364746 0.42840183 0.15521218
0.83020985 0.44607627 0.16275576
0.82971209 0.43996033 0.16822039
0.82092071 0.45898229 0.18520279
0.81387204 0.45105639 0.19173843
0.024595857 0.40748805 0.62648141
0.019780725 0.40622181 0.6336078
0.030276805 0.41175869 0.63272882
0.056665003 0.42826357 0.65011835
0.052644163 0.42469966 0.62032938
0.050706595 0.42305174 0.63361824
0.055761665 0.42581087 0.63404483
0.062246889 0.42946944 0.63588405
0.086824566 0.44339466 0.64573473
0.072392017 0.43697906 0.65450072
0.079159796 0.43915015 0.64351398
0.070817351 0.43442237 0.64001536
0.10068652 0.45488152 0.62672281
0.093254983 0.44791722 0.63303149
0.085731596 0.44297034 0.63595998
0.088058621 0.45292938 0.61627686
0.095153391 0.45473874 0.62087899
0.069057822 0.4341926 0.62633961
0.069902807 0.43737668 0.61766917
0.087028086 0.44806331 0.62159193
0.078274637 0.44107592 0.62323415
0.086430579 0.44485241 0.62821174
0.10070255 0.45913088 0.62093186
0.099867433 0.4644495 0.61615556
0.1056442 0.47035205 0.61635649
0.10781652 0.45878279 0.62842381
0.10722694 0.46322519 0.62212622
0.10458425 0.46177304 0.62144178
0.13305953 0.49540952 0.60456681
0.12605685 0.4889107 0.6093353
0.13137344 0.49745095 0.61319864
0.11641803 0.48223779 0.61691827
0.12728173 0.48892435 0.61965525
0.13730299 0.49768221 0.62121356
0.13055167 0.49945319 0.61866987
0.14789513 0.50503445 0.62318707
0.15409245 0.52938628 0.62279558
0.13819844 0.50723237 0.61601472
0.14374879 0.51323658 0.61335897
0.15233584 0.5213818 0.62261611
0.1437116 0.51596808 0.62081772
0.15063447 0.51348633 0.62279129
0.1815834 0.51743716 0.63009518
0.16105609 0.52719772 0.62422234
0.15851118 0.50974345 0.62543529
0.1686677 0.52184713 0.6261692
0.16821355 0.51252872 0.62754929
0.17605236 0.51538408 0.62903643
0.74782115 0.57869583 0.28405052
0.74791086 0.57432765 0.29709482
0.73469561 0.58899271 0.31349462
0.73393047 0.60011286 0.28445724
0.73387682 0.59350204 0.2993896
0.74075443 0.5865587 0.2914511
0.16754121 0.53141671 0.62535363
0.17129454 0.53394866 0.62600553
0.1631958 0.54150951 0.62458944
0.19168954 0.52573287 0.630597
0.72658014 0.6003412 0.30807203
0.72202146 0.60957211 0.30035731
0.7203362 0.60661221 0.31379235
0.19101463 0.53960466 0.62880546
0.19501416 0.52646637 0.63110578
0.18249565 0.57948005 0.60499346
0.17466284 0.55684423 0.62669832
0.17583899 0.55918151 0.61841255
0.18288203 0.56781727 0.62819034
0.17980362 0.56470895 0.62042755
0.18450618 0.57069629 0.62378585
0.18382458 0.57412857 0.61356652
0.19425127 0.58234799 0.63028318
0.18930869 0.57568276 0.62944937
0.18688267 0.58487862 0.60804272
0.18929307 0.59670663 0.60354871
0.19664592 0.59646612 0.61424112
0.19166388 0.59049606 0.61126381
0.19306463 0.58564728 0.61928773
0.63876104 0.66261899 0.38360935
0.64437789 0.65965581 0.38048998
0.64286256 0.66360033 0.41225037
0.64968759 0.65881538 0.40570536
0.65424073 0.6558609 0.40119022
0.64404893 0.65922791 0.39128584
0.63871998 0.66366148 0.40749672
0.63189322 0.66522229 0.39780855
0.58470201 0.6926797 0.47407019
0.5819397 0.70179814 0.47105426
0.60983551 0.66538662 0.45310843
0.59597415 0.66854924 0.47911662
0.60660499 0.65889525 0.46336311
0.59848231 0.66737986 0.47270596
0.60212666 0.6636529 0.46814635
0.59928125 0.67222238 0.46567962
0.63260412 0.66647398 0.41043973
0.63333851 0.66966963 0.42158604
0.62769246 0.67311364 0.42712462
0.62165034 0.67130542 0.41620556
0.62265366 0.66945297 0.40212777
0.62458628 0.67008376 0.41486791
0.62813544 0.66854185 0.41312754
0.61970377 0.65980172 0.44171968
0.61259854 0.65643537 0.45393011
0.56124049 0.71230316 0.50331789
0.56236655 0.71551257 0.49059767
0.56543475 0.71319205 0.48757586
0.56763744 0.70465314 0.50428712
0.57173347 0.70868134 0.48114967
0.56823087 0.70453435 0.49627179
0.56957877 0.7059924 0.48871356
0.56638527 0.70951426 0.49102482
0.57342494 0.70229709 0.48516184
0.57902789 0.69747972 0.47953558
0.57149976 0.69991565 0.50235516
0.58643019 0.68181086 0.48462433
0.57675493 0.69320953 0.49624062
0.58190912 0.68700242 0.48985904
0.57702857 0.69486403 0.48807609
0.53364265 0.74712074 0.53277677
0.5274117 0.75168461 0.53254867
0.56442189 0.70932132 0.50979555
0.56120688 0.71396375 0.51384431
0.54781175 0.76322436 0.55916524
0.51875842 0.76593816 0.54602307
0.53223944 0.76329982 0.55240226
0.51438695 0.77543175 0.55427498
0.52892399 0.76909298 0.55618316
0.52603674 0.77490336 0.56012714
0.53971565 0.77479494 0.56536806
0.54441106 0.74174231 0.53689617
0.5529092 0.74095452 0.54202157
0.53695345 0.75766617 0.54946768
0.53143227 0.75325876 0.54011965
0.54280502 0.75195837 0.54709202
0.5566687 0.75147033 0.55309796
0.54815763 0.74646682 0.54470676
0.45864031 0.83714533 0.61159134
0.46861041 0.83321273 0.61315751
0.4529517 0.82052755 0.61755776
0.45642212 0.82120728 0.61726105
0.49476436 0.84101152 0.60748088
0.48532712 0.84387511 0.60864997
0.47723311 0.84367979 0.61086833
0.53178298 0.78810316 0.57292628
0.52296919 0.78109694 0.56424403
0.50776041 0.7935971 0.56904924
0.51746058 0.80006975 0.57776332
0.51972044 0.78950316 0.57010984
0.25266105 0.074343383 0.30619276
0.25589347 0.070066035 0.31184781
0.25210845 0.075708896 0.31255227
0.25452292 0.068351656 0.32991382
0.25287396 0.071185917 0.33514291
0.25305432 0.07377246 0.32477185
0.24968514 0.078743458 0.31715915
0.24396829 0.082870722 0.31335598
0.25098133 0.074596077 0.34085679
0.23995298 0.09017688 0.33223063
0.24876696 0.080654204 0.33606553
0.24509861 0.085450917 0.33237642
0.2471686 0.082246006 0.32473347
0.24930418 0.070821673 0.35445946
0.24931249 0.077531427 0.3463394
0.24723426 0.074147522 0.36198023
0.24318908 0.088752717 0.34042877
0.24718884 0.081003487 0.35451698
0.2457394 0.085682809 0.34739029
0.24825805 0.07929334 0.35032895
0.21931294 0.12600172 0.3921347
0.18680815 0.13225394 0.38423172
0.20665367 0.14117193 0.40914008
0.19911659 0.13634267 0.39603582
0.21344063 0.13343543 0.4006384
0.2277917 0.13416153 0.43675235
0.21203622 0.14568177 0.42169863
0.22370674 0.12853688 0.4053311
0.22044557 0.14102358 0.42496771
0.22512393 0.13227373 0.41782919
0.22578445 0.13560614 0.428247
0.22938602 0.12807655 0.43131286
0.22999187 0.12201372 0.41000694
0.23333855 0.11320266 0.41504794
0.23361798 0.10168442 0.42093962
0.23199439 0.11617854 0.42589068
0.23328269 0.085744411 0.41809267
0.23014037 0.117091 0.3937068
0.23427343 0.1112425 0.40306261
0.23103198 0.11497653 0.39055431
0.23512931 0.10874122 0.39989769
0.23548447 0.10772863 0.39842716
0.23640305 0.098104686 0.40659937
0.2459099 0.082816571 0.36019394
0.23341247 0.10794592 0.3770068
0.24187648 0.091415763 0.34768918
0.23640637 0.09834221 0.35276073
0.23913307 0.098298162 0.37094977
0.24049926 0.094832748 0.35896391
0.24314521 0.08984381 0.36450487
0.23414589 0.082866818 0.41378281
0.23764822 0.10208246 0.38347435
0.23616309 0.10581717 0.39531967
0.24397697 0.084186316 0.37104112
0.23929112 0.094373286 0.390499
0.24147621 0.084867179 0.38416839
0.23816951 0.084917456 0.39888462
0.18021087 0.13755178 0.391799
0.15922518 0.13603702 0.38608769
0.19976215 0.14843416 0.41706854
0.17309746 0.14275643 0.39906248
0.18392187 0.14895639 0.41153929
0.1658584 0.14794776 0.40621936
0.18096955 0.16055913 0.42850271
0.19142747 0.15507188 0.42363808
0.19520462 0.16019231 0.43320039
0.19694483 0.16430086 0.4400923
0.19918221 0.16794808 0.44657794
0.18697855 0.17022948 0.44428298
0.21618775 0.14862123 0.43166819
0.22264762 0.14548862 0.43816879
0.20884021 0.16466986 0.44882739
0.21526825 0.15178886 0.43578807
0.20682198 0.15801546 0.43707305
0.22523932 0.14351076 0.4452256
0.21513109 0.15503947 0.4409849
0.22135794 0.15006053 0.44386968
0.21532309 0.15785356 0.44576871
0.5540238 0.18106532 0.28036982
0.54669094 0.17678699 0.2836462
0.5487659 0.17925018 0.27333355
0.57930905 0.19537607 0.27106547
0.56203246 0.18571025 0.27727717
0.56576234 0.18986148 0.26864702
0.5705049 0.19043523 0.2743144
0.5995428 0.21874206 0.20381942
0.58613586 0.20602006 0.21336085
0.59415263 0.21469741 0.21677601
0.583763 0.20582728 0.23289259
0.58888948 0.21023817 0.22655201
0.61712718 0.23616453 0.18859249
0.61110455 0.22911128 0.18952146
0.62793022 0.24789405 0.216315
0.60279393 0.22332644 0.21866094
0.62050503 0.2405006 0.2180673
0.61173105 0.23206717 0.21855333
0.61516416 0.23569797 0.20431477
0.21827777 0.16653748 0.46360627
0.22216201 0.1616675 0.46548846
0.22006148 0.16932099 0.47120261
0.21827412 0.1770741 0.47785348
0.19529568 0.18926217 0.47279772
0.21275601 0.17095879 0.46182695
0.20495997 0.18580709 0.47414383
0.2086447 0.17842241 0.46763694
0.21259668 0.18170975 0.47581497
0.20521846 0.17483392 0.46010339
0.19569634 0.1780452 0.45861933
0.20123212 0.17142662 0.45265213
0.22483927 0.14567098 0.44749624
0.21582621 0.16072153 0.45096406
0.21669467 0.16354026 0.45653194
0.22405681 0.15161714 0.45568442
0.22084387 0.15611419 0.45312056
0.22434896 0.14879552 0.45146596
0.59271753 0.21336332 0.23750944
0.60751778 0.2143611 0.25739205
0.61021024 0.21681327 0.25531527
0.60183376 0.2153119 0.25229955
0.59239757 0.21066231 0.24980189
0.59672523 0.21478748 0.24586317
0.60828668 0.22122388 0.24784923
0.60101479 0.21896616 0.24188545
0.61954349 0.22439675 0.25011873
0.60778725 0.22687137 0.23068729
0.60502648 0.22254573 0.23958039
0.62704921 0.24265067 0.22913194
0.61376375 0.22896931 0.23864801
0.62311602 0.23533452 0.23780787
0.61953533 0.2291268 0.24425216
0.62636542 0.22843218 0.24802834
0.63361299 0.24186993 0.2367315
0.64205879 0.23934208 0.24177665
0.65288174 0.23464347 0.24438842
0.63851255 0.23222207 0.24659544
0.671422 0.23219249 0.24132773
0.64580876 0.25708032 0.22639525
0.6451686 0.24824007 0.23534104
0.65522623 0.26449704 0.22401544
0.65322304 0.2533834 0.23298419
0.65816915 0.25696665 0.23117757
0.66247571 0.24682221 0.23721512
0.21645394 0.18474787 0.48436999
0.20054092 0.19359639 0.48073143
0.19863516 0.19974507 0.48699486
0.21310331 0.19840942 0.49596846
0.20738375 0.19609016 0.48825765
0.21438965 0.19206104 0.49025804
0.66166759 0.26002082 0.22954547
0.67689967 0.23680633 0.23818526
0.68147445 0.25739551 0.22963282
0.67936397 0.24810226 0.23355839
0.67121553 0.25737002 0.23111299
0.6654492 0.27805233 0.21610636
0.68391681 0.26552656 0.22601539
0.66005707 0.26974422 0.22135185
0.66552818 0.26495618 0.22673325
0.67698908 0.27107915 0.22389542
0.66805339 0.2693474 0.22415598
0.67070717 0.27507126 0.22069936
0.69199729 0.31513244 0.19793966
0.68613386 0.31307608 0.19506465
0.69752896 0.30308747 0.2081109
0.67399859 0.29302177 0.20650017
0.69012564 0.30274808 0.20677048
0.68193948 0.29858726 0.20649007
0.68751341 0.307906 0.20160732
0.67705226 0.28888109 0.21225017
0.67362535 0.28116482 0.2170309
0.69382089 0.29657346 0.21126409
0.68598509 0.27319035 0.22253442
0.69037867 0.2890895 0.21489088
0.68783188 0.28119302 0.21875411
0.68199396 0.28548086 0.21607074
0.11013928 0.46465576 0.62299687
0.11196068 0.46064371 0.63009453
0.11449382 0.46599507 0.62499845
0.11967373 0.46316949 0.63480443
0.14602563 0.49576983 0.62486327
0.12289596 0.48061496 0.62061012
0.13544163 0.48111922 0.62692177
0.14797488 0.48254502 0.63370323
0.14665219 0.48840967 0.62837064
0.11716786 0.4675867 0.6255542
0.12469581 0.4739922 0.62542164
0.12664628 0.46487844 0.64376628
0.14893726 0.47822353 0.64081889
0.13109827 0.46815491 0.64043581
0.13936955 0.47286209 0.64052105
0.12854794 0.47015288 0.63273787
0.15971571 0.48456991 0.64057165
0.18288296 0.50899255 0.63303179
0.15735374 0.49596244 0.62934935
0.16508642 0.50412148 0.62893212
0.17793649 0.50007045 0.63606596
0.16796383 0.49768907 0.63304222
0.16962168 0.49202088 0.63852519
0.18592007 0.50250572 0.63799566
0.17014778 0.48765704 0.64559668
0.18757284 0.49732751 0.64450943
0.17932799 0.49079815 0.64926231
0.18779464 0.49371409 0.65252972
0.66165185 0.53668451 0.41657707
0.66279197 0.51806676 0.4231306
0.65920019 0.53181994 0.43259278
0.66113544 0.52433634 0.42726773
0.65952426 0.53417999 0.42514437
0.24009441 0.52091467 0.64576763
0.23917753 0.53330243 0.637936
0.2311994 0.52915138 0.63792765
0.2223343 0.52318817 0.63846898
0.23258959 0.52260005 0.6417613
0.23300791 0.51744425 0.64631796
0.21314093 0.51660138 0.63928962
0.21373849 0.51031852 0.64465606
0.21343789 0.50572759 0.65122515
0.22379854 0.51186401 0.64838129
0.20288092 0.49955517 0.65544868
0.19656548 0.49686146 0.65530944
0.19795956 0.51595312 0.63471472
0.20429416 0.5102517 0.6402238
0.19271398 0.50475687 0.63936758
0.19186281 0.51348627 0.63382483
0.19944768 0.50775123 0.64003837
0.19612481 0.50620341 0.63977504
0.19915813 0.50156111 0.64686441
0.64215672 0.58676451 0.462217
0.64527458 0.58032131 0.46089497
0.64339507 0.58085179 0.45521766
0.64565879 0.57420194 0.44821516
0.64895517 0.56586319 0.44853854
0.6504429 0.56571281 0.45460805
0.65249622 0.5576359 0.44921371
0.65712082 0.53997135 0.4382363
0.65491366 0.5486331 0.44379804
0.65868461 0.54425865 0.42153341
0.64856827 0.56691408 0.44173545
0.65502846 0.55189884 0.42885137
0.65170062 0.55951542 0.43532574
0.65418792 0.54983175 0.43679005
0.66221946 0.55877542 0.40942973
0.65775526 0.55471814 0.41959348
0.64954805 0.56901866 0.43395421
0.65639275 0.57719302 0.41528508
0.65218186 0.57250381 0.42497081
0.65700078 0.56594008 0.41736889
0.21149831 0.52473569 0.63511926
0.20095509 0.53044921 0.63148171
0.22973305 0.53870755 0.63473189
0.2173716 0.54396033 0.63214159
0.20518899 0.55076826 0.6301868
0.20897065 0.53644592 0.63192761
0.22038367 0.56559694 0.63131964
0.22606941 0.55110812 0.63242954
0.24507384 0.55685145 0.63352203
0.24005415 0.56929553 0.63247889
0.23359402 0.55948752 0.63241518
0.29393911 0.53677213 0.64604288
0.30373603 0.54023015 0.6443699
0.30011949 0.5646562 0.63394701
0.30171371 0.55444056 0.63652611
0.29221076 0.54894632 0.63820291
0.30283085 0.54624951 0.6400919
0.31324595 0.54404747 0.64227569
0.33781672 0.55498528 0.63605744
0.31107837 0.56102687 0.63452971
0.31986004 0.56516302 0.63329029
0.33079875 0.55206841 0.63768202
0.32095021 0.55556369 0.63619065
0.32235807 0.54817349 0.63992608
0.63903987 0.59323651 0.46388745
0.64265859 0.58203763 0.4485456
0.63688707 0.59525067 0.45748156
0.63952732 0.59011424 0.44920969
0.63629413 0.59826946 0.45005047
0.63603091 0.59922731 0.46538562
0.63287705 0.60662472 0.45105544
0.63460916 0.60218883 0.46641752
0.63184929 0.60595381 0.4599964
0.63331783 0.60493624 0.46754566
0.6394248 0.63577676 0.42390755
0.64642465 0.61659431 0.41998658
0.63904476 0.62166792 0.42910287
0.63723296 0.60322803 0.44169584
0.64070141 0.60911298 0.43147868
0.64763457 0.57897353 0.4322156
0.64318079 0.58456564 0.4409641
0.64324641 0.59845281 0.4315027
0.64549017 0.58838516 0.43194336
0.64971012 0.59332961 0.42186031
0.5982877 0.66432351 0.4887166
0.60735303 0.66099298 0.50088453
0.61171734 0.65464193 0.49846274
0.60353374 0.65983653 0.49403512
0.60304153 0.66722357 0.50340784
0.59738386 0.66812515 0.49667895
0.63170242 0.60846925 0.46928313
0.63016021 0.6121307 0.45322552
0.62545681 0.62012827 0.45884395
0.62058526 0.62823629 0.46465632
0.62617564 0.61732298 0.467112
0.62891889 0.61544275 0.47416249
0.61569613 0.63628101 0.47018093
0.61815226 0.63327503 0.47833282
0.62297428 0.63140309 0.48560724
0.62599087 0.6231544 0.47972861
0.62005258 0.63992584 0.49169439
0.61655003 0.64711487 0.49553633
0.60571837 0.65402853 0.4721548
0.61103427 0.64383018 0.47553283
0.60066599 0.6606338 0.48715419
0.59862238 0.66347438 0.48082113
0.60709566 0.65027773 0.4804346
0.6036346 0.6559025 0.48430642
0.610762 0.64779651 0.48801875
0.61612785 0.63996261 0.46071729
0.61570394 0.65062004 0.45243961
0.63249171 0.62820077 0.43677199
0.62756169 0.623227 0.44890326
0.62054402 0.64349365 0.4485651
0.62633097 0.63614523 0.44289184
0.62741917 0.64902639 0.4355326
0.58688897 0.67984986 0.49106601
0.59093142 0.6742776 0.48996386
0.57826412 0.6928184 0.50444853
0.59909898 0.67192686 0.50468785
0.58575368 0.68513381 0.50485921
0.59269643 0.67824745 0.50490594
0.58905274 0.67842323 0.4981229
0.59840512 0.6792106 0.51182634
0.60505211 0.68232477 0.51874894
0.58255273 0.69279778 0.51209217
0.58997941 0.69342726 0.51950055
0.59903288 0.69617099 0.52682424
0.59844071 0.68767858 0.51965243
0.56880343 0.70744705 0.51550388
0.57291245 0.70926821 0.5227977
0.57630944 0.70511788 0.52108526
0.58462054 0.70583022 0.5275538
