# .PCD v0.7 - Point Cloud Data file format
VERSION 0.7
FIELDS x y z
SIZE 4 4 4
TYPE F F F
COUNT 1 1 1
WIDTH 1567
HEIGHT 1
VIEWPOINT 0 0 0 1 0 0 0
POINTS 1567
DATA ascii
91.282089 -65.147324 99.983322
82.038536 -60.905266 88.628647
72.471962 -44.584183 87.541985
-12.546215 64.791199 53.541481
-18.404148 67.421799 46.186924
91.608322 -57.881653 101.10152
88.225754 -62.843071 96.825363
23.985758 -35.120533 12.859932
17.371239 23.688156 63.624912
20.246962 59.64473 102.44572
93.963844 -62.755569 100.03778
84.627258 -65.414215 88.299316
31.70372 -4.8779259 58.029652
25.537998 -41.643764 10.411686
85.114113 -63.193054 91.321663
86.394028 -65.038147 89.657707
9.6728516 42.699188 69.144844
43.985386 -32.849762 52.06871
7.5727158 70.933823 94.289558
35.604034 -11.800884 58.594444
46.754101 -33.108459 53.232685
15.388195 30.76536 66.699051
80.422058 -60.676353 85.467316
82.911537 -54.000244 95.265877
65.599434 -41.668575 73.970551
74.952354 -59.55835 77.701538
78.741928 -58.601891 82.403175
37.106438 -14.305784 57.700638
88.055405 -63.161942 96.16613
92.725952 -64.011353 101.90919
-22.939419 56.105106 23.590399
-10.948311 64.702667 54.652504
91.861893 -64.542412 101.02338
92.305527 -64.866135 97.623589
-18.323881 44.311974 21.109583
82.266663 -61.865005 87.73381
80.651794 -61.456551 79.2799
1.5404129 48.270405 61.28125
90.959 -63.48156 98.970367
39.132523 -18.304001 56.086784
86.071091 -63.679787 92.081284
-21.064882 46.982536 21.537382
83.322304 -65.706253 85.302551
91.216255 -59.144531 102.41123
83.227295 -60.717987 89.799088
89.531349 -63.225296 97.957603
81.102036 -53.649872 92.714058
81.414536 -62.733345 84.551727
52.811829 -36.353638 55.698135
-0.73056793 49.91946 58.350937
75.268944 -40.398487 95.941666
-6.0836048 65.852364 64.844009
87.97831 -61.999077 96.670609
7.0544395 45.252476 66.588203
-16.313858 44.278954 24.334177
30.597715 -24.066689 37.711441
-3.4472046 67.76593 71.599945
83.875702 -65.708054 86.023346
84.50885 -62.439011 90.339912
42.090683 22.136211 101.08946
89.654129 -63.340706 97.281036
84.531082 -63.108208 88.354713
31.093857 -33.415104 27.427238
92.497543 -63.377518 102.70071
74.147812 -59.197983 75.953484
85.666183 -64.044334 90.508041
24.649382 52.04274 103.0283
25.338261 -37.943069 11.667579
45.719822 14.59502 99.952263
-8.9440575 64.384125 59.018471
28.482706 -46.573025 9.5179272
-11.659792 57.203003 43.539574
76.190414 -59.4916 78.9534
89.599289 -62.823509 98.09417
82.586922 -65.067345 82.913361
24.799471 -28.228725 19.508759
78.109413 -56.330284 82.954559
77.921524 -60.89621 77.540695
78.441635 -62.927742 79.308876
86.51062 -64.395126 91.276093
87.223236 -64.077782 92.745209
-16.70364 57.672935 38.006615
-19.665915 46.900639 21.336077
93.501053 -62.749016 103.12578
87.536514 -60.954254 96.227318
54.695694 -2.7756672 96.890205
86.048569 -66.329765 88.515266
82.096603 -63.912621 84.233994
-15.548246 66.565857 49.116768
84.067551 -61.804108 89.392258
-5.0347004 52.652523 52.3013
83.729805 -63.983009 86.683113
26.775635 -24.918015 28.356918
83.111084 -64.689621 85.019768
84.67012 -65.897095 86.484993
0.52559853 69.873215 79.525627
28.288666 -34.14719 21.576077
90.272385 -63.467613 98.320206
80.77507 -51.728626 94.11956
27.442999 -44.438831 9.304965
-16.892603 46.428112 28.200813
13.569969 39.137188 71.330093
16.571077 27.201866 64.261505
-17.246166 55.054394 31.046038
78.179543 -43.25687 97.38839
78.26194 -48.279785 92.494583
21.937946 -30.126156 18.239689
89.038452 -63.333305 96.05648
38.791424 -17.34199 57.237202
24.312702 -30.312141 17.247646
85.24762 -63.469643 89.628349
15.061607 37.768234 70.87326
45.487877 -31.267673 51.792637
90.333359 -63.128754 98.479767
24.241648 8.7688313 58.514301
30.017815 44.51675 102.91198
37.533443 -20.572226 50.433167
81.049088 -62.58239 83.20929
88.923187 -61.527878 97.355392
88.910057 -60.545029 97.27137
-19.579815 65.394913 40.109573
83.912827 -65.522156 84.524612
83.700119 -64.611832 85.566925
56.592491 -9.7954521 95.43734
64.088211 -16.186974 96.203812
78.814056 -49.591526 91.286201
13.14452 42.112011 71.417152
62.049381 -13.894165 95.492744
81.042404 -48.011471 96.573296
88.893684 -57.379738 102.05825
91.836967 -63.509544 98.889954
43.20108 -31.700741 49.586845
80.539185 -49.318771 95.064774
80.958382 -46.005329 97.923515
79.226761 -53.980991 88.157059
-24.214901 59.449871 26.724451
29.734802 -46.185402 11.08109
34.415863 -32.393475 33.146347
75.607239 -36.494476 96.86718
78.1147 -53.359032 84.385841
85.02018 -63.145355 88.828758
31.515999 -25.133598 35.625889
90.564728 -63.564217 97.664185
34.115196 -24.48341 40.551838
-17.601112 68.305107 46.548466
75.466522 -59.994202 75.820602
24.671335 55.731064 103.15923
88.41922 -53.540401 100.06059
-16.052969 48.190914 27.769575
79.575638 -60.112656 80.983009
74.089966 -32.417488 97.844017
78.242065 -62.381775 78.000671
7.4475899 71.895744 91.571503
90.094299 -62.064331 98.099396
88.659874 -65.174049 92.886055
85.847687 -66.420761 86.741867
88.331299 -65.705498 91.608757
-9.7903481 63.97604 55.114532
-20.98756 64.059219 35.480034
93.454659 -64.02356 101.31969
80.843094 -62.405411 82.104706
-13.618904 57.632336 40.952385
90.081467 -63.842773 96.533012
72.690231 -44.919189 83.52813
38.633232 -18.877365 54.850864
67.809174 -42.087315 76.560196
37.270454 -31.439724 38.887867
91.270874 -57.10463 101.84187
85.725212 -64.107285 87.68161
8.7575874 71.596405 94.151245
32.973705 -5.3487206 56.700226
84.597046 -64.698013 85.966713
79.748154 -51.995522 89.455765
84.283684 -66.79641 82.230423
91.394196 -63.096748 98.892944
92.931305 -62.708824 99.888443
81.155594 -64.219101 80.426308
93.51474 -63.42952 102.05492
24.898506 -33.014839 15.956087
90.842438 -63.638023 96.310951
87.294197 -66.480293 87.347183
80.241898 -63.748184 79.27037
87.435425 -66.000488 89.134079
90.00782 -67.664253 91.248474
87.96698 -66.095924 89.916916
74.883987 -58.805733 75.102325
70.077393 -43.209152 79.615486
78.148254 -61.909592 77.447693
84.720863 -52.398972 97.22467
18.698828 23.502077 61.556755
90.404312 -64.668076 94.475922
-19.642374 47.423218 21.481892
2.5611839 51.340992 61.103123
79.194885 -62.937721 77.523903
30.27861 -39.704517 16.559322
86.985443 -65.854385 88.290092
80.0914 -60.692604 80.006416
8.7582932 47.138725 66.841667
27.901665 -41.058453 9.73458
63.123497 -40.966255 70.522423
-21.714128 62.418301 31.594975
58.652496 -8.7866707 95.962616
38.758091 -16.395899 55.281063
81.56929 -63.659866 81.804482
27.002836 -38.858078 11.357002
-2.9774761 53.504169 54.554489
48.287254 11.256289 99.369598
81.332199 -65.42128 78.876678
92.068268 -63.616371 98.201492
-16.638916 44.499474 23.28541
14.852238 40.452736 71.797058
71.05835 -24.332802 97.516266
92.013931 -55.162628 101.19563
-15.083733 57.755756 36.520103
85.866028 -66.950714 84.044754
85.048447 -66.59008 83.840775
91.877182 -62.962097 98.971909
17.016956 63.753685 101.44381
80.407486 -59.513863 76.325981
75.904831 -50.375446 84.53981
85.572754 -64.981369 86.229065
93.995781 -64.153259 101.24296
78.087074 -59.021217 77.39698
-16.629608 52.752304 29.126822
80.836472 -64.815941 78.348839
-18.477671 67.224915 41.625885
68.066696 -22.031265 97.348335
86.649643 -65.503311 87.387016
78.261185 -51.629005 87.19281
82.967133 -65.692383 78.455917
-6.0665531 65.246384 60.90448
-16.631472 68.871078 46.197891
0.20040512 53.943096 58.929749
41.063923 -20.218739 54.295494
92.718307 -58.822891 100.88192
82.306763 -64.652412 80.157181
-17.215818 45.924728 19.678787
28.608505 -25.918064 27.212709
34.460789 -28.642387 35.364395
40.152092 -18.036318 55.567097
91.435425 -62.015045 98.65255
42.303917 -28.937019 47.901871
94.41568 -62.856041 101.96431
38.608925 33.050396 102.50868
55.939602 -38.454754 58.946129
28.115105 -35.051918 19.583698
72.695717 -46.933853 81.305656
86.235733 -65.135948 86.643158
25.900265 -36.91333 11.891675
33.191223 -27.335003 34.352875
92.393326 -63.292892 98.817993
92.631035 -62.911224 98.873535
29.180664 -30.74308 22.665598
80.34697 -64.061737 77.721634
75.574516 -59.210587 74.488182
92.624405 -64.699829 96.207481
79.797798 -63.519211 77.239807
74.892883 -58.25016 74.241272
77.243881 -52.134201 82.938019
81.294861 -65.732178 77.625153
-13.696127 66.886688 48.548931
51.960091 2.3145132 97.711227
92.35125 -66.49131 94.056252
47.230927 16.00053 99.972321
79.571434 -64.028336 76.257988
35.977409 -25.744888 40.889256
79.302872 -62.972435 76.608833
-16.092636 43.928993 22.748459
85.899368 -51.60775 98.65699
87.676376 -67.569366 84.556084
92.294952 -62.769783 98.828781
-8.4024544 64.069855 54.131432
78.604919 -61.422768 75.996628
75.632767 -57.876465 75.543159
86.711761 -66.223953 85.686935
24.412106 11.549067 57.493717
80.237167 -64.984909 76.145004
79.688362 -64.439949 75.706047
26.516172 -33.704712 16.25626
80.876358 -65.563133 76.558929
-15.642328 49.482639 27.943295
78.233215 -53.204838 81.394997
-16.346224 49.746986 27.578768
-4.5195427 54.407963 51.646904
29.569366 -44.637363 8.9908123
81.149612 -62.386208 78.563454
34.712936 41.918755 103.253
-6.4816265 55.569572 48.708172
82.198471 -44.170364 99.066689
91.917252 -61.879333 98.685532
79.289307 -63.49334 75.781631
92.868263 -64.213219 96.90699
77.824837 -60.599403 76.189102
48.502609 -31.541149 53.194191
16.494976 70.267624 98.089592
73.300758 -47.981358 80.108154
34.855923 -6.5723801 55.437397
82.089325 -64.097618 78.840271
93.039673 -62.988846 99.286446
91.98838 -58.355278 98.963943
40.629887 -26.92939 45.983898
30.58963 47.747017 103.64247
93.475601 -63.766174 97.755753
79.359695 -63.87558 75.203186
93.012054 -69.655113 90.872604
86.491371 -69.6315 80.30809
90.423386 -69.541481 87.186653
90.014221 -68.218628 89.124619
80.719406 -65.595291 75.647293
-12.674719 65.959473 47.52573
30.760155 -42.766827 12.755495
17.928358 30.7048 64.371429
80.157646 -65.005692 75.210793
92.966064 -63.140526 98.650223
79.085938 -62.436401 75.851501
-20.954025 61.18417 27.305103
28.164238 -36.304214 14.145723
27.369886 -27.816814 22.059608
79.971756 -57.310997 77.515251
86.366318 -70.866287 76.409142
40.235363 -17.052345 53.950329
79.333099 -62.963257 75.377663
-20.625494 56.01659 22.083374
79.805107 -64.407043 74.663246
92.374985 -61.828522 98.447044
70.662788 -45.123215 77.44384
42.625763 -24.045795 51.176147
93.968185 -63.361816 99.005142
30.994383 -28.417793 27.494576
27.19875 -32.997871 15.231899
28.494871 -34.997478 17.395567
15.161552 43.567318 71.760345
30.106836 2.7545261 55.218147
79.324013 -63.30127 74.682976
-9.719059 58.957203 43.558502
20.558041 28.270521 60.443394
91.016342 -68.935188 87.611366
89.349602 -50.860241 100.22147
80.227303 -57.597557 76.824821
50.147804 -33.17382 53.54047
90.687813 -68.035004 88.809517
44.630245 -23.549839 53.983822
13.70356 71.614876 95.047455
-1.1165981 55.790089 57.838463
-15.724422 68.81546 44.787365
16.780792 41.490326 71.430725
90.135574 -67.840919 87.936348
85.282173 -47.215294 99.997124
73.937706 -48.265015 78.38073
77.788956 -59.769608 75.330505
-18.861237 53.800419 21.067833
-14.920181 44.765804 21.284653
82.706131 -65.311005 77.991898
44.667061 -27.09137 50.583179
-16.042191 44.164619 19.905067
91.590057 -68.323936 89.634308
7.0886917 72.024307 86.088219
83.388702 -66.559158 77.041908
-14.669189 47.135059 25.144302
-12.011696 59.082745 40.297176
8.1343784 51.173077 65.914825
81.007828 -63.065735 76.957733
18.390862 66.52932 101.03485
81.928253 -64.464554 76.954613
43.837513 -21.622194 54.835205
94.862915 -61.184296 100.19305
-21.105742 59.304386 25.061035
79.14563 -61.804848 75.124443
28.925617 -29.136967 22.575481
79.236618 -57.437096 79.629898
77.974236 -59.274811 74.714516
-15.186817 57.415215 32.261959
-18.935966 65.120773 35.049541
17.368233 38.881844 69.645195
5.2524509 53.212257 63.787903
78.532906 -60.623619 75.155716
80.660538 -61.527199 77.179993
-4.8258076 56.443054 51.187363
-1.7227192 57.810036 57.891327
81.448227 -64.115738 76.426857
28.607244 -34.041603 16.040205
91.991623 -70.428062 88.591133
89.285637 -69.240349 82.792221
-19.161709 49.069454 20.289734
1.93606 69.95845 74.606323
46.2985 -28.042316 52.311962
-4.9159431 64.90361 60.179329
53.512653 5.3208275 98.045959
60.456886 -39.442806 62.130928
-19.047649 62.601212 30.20401
34.507229 -1.8142042 53.757538
32.228699 -0.84899139 55.109653
13.204582 49.663994 69.64682
79.051559 -36.408169 98.44268
29.365072 -40.813606 11.471809
-7.2002983 63.459198 53.721489
93.816315 -57.95649 101.06347
76.128342 -58.127327 73.109131
75.842804 -57.579361 73.126297
46.738701 -27.520912 53.352665
92.720657 -68.286812 89.978645
94.484016 -66.027153 94.972961
-4.7000122 62.813839 57.217682
69.162079 -20.34922 97.265198
81.157982 -64.286736 74.900948
80.668564 -61.85614 75.580688
89.9897 -67.526711 86.939636
69.366173 -44.04837 74.367981
87.070923 -47.631935 100.48488
26.394812 -28.689209 18.612978
28.47681 6.8896518 55.287094
80.960541 -62.212479 74.152626
28.530827 -30.555218 18.76156
83.258484 -66.736961 75.835678
-8.9181786 59.949657 44.428551
-6.8887863 62.505013 52.494316
41.631927 -17.591381 53.064037
-13.263954 59.172237 36.598
81.413849 -64.995483 74.320274
66.387695 -41.727257 71.081207
92.447838 -59.083267 98.368462
42.827106 -19.124044 53.941193
-17.119396 67.116089 40.767574
82.964172 -66.754829 74.672447
83.996361 -71.535576 72.188858
46.61747 -26.129536 53.810825
-17.307459 49.711327 19.694393
77.723671 -50.534386 78.274193
75.870728 -57.128677 72.667885
32.170429 51.366932 103.71007
83.371651 -68.502007 73.704048
81.30191 -65.008789 73.268318
1.1879787 59.70829 62.281048
27.756868 -31.581554 15.68999
22.591448 21.227448 57.783218
82.231682 -66.458084 73.997597
42.863506 31.51347 101.68937
59.467758 -5.4364052 96.24234
-7.9548607 60.23402 46.611038
80.907372 -35.519608 99.042992
-2.0937099 63.591671 61.120514
-0.43237305 66.902252 66.26973
72.383026 -46.027664 75.821602
95.657257 -63.699455 96.901978
63.932713 -39.130409 64.651062
78.200035 -58.908783 74.262871
63.423065 -11.574364 95.637466
88.967255 -72.340874 77.648148
90.706009 -71.452484 80.138405
95.928375 -62.545334 97.779854
90.197571 -67.161133 86.168121
80.601929 -60.782486 76.262688
95.608551 -70.219223 90.745308
82.669769 -69.262566 69.872253
-11.083405 65.026428 45.343399
94.595711 -71.049934 88.736893
90.644333 -69.616028 83.35054
35.639637 44.056423 103.44622
84.25267 -72.343849 70.56044
96.150337 -60.927834 98.853035
87.539001 -74.042709 73.834137
6.7263317 71.865067 81.247559
-15.196688 45.648197 19.277527
38.436096 -10.20998 52.979347
65.446915 -39.374027 65.981781
10.298618 72.860962 90.266518
23.132286 26.699429 57.521923
-13.75301 66.722885 42.717232
90.49823 -66.844757 85.23661
23.868402 61.106621 102.80156
-14.092859 50.650856 26.864178
2.4306126 69.709976 73.134491
-15.410404 55.534878 28.399082
80.555313 -58.094757 75.96283
76.886093 -56.501701 73.566895
9.6850224 49.499157 66.994751
91.608002 -51.598198 100.714
93.595062 -68.037445 89.874039
-17.083364 64.666016 33.871536
94.542755 -67.922195 89.736336
55.371391 -35.278545 55.282215
76.152954 -30.59647 98.571526
67.606979 -42.180737 70.654846
5.3567257 57.776737 65.275688
1.9435425 65.648628 66.776817
-19.888212 56.040413 22.413921
80.795563 -61.157547 74.849655
94.797028 -70.853516 87.074699
65.762451 -14.373844 96.218178
93.445068 -69.335075 87.978439
83.733162 -65.203308 75.408928
69.764359 -43.60598 72.362671
92.789032 -68.607536 85.492424
79.065849 -57.09761 74.77314
-19.43556 60.304844 25.980751
-11.050068 61.459846 40.408585
81.290604 -62.904457 73.592667
80.776367 -60.120087 75.463188
-9.5381851 63.256557 45.09734
88.086288 -75.732376 69.959412
20.708702 68.467682 100.19286
89.703888 -74.774048 74.907944
81.448349 -67.751518 68.588287
46.784332 -23.792332 51.958302
82.815826 -68.822029 67.913986
55.187706 9.3772593 97.642616
-13.730028 51.249081 25.743385
26.374966 13.875447 55.519333
-13.963884 47.42025 23.124514
81.813934 -56.136993 75.109535
93.951385 -69.267502 83.939529
77.205963 -57.048225 71.998131
50.962448 14.213748 99.074455
96.846893 -65.391006 95.205177
88.040642 -44.386593 100.16445
76.810486 -56.581306 71.655716
8.5915451 73.092239 83.013344
81.95504 -63.497879 72.033546
84.704361 -67.199791 74.280525
-15.882063 48.459877 19.292252
60.747437 -38.143864 59.436863
95.090057 -58.919403 100.15598
78.930573 -58.292656 73.334457
-17.518471 51.991467 20.856623
83.893181 -67.90905 72.014404
11.750061 73.989563 88.198959
17.068079 44.490021 71.000618
81.41687 -64.55957 72.692238
19.558537 34.742905 64.040619
17.991375 42.530273 70.484093
8.8096485 56.589806 67.539726
14.870052 49.191673 70.236435
-14.144625 48.572937 21.955574
4.3479271 62.302013 66.579681
76.944695 -56.037842 71.493347
-17.589853 59.372646 25.941612
86.51207 -68.537323 73.204811
83.638771 -62.978531 73.651123
84.108017 -64.629311 73.100632
91.295906 -66.455765 85.00264
81.021088 -58.64357 75.286674
4.6551552 69.1073 72.968689
81.290863 -60.479858 74.174362
49.058479 -29.420517 52.63517
86.047104 -69.828339 72.209053
50.205757 -27.085625 50.580517
89.980614 -76.283905 71.778046
95.675079 -67.1577 88.453606
54.390301 -32.284027 51.943974
79.023651 -52.65081 78.893639
81.302299 -59.440514 74.763611
97.785202 -71.441582 86.600151
-11.70472 64.530304 40.477959
9.3136787 73.66568 85.390221
45.163101 -19.76479 50.181885
-16.961214 55.034424 22.819731
73.867813 -45.466133 75.020576
77.839401 -55.590431 72.566132
-15.785891 63.132965 32.07716
92.617302 -74.137863 76.901001
99.840576 -56.325089 99.551193
86.492645 -72.369392 69.785461
82.960434 -65.048828 69.011185
60.540047 -2.2003317 95.770058
49.584007 18.801434 99.315735
14.879541 74.139236 90.8116
17.453106 72.996544 95.061577
-13.348686 65.352997 39.465225
19.042412 71.035828 98.576218
97.496277 -70.394508 89.849236
42.986134 -15.981445 50.188679
26.684334 65.692291 101.53275
85.809265 -73.021484 67.600433
96.943504 -71.528038 84.589996
92.704208 -75.885048 74.164215
-11.372187 62.698467 39.630779
64.84967 -9.7723465 95.214432
95.036217 -67.438156 89.076065
86.68737 -74.40699 67.496147
84.841278 -64.810684 73.503517
21.910992 69.979309 100.73502
6.3927956 64.593109 69.503555
79.097885 -30.969986 98.754158
68.641991 -16.935925 96.413071
78.10817 -56.362549 71.304749
-16.056953 57.432491 25.66205
92.072983 -66.184669 84.725929
7.7264767 70.526527 77.21109
-15.22385 57.22403 26.925533
84.314346 -69.200134 68.457062
24.003803 67.067413 101.05275
-13.867653 60.193275 32.765762
81.428574 -54.487343 75.953125
75.461349 -22.349655 97.476501
85.22142 -72.432404 67.243614
92.182831 -47.270271 100.65466
83.07531 -68.219093 67.402786
94.390915 -67.916801 85.467972
28.887655 61.541061 102.58944
-14.241154 62.543678 33.36356
94.439507 -70.187393 82.376289
95.454788 -69.903519 84.690941
85.406464 -72.363693 65.168755
83.944077 -66.427368 65.93438
9.0284615 72.532516 79.695229
89.340652 -74.82399 68.976028
78.444305 -49.302437 76.967789
17.266207 48.390388 69.029297
84.236298 -67.698708 68.397736
8.5879517 61.517963 69.140068
93.071503 -65.941956 84.596199
80.952301 -52.463913 76.220123
50.410847 21.41473 98.841949
80.089325 -57.25631 72.648514
92.183174 -76.921715 70.70443
89.115005 -73.919708 70.349228
102.17006 -57.871239 97.877159
58.509186 -35.175941 54.672886
84.267418 -70.611412 65.64682
74.680359 -43.492241 73.483215
11.955013 55.176018 69.114716
94.722137 -68.692787 85.686646
99.56002 -70.642746 86.128883
8.928484 68.18158 74.212799
85.233932 -63.759727 74.457939
86.806396 -68.629608 71.484955
37.430328 49.418648 102.60852
93.518433 -76.589806 72.406082
70.092575 -14.656269 95.484283
26.146259 21.377552 55.047626
84.944519 -71.714287 65.238045
82.257965 -58.740952 74.174156
83.827499 -65.362 70.458832
84.482834 -71.07473 65.600288
82.827271 -70.112556 63.727158
88.760147 -72.219833 70.034607
82.575836 -69.585793 63.785095
31.679358 6.8573933 53.196812
85.267723 -65.606224 70.918297
80.17804 -56.44239 72.610992
78.142517 -55.346458 70.27626
20.685144 73.93515 100.83604
47.430447 -21.784214 49.111565
99.25528 -63.547112 95.593277
83.221344 -70.640289 63.398991
84.780518 -71.414207 65.223419
83.078827 -70.404442 63.347446
14.755943 53.263416 69.72052
82.909836 -69.893623 63.056927
94.434189 -65.875023 85.158279
82.645706 -69.374672 63.11718
81.990097 -56.895599 74.882393
80.263916 -55.48465 73.384048
78.245941 -54.966507 70.501114
84.245621 -69.980949 64.949249
87.891479 -71.655724 67.531723
88.524742 -70.656906 70.107826
83.723244 -71.196922 63.362621
70.342606 -42.802711 71.084663
46.331242 30.10125 100.33578
94.900253 -71.231438 81.644646
79.037613 -54.710358 71.868347
20.230722 42.102104 65.360428
83.773468 -67.673386 65.105789
85.256302 -71.993721 64.993675
83.460617 -70.901733 63.179073
95.749344 -66.606888 87.343498
87.610374 -73.871544 66.301559
83.33786 -70.652695 62.977631
19.937187 74.473946 99.701408
83.249855 -70.296745 62.821655
84.565918 -71.831924 63.627861
87.150993 -68.210518 70.903702
51.736877 -28.07909 50.288792
84.339035 -71.546265 63.349606
82.354874 -68.604889 63.118019
85.399971 -64.356354 72.489716
89.214111 -73.559219 66.331474
86.909637 -68.693489 69.58255
91.942192 -76.477676 68.330284
83.954422 -69.587051 65.07814
82.205109 -68.087433 63.320129
84.75927 -71.570053 62.416168
83.720947 -68.571709 65.0289
82.271797 -67.248161 63.416626
85.122864 -61.783791 74.292099
85.026581 -64.911919 71.336029
86.658066 -67.74765 70.240822
90.229225 -74.433975 69.780472
73.095413 -41.074547 71.09201
82.160278 -66.921432 63.487724
85.864929 -65.542862 71.240952
85.714188 -71.319061 63.377522
96.252777 -75.129532 77.39843
84.964806 -72.028984 63.348701
85.163666 -72.497826 63.677742
83.965073 -66.78447 65.05648
84.697746 -62.553947 72.043648
85.53923 -70.818771 63.1465
83.064293 -69.883156 62.549664
85.533112 -72.714111 63.952003
19.15222 46.248592 67.444572
85.845612 -70.25782 62.466988
82.845383 -69.346291 62.452641
85.317612 -69.852715 62.722099
82.310974 -68.109573 62.764572
87.143295 -72.874336 64.007553
84.143761 -69.015564 64.349136
85.309509 -63.785904 70.661819
87.208984 -72.927902 67.530304
84.07373 -71.162262 62.545677
85.911301 -71.809204 63.708939
83.833862 -70.772141 62.350163
83.273613 -33.331974 98.693832
87.549484 -70.043816 68.734451
13.837114 56.094982 69.728592
95.271332 -66.146935 86.313904
82.116249 -66.510757 62.728813
82.302216 -65.887093 63.531288
83.132339 -68.681168 61.610821
86.123932 -59.410477 75.302017
21.344568 37.371441 61.877777
18.962458 73.773964 96.843109
84.952408 -71.854019 62.832333
85.485664 -37.849667 99.535965
88.857216 -68.700066 72.174957
100.45609 -66.933006 90.735931
90.110153 -73.014671 69.320656
34.162003 11.869862 51.020622
82.171341 -67.321541 62.548443
37.064949 -1.883194 51.804749
10.891359 76.869843 81.596313
76.824974 -45.258244 73.812943
87.686707 -72.219849 62.787552
82.218834 -57.875107 74.6138
86.944504 -67.518661 69.483238
87.334442 -68.698181 70.170334
89.608429 -72.454704 69.758942
82.666046 -67.929527 61.942986
97.189194 -72.782578 80.868042
83.506271 -70.050415 61.903442
32.100422 60.232777 102.42396
20.900755 75.632065 101.72986
83.142395 -65.544518 64.528801
14.668407 75.953796 87.583687
86.171738 -72.51429 62.78521
82.230942 -66.087494 62.789963
33.577168 8.4477139 51.729244
12.387167 60.521069 70.540131
10.1985 70.362778 76.349747
88.377258 -72.636543 66.115112
84.744232 -71.199532 61.839622
86.350388 -64.738907 72.450134
84.398636 -70.791901 61.457039
64.434334 -36.56329 58.487286
84.124634 -69.201225 60.605881
84.174011 -70.369919 61.212608
43.231956 39.267563 101.07715
24.520973 70.594185 101.53287
19.471628 75.812866 98.360184
86.001633 -61.50399 68.809372
82.880463 -66.160858 63.955761
11.42849 66.067238 72.909729
82.527908 -67.372353 61.868458
65.442261 -5.9671192 94.16304
93.440811 -74.249977 73.436531
84.015541 -67.036324 64.833435
82.686478 -66.325912 63.187489
10.439178 97.583305 104.18828
91.007805 -74.985535 69.27607
91.255997 -71.929893 70.624908
10.94701 95.00605 103.19759
86.259079 -63.542397 71.877853
16.980299 51.704929 69.079544
91.854843 -75.320137 67.385033
86.3134 -64.324081 69.712189
93.453239 -75.549858 73.437904
86.110268 -72.2034 62.234764
85.668564 -71.758186 61.839775
88.854187 -73.395691 63.920803
88.199936 -72.835793 62.631191
95.96788 -78.199661 71.689651
84.056122 -69.876511 61.031281
88.664185 -73.03524 63.018707
82.457977 -66.731003 62.158638
9.4783173 97.372269 102.51698
94.747009 -75.060036 73.877327
66.484306 -11.105318 95.306458
84.270981 -66.202934 65.159286
19.261333 74.133598 94.923134
40.449684 -6.1691608 49.566837
83.65921 -66.000183 64.316277
87.456116 -62.464897 74.483727
87.822021 -65.433311 72.258286
85.75412 -68.592133 62.498455
83.304062 -67.878616 61.253105
91.767746 -74.88472 68.264908
91.571304 -74.039024 68.670708
-5.1380653 129.14046 108.52547
88.811409 -68.059319 71.207756
98.272125 -50.433582 99.300812
88.551575 -70.210861 66.872253
86.716232 -60.986679 71.252625
83.911789 -65.634178 63.257736
91.632301 -73.928101 68.833412
85.876633 -60.201111 72.98204
92.892754 -74.913803 65.513939
85.592285 -57.728638 74.118706
89.402672 -72.511276 66.717041
97.537857 -75.552544 76.177254
87.084801 -71.634682 62.677063
73.775101 -11.342579 93.010948
87.774269 -72.584839 62.163651
85.736099 -71.40715 61.115425
85.163483 -66.754982 63.781982
83.262093 -65.96492 62.129112
88.977509 -64.494713 73.34893
46.980888 -17.357534 47.831455
10.464951 99.623512 104.77402
85.279129 -67.286209 63.400196
87.799721 -61.275536 71.130211
75.570038 -18.859119 96.217438
91.452667 -74.177963 65.284729
89.642868 -71.937119 67.861954
11.551323 68.37561 74.375854
85.41069 -67.914948 63.005169
-4.8778954 130.35667 109.35108
89.403244 -69.51519 68.947128
7.2387886 102.5452 102.34651
94.810287 -73.877235 71.32402
92.238602 -44.533596 100.01595
-14.435932 147.91585 111.58937
-6.2382317 131.17744 107.92468
85.73867 -69.364159 62.486195
83.765594 -68.369072 60.803181
94.672241 -77.896729 72.301186
18.081512 76.455612 89.997818
86.236694 -70.650162 62.528214
89.942307 -72.388115 66.090256
13.260859 63.71619 72.1436
86.613945 -71.126045 62.576237
85.454361 -70.30761 60.380527
15.297243 58.40686 70.234375
85.65284 -70.802696 60.67144
87.188354 -71.544373 60.955555
95.745338 -74.945816 71.703102
-11.595036 143.90854 111.72584
84.320457 -65.588608 63.807667
89.099411 -66.567154 70.117386
89.097946 -68.055817 69.268677
95.530991 -73.914612 71.405777
90.74662 -68.062759 72.624367
95.011826 -52.239784 100.8522
-14.597469 150.8761 112.67134
93.859467 -72.955498 68.342903
91.535217 -73.81369 67.195808
59.485733 -32.995491 53.162365
84.2164 -65.723083 62.384075
94.780998 -76.292763 70.191048
49.846916 -23.589542 48.535728
92.190689 -72.471863 65.875282
19.829153 76.294739 96.298653
85.845322 -56.906219 71.302063
88.722206 -66.205948 68.561195
94.990417 -75.789818 67.452522
103.03915 -64.349899 90.882492
23.149113 37.74987 60.045208
10.961308 74.854118 76.474136
88.015137 -64.227303 70.201904
84.139206 -66.619614 61.283524
84.871948 -53.025375 73.163376
84.194214 -67.204849 60.917091
-14.433434 148.59866 110.22339
27.439989 68.917221 101.38955
84.082649 -67.663086 60.670689
89.966782 -71.358551 66.498566
18.443432 79.927368 97.488708
84.215485 -68.173119 60.388626
90.487442 -73.720352 66.204628
78.172928 -44.909515 72.867126
84.693726 -68.853912 60.294121
87.631058 -56.611565 74.227364
82.006287 -51.931416 74.715668
91.140678 -66.796272 69.38765
87.725922 -72.081711 61.490475
85.50322 -69.619034 60.035469
88.807793 -71.687019 62.027348
52.565376 25.235924 96.975357
91.823807 -73.160118 66.355942
17.500093 76.862961 87.596268
-17.055012 155.60652 112.55719
101.00364 -53.901993 98.932419
11.390839 95.19101 100.11996
46.074902 -13.030096 47.795906
20.05863 74.894447 91.846031
91.375702 -70.970726 66.192337
65.423317 -35.39703 58.0131
55.061504 -26.819542 49.085712
10.083282 102.73022 105.12372
4.6349678 109.2132 102.50874
87.306351 -58.345863 71.945816
12.576355 76.985161 85.05986
57.509155 -29.764988 50.283287
85.482376 -64.88208 62.313667
-16.98571 155.80952 111.33195
51.048683 -21.483139 47.700073
21.722349 75.142677 92.922112
84.864746 -65.762939 61.191151
98.661133 -71.592445 82.667938
-2.9925041 130.18649 109.15221
-6.1468468 133.05432 106.66766
-10.11393 144.4989 111.61694
85.441879 -67.371201 59.885338
87.135239 -69.017242 61.586708
87.056961 -69.847382 61.750885
88.01799 -70.082275 61.408779
92.776413 -73.309433 64.264038
89.007065 -72.044693 61.632439
87.042549 -70.157166 59.697998
88.332108 -70.535828 61.48465
86.556595 -69.717583 59.60326
14.275364 63.719769 71.027382
89.11586 -72.616081 62.28809
11.940987 71.201324 74.512283
96.894142 -77.711266 69.79969
91.063385 -67.967888 66.423271
89.571999 -72.859436 62.683144
33.395317 18.491566 51.047459
94.492767 -43.735657 98.642441
27.143641 32.472221 55.792545
29.738056 29.178137 53.38118
-15.534264 156.45766 112.24432
99.1129 -76.202744 71.520859
100.8124 -69.863876 83.23288
92.825844 -72.46347 65.813377
92.430481 -73.822647 66.690773
92.702385 -73.070663 66.310974
95.589066 -77.018272 68.459961
92.866104 -73.881538 66.231705
93.484314 -69.921547 70.782425
90.116776 -72.614677 62.41367
89.707939 -72.345894 61.993401
89.13118 -71.320305 60.677895
88.116943 -71.238373 60.419468
89.114624 -70.72287 61.344536
87.575264 -70.732056 59.984665
90.74649 -68.749893 67.339767
87.993958 -69.396873 61.170879
91.954086 -68.348679 64.853073
86.410721 -69.299591 59.48259
91.919815 -65.29615 72.771019
86.133774 -68.707855 59.436264
87.135544 -67.715317 61.716736
85.689018 -67.948936 59.623898
90.193001 -64.798409 70.388702
85.357689 -66.761398 60.246006
85.254234 -66.181824 60.651222
85.74926 -65.109909 61.46151
90.45639 -62.626709 72.97403
87.154739 -63.911682 62.118862
88.87709 -58.435043 74.503944
86.788193 -56.0681 73.077103
84.192535 -49.972218 72.899445
81.907379 -44.129932 71.470505
87.783813 -33.963787 97.132607
74.653633 -39.703568 69.263283
70.795418 -37.497967 64.96627
61.091743 -32.100742 52.503769
83.729858 -27.646416 96.617462
71.605499 -7.6437302 92.034462
41.783051 -5.1057901 48.461136
62.790298 4.689415 93.661865
37.700218 3.6974921 50.383282
58.095177 14.789094 95.328392
20.506536 44.018402 65.588028
42.140255 52.263535 99.820221
36.163227 57.611813 101.70717
29.763058 66.44648 101.15386
29.109882 68.714951 100.92263
20.802235 76.472145 94.678177
20.352575 78.373077 95.821243
16.463028 86.866859 97.759613
7.1402855 111.75515 105.78737
5.5562668 109.21476 101.72531
-13.281822 148.47902 109.23996
-12.962093 151.64291 112.09799
-15.906246 156.96867 111.21512
12.508905 78.018036 82.339455
67.213806 -35.87495 60.500874
93.428337 -70.85466 65.118858
101.54936 -68.930428 85.366325
102.61176 -62.234375 94.113251
98.126465 -76.439148 68.535904
91.986053 -71.120537 64.773262
93.852188 -72.556252 65.689041
31.481527 23.658222 51.97007
96.34362 -73.432449 70.923622
102.93974 -53.976841 97.589287
49.408436 -17.211952 46.739777
15.302397 64.927147 70.932205
90.569473 -72.267609 62.091309
14.131952 72.67675 74.009354
17.291061 59.621387 69.077492
-12.480354 149.75749 109.06456
13.909039 69.774521 72.976959
90.204117 -71.97039 61.642395
23.483156 45.825539 63.983559
90.341507 -69.673584 60.739544
87.899475 -68.84478 58.933258
88.397583 -69.236641 59.027367
92.140053 -71.316292 61.965569
89.737335 -71.595909 61.130913
93.593452 -74.292206 64.94339
88.905685 -67.544434 60.608036
87.175758 -68.626663 59.043098
90.493019 -70.604973 61.103722
88.864594 -70.549805 59.960983
53.247902 -21.41497 46.463684
102.3154 -69.318581 80.88475
13.84058 78.301956 79.974258
88.339088 -67.935616 60.936077
90.167786 -65.253014 67.724205
88.170387 -67.110725 61.097782
86.51226 -66.224091 59.232052
20.944244 53.995899 66.708305
-2.1966782 131.64572 108.27385
88.50621 -66.052109 61.165524
86.335846 -65.934158 59.646393
-8.7835808 145.13771 110.57072
-4.7842979 132.90933 106.13968
94.857368 -73.971405 65.919525
88.28511 -65.458717 61.577202
86.193031 -65.401016 60.064922
49.144821 -12.752457 46.198868
97.231537 -74.064011 70.821289
47.373592 43.472836 98.367027
87.935234 -65.106079 62.140213
85.789444 -65.078712 60.630619
15.919788 78.635979 83.295265
6.2628746 110.17909 101.54285
66.530434 -34.92498 56.565346
51.923317 34.650726 96.931992
96.385803 -72.942421 70.389214
88.996872 -64.110909 61.906773
21.72028 47.508034 65.364662
86.965858 -63.884666 61.425011
14.373657 97.753868 103.82111
88.603043 -63.680054 62.615402
13.190826 96.259003 99.051964
92.631989 -67.59948 67.031418
88.693985 -55.921532 72.321815
56.613857 -23.626518 46.603474
90.064499 -63.011345 68.985947
27.120203 74.869164 100.67017
97.284019 -74.80764 68.705917
91.083206 -71.599953 61.583416
15.156584 76.168533 76.059212
69.234886 -36.753662 62.952873
-10.825558 149.96469 110.54249
22.192883 76.466141 91.660019
96.388062 -42.090881 97.560974
79.038399 -41.790798 70.647217
93.371635 -71.714165 65.039757
35.542728 62.275211 100.38152
43.459114 -3.9614239 47.780293
77.152374 -38.667412 68.684883
90.755066 -71.31974 61.115154
20.762897 81.303581 96.112488
93.231728 -65.507233 68.611069
95.16011 -69.613457 68.308472
103.6312 -68.222488 83.722374
99.810867 -75.554283 69.275856
22.829065 76.462875 93.207573
30.147079 69.787292 99.568611
90.328667 -71.069229 60.648041
89.801613 -69.234688 60.684887
89.098404 -69.368515 59.144512
89.502289 -68.71257 60.590626
89.717575 -70.838295 60.259197
86.990799 -67.515709 58.900799
91.927528 -65.193008 68.608894
88.430626 -50.332787 71.798561
86.611282 -66.688179 59.00499
-3.372654 132.87769 106.22443
95.255417 -71.791718 66.713577
91.105537 -60.712326 69.256622
-11.053211 149.92293 109.58229
89.716003 -53.426765 70.154991
14.516834 67.899582 71.077339
93.165489 -70.278671 64.484436
86.478279 -64.056671 60.220844
90.590195 -56.760498 72.652039
13.50589 101.4278 102.96973
10.341129 104.38591 100.50579
22.223196 77.715202 94.878189
38.231552 9.7059765 49.415077
25.095371 39.596916 59.652302
93.947975 -66.163284 70.724892
92.27507 -62.538155 71.392372
96.60997 -73.70813 65.560738
89.252228 -63.830849 62.069412
60.945068 -28.394863 48.05481
101.1632 -72.703529 74.343063
-1.7424927 131.4837 107.25227
89.214218 -29.807217 95.169075
95.859512 -72.575363 65.913841
81.84816 -18.941969 93.968231
93.144371 -72.385345 64.604752
98.998489 -72.537498 71.35479
94.090355 -71.460289 64.295387
90.401512 -69.657257 59.688625
95.213242 -71.878143 66.509811
89.990891 -68.247993 60.428978
88.299789 -67.358597 58.513371
52.84676 -18.283123 45.848957
76.189049 -15.138245 94.405602
89.172073 -68.145164 60.571033
87.521423 -67.185799 58.590454
92.387787 -62.789406 69.546135
105.29468 -59.933174 92.066566
-1.726841 131.16444 106.50147
87.141678 -66.365929 58.800041
106.15656 -54.651817 93.164299
63.694042 14.280622 92.60656
87.193596 -65.570831 58.945313
87.404343 -64.479012 58.975121
80.225891 -40.201889 70.192856
13.673187 99.861221 100.02803
16.562414 62.998337 68.06279
90.08638 -62.085449 67.473557
14.523209 100.00649 101.76509
87.171936 -63.934052 59.361694
64.143974 -31.832634 51.329578
91.916008 -59.81868 71.837532
24.056417 78.533173 95.639877
29.023052 73.265419 98.861633
95.208633 -69.13192 66.43615
89.893127 -69.25161 59.333199
89.17424 -67.958374 58.623512
18.827654 59.056034 66.767548
90.650253 -68.390335 60.448792
88.749191 -67.655319 58.498005
87.566628 -63.430359 60.291931
70.399803 -34.410263 58.697205
89.608704 -58.150726 70.551231
88.015846 -63.165123 60.881832
93.659485 -70.921631 63.693886
88.03138 -65.774399 58.70406
90.786194 -61.354218 67.384979
92.041946 -64.494186 66.458755
101.93245 -48.164146 96.705078
90.855896 -65.788109 60.763428
87.956932 -63.450195 61.766296
15.539845 97.731133 100.4725
98.530594 -73.155571 66.938278
94.134636 -70.000481 62.430496
69.525078 2.9936342 90.451225
89.850815 -59.899994 68.898331
17.153254 78.172188 77.933403
15.552959 65.650543 65.0075
70.120079 -3.1072302 91.365303
91.188126 -68.678291 60.578026
31.234428 71.357574 96.762581
14.385988 71.419693 70.974648
89.66452 -68.280167 58.920254
23.393162 49.624939 65.263824
92.515366 -68.446045 60.843231
89.652023 -64.185448 61.61784
87.202881 -63.137482 59.839962
90.990646 -69.655067 59.925983
98.354256 -71.334663 70.521225
96.329391 -71.771637 66.060913
42.686584 1.4523087 48.469246
93.01162 -69.886818 63.365387
99.252579 -73.187538 69.003815
25.841927 77.977425 96.197929
87.820244 -64.871376 58.884827
23.373068 77.024483 90.686264
99.25824 -72.105553 69.993607
94.406914 -65.407242 68.882141
20.634277 56.751225 66.232704
26.28068 78.82415 98.537773
91.778885 -57.694237 66.144363
94.759933 -67.710754 62.289711
56.802723 25.484203 95.022446
90.485184 -67.707855 60.525021
89.123718 -66.717407 58.570427
26.877356 77.609192 97.161995
87.474968 -63.331253 59.549313
101.85655 -70.01329 78.098747
92.07756 -61.856705 67.554794
89.331734 -63.230698 62.737709
24.508217 77.064438 93.552628
92.053207 -68.84552 60.083416
86.044846 -44.792793 72.458145
91.713425 -57.87339 70.381699
90.321404 -68.269852 59.115971
96.090073 -70.198677 64.537651
78.828705 -37.767624 66.049583
87.877365 -62.7351 61.719391
95.499649 -69.178368 62.267532
91.775742 -68.574646 59.754578
90.775406 -68.399048 59.377354
87.904388 -63.91993 59.146832
96.494118 -70.716812 66.063301
93.173889 -66.706673 65.397308
93.399437 -68.387665 64.263664
94.387848 -67.178131 66.629059
73.378593 -34.208096 60.539211
69.139526 -33.164562 54.457561
93.274078 -65.173996 66.646149
89.130592 -65.617073 58.723419
98.737572 -43.416782 96.792801
89.979187 -66.304008 58.828918
96.901848 -70.508392 65.58654
89.880501 -67.184479 58.762497
90.246651 -67.499664 58.88308
90.623482 -65.310654 61.064743
95.206238 -69.99099 66.296982
87.567184 -62.763222 60.40741
93.477036 -64.457069 67.150253
95.384354 -68.289474 66.104248
101.36107 -62.533684 82.700668
92.935272 -65.118294 66.007347
92.275436 -61.223373 68.934601
91.254669 -68.297005 59.616714
88.579407 -64.390305 59.045303
90.236389 -64.755211 61.292366
14.045841 69.133911 64.962753
86.619583 -49.358479 72.45015
89.533997 -66.044472 58.710976
29.34885 74.392441 96.321884
91.849976 -60.863373 67.287491
94.248322 -67.567825 63.184212
90.803436 -58.957268 68.31575
92.324997 -67.799629 60.799587
92.201637 -60.320694 68.454063
88.440414 -63.588112 59.756577
100.51233 -62.268669 81.551895
88.28183 -63.289352 59.855621
19.587152 78.663986 83.497208
102.81499 -65.536476 80.323898
92.778702 -64.116074 66.609245
102.31532 -62.711075 83.447685
94.233475 -64.222885 67.078217
23.809143 54.495529 64.932571
91.09761 -67.605949 59.292648
89.162827 -64.565506 59.078636
49.064911 -3.903553 46.672924
91.881699 -63.162445 63.861458
92.000687 -61.611336 66.923409
23.541054 52.103661 65.451691
19.366924 59.573746 64.71698
92.354721 -67.317574 60.84132
90.320389 -66.50972 58.834656
50.343906 -11.238834 45.839115
90.612778 -66.658127 58.935467
93.185608 -59.04174 69.73996
92.67849 -68.048965 60.854019
100.12751 -71.480568 69.759735
88.969238 -64.074051 59.306751
92.562492 -33.650753 95.337051
89.647797 -65.2201 58.962608
92.241791 -66.471092 60.996643
89.921349 -65.733467 58.896767
91.381119 -67.788239 59.584183
92.164063 -67.033318 60.842529
101.57712 -65.9524 78.141304
100.40416 -61.591248 80.245476
103.61743 -67.568176 80.630135
101.71466 -67.188225 77.60144
88.925034 -51.917747 70.890289
86.156631 -50.486404 67.644394
97.895004 -69.912537 64.139572
90.900543 -66.938393 59.104092
78.106827 -10.484179 90.531967
30.232733 74.118591 94.541939
103.48482 -62.523926 83.819832
35.304832 65.348572 98.781921
89.264526 -52.579433 70.566231
87.538353 -51.168491 69.067886
85.520378 -50.650345 66.184952
106.69689 -59.580048 89.445465
30.570658 34.211334 54.502579
102.79247 -63.904396 80.898254
27.607944 76.118042 93.494003
82.812103 -40.159187 69.713638
90.450027 -66.030861 58.973869
100.83172 -69.263977 72.02713
91.760757 -60.654938 65.75177
90.625412 -66.247208 59.005913
87.68187 -51.99012 68.158722
85.646347 -50.894188 65.82399
18.283714 78.9879 80.068008
99.21656 -70.803909 66.298058
13.617056 74.42469 67.651299
97.108559 -39.006298 94.784157
91.988953 -66.029976 61.065376
36.155838 19.678753 49.716022
56.362503 -18.109293 46.275257
90.272049 -65.019371 59.218674
90.554871 -65.527519 59.14212
93.321014 -59.779373 68.472214
94.308884 -67.568222 62.140396
90.009872 -54.141487 69.574692
28.078344 48.515213 64.499161
15.049681 74.87162 72.865982
48.032394 48.505039 96.616333
93.041489 -59.328789 67.80011
102.10989 -64.426796 79.098816
104.81087 -67.273026 82.431595
17.831835 61.942963 62.186569
91.752838 -63.070442 62.25412
80.643936 -15.025728 92.114105
17.102106 78.021355 75.091286
44.442539 4.0807438 47.862591
95.70874 -66.901192 64.317245
76.247452 -7.3736496 90.178688
52.794937 -13.693186 45.933796
92.356758 -57.805862 68.478439
102.15734 -63.308731 80.859894
28.742054 40.191792 58.591732
-6.1105576 67.367828 28.539408
100.39275 -68.431992 68.565887
88.290184 -52.390465 67.782669
65.184616 -29.456036 49.459702
88.336533 -25.488396 93.272568
60.358208 -22.716011 45.930664
-7.1484776 68.257828 26.952297
71.853844 -32.824966 55.543983
93.371796 -66.054131 61.756992
95.417969 -63.253159 67.920647
-6.7187119 62.270409 21.879154
-4.9549637 65.481468 27.477568
12.18462 71.724998 60.700447
23.358856 55.688858 63.621956
73.584496 -4.5896864 90.031776
27.233673 50.521603 64.96904
92.954994 -64.073341 63.330276
91.910492 -60.522247 62.855225
-4.3427095 54.388741 16.139772
-8.4892483 64.772339 20.541924
102.93354 -62.58847 79.473358
105.25072 -64.650993 80.872177
100.83691 -60.984734 79.525993
-2.3522701 68.050278 34.278969
92.573738 -63.032341 62.124298
95.704315 -64.098366 66.479118
89.61702 -46.365425 72.608246
-2.9802065 69.706848 35.301418
-7.7513943 60.498917 17.35524
78.571312 -35.675236 64.149345
-7.5990524 62.45084 20.6437
32.021103 67.367821 99.619263
13.960289 68.005341 60.87635
87.076065 -51.041595 65.983795
59.309052 -18.599203 46.280491
25.674496 78.717628 87.944702
53.709084 -10.425598 45.898262
-3.9728584 70.915985 33.902241
101.92564 -60.064484 78.456345
104.22453 -61.986435 83.624336
91.101105 -51.837585 69.705658
105.99866 -52.44696 93.683533
106.39444 -65.114937 84.569656
-4.4839249 62.017918 21.91604
89.836914 -50.706787 68.382309
92.763687 -61.49015 61.970722
101.89369 -45.495369 94.611176
84.248566 -16.506462 89.690041
2.4767656 66.710648 37.667553
90.931549 -52.763367 69.406479
-5.8169193 54.431862 13.32027
87.937592 -44.474129 72.213936
59.193588 24.503117 93.614052
101.42899 -43.693134 93.054359
87.463455 -49.880165 66.855865
-7.7821007 60.374035 14.494217
36.626648 68.676514 95.231674
20.589586 58.56316 58.524734
16.028299 64.108536 58.94389
-1.0040359 67.420486 34.447945
40.493782 14.019719 48.157028
91.073441 -53.642971 68.966072
106.72342 -56.140274 91.374794
-6.7411976 70.802368 27.735186
-6.9026604 58.29018 14.557913
33.683041 27.640324 51.294842
101.54802 -65.019562 73.70549
94.60627 -61.55262 65.657974
61.980915 20.751352 92.536842
42.600052 57.555141 97.521835
91.412094 -50.96125 70.188515
-7.5161781 69.443214 23.362009
89.585266 -49.425503 64.972443
0.7473402 69.359299 38.994598
3.6312742 67.108459 39.736603
99.760025 -40.103069 92.956009
91.391647 -29.298943 92.822327
101.35332 -60.488358 79.03524
91.388855 -54.488388 68.182892
95.549545 -60.764969 67.845718
-1.6801491 66.045288 29.724943
28.246384 77.24012 91.117096
-3.6405783 57.235485 19.756981
91.50177 -51.248474 66.688187
-8.7906361 66.620834 19.664768
54.193409 -8.7705765 45.668564
87.183334 -49.962921 65.418427
105.1745 -60.789162 78.434349
43.042274 10.429548 47.543129
-6.1608295 56.324989 13.08073
84.018768 -39.123795 68.917732
-8.2262516 62.959839 15.494496
63.413139 -25.303062 45.669708
-0.045464516 71.575607 38.794224
93.175842 -57.582596 65.715256
-3.9882298 52.298542 12.62718
13.699121 76.395958 66.448509
99.511635 -66.93895 66.73037
105.10707 -61.654037 83.468185
100.73447 -65.358978 70.666267
96.619591 -65.006157 63.22274
78.76416 -34.383896 63.737839
-3.1421824 64.561699 25.115479
89.690742 -51.908287 66.950096
20.299145 79.862503 78.250015
11.371098 73.90564 59.266346
45.592995 53.187195 96.825058
-2.7573948 54.069427 16.475334
87.698166 -50.121292 65.195694
5.9616184 70.129578 44.869751
0.74069881 66.649155 32.730759
106.57994 -63.939285 81.626244
88.193077 -50.529217 65.479111
88.460632 -23.293919 91.268974
107.22417 -63.327301 83.853378
80.378448 -37.308289 66.06498
94.269562 -62.38002 62.989742
45.107628 6.7925019 47.468159
92.367889 -52.417366 69.229492
30.143017 46.461555 62.065506
106.18127 -50.619957 93.726936
-8.2170601 68.74144 19.747841
13.321764 66.907669 55.081673
-2.5920172 73.345078 36.095043
106.96286 -56.991463 90.193985
-3.5507526 54.032661 11.570855
92.12516 -53.386475 68.729576
105.05741 -62.445084 81.088448
92.672226 -56.15136 66.839569
92.637604 -55.284088 67.224243
95.113701 -58.450851 68.656479
91.737717 -50.329865 70.534119
72.215454 2.127224 88.678711
104.94508 -60.670815 79.346985
92.417023 -54.262146 67.954254
75.381668 -4.4789324 88.542038
57.366375 -13.595072 46.808083
102.51671 -62.57177 76.306282
-2.2653074 76.801201 36.801628
87.088898 -40.461975 70.577698
-8.3118153 63.322704 14.777264
99.440857 -38.81448 91.596313
18.188904 60.887878 56.112278
105.44778 -61.004837 82.841438
-3.6389256 75.114494 32.769165
22.237999 56.947254 59.546658
2.7010756 66.326477 36.189224
-2.0240908 52.417477 13.632977
-2.3805103 57.600182 19.914856
66.667366 -28.13269 47.477188
-1.8277588 61.534729 20.344397
88.960464 -49.337578 66.402771
83.048508 -13.142067 88.459137
10.379229 70.992279 53.71991
6.2058086 71.413483 45.767204
39.491577 20.496212 48.54657
91.914627 -28.776089 90.810593
93.90979 -57.528122 65.787651
67.014572 13.331963 90.034828
107.44423 -58.337433 87.283264
29.671951 49.139072 63.781975
102.84685 -59.655899 78.662888
95.265411 -58.724754 66.264244
94.568855 -56.329605 66.943825
28.736319 51.621677 63.705986
14.636902 77.494278 67.070496
32.06749 39.094013 55.982212
82.152084 -36.462067 66.781685
96.286369 -60.839355 66.04129
78.411926 -31.895126 61.45129
1.1008282 74.132957 39.352245
107.64111 -53.60257 92.61132
93.173462 -53.32338 68.803589
41.644066 -26.306427 8.3050308
15.174206 62.827549 50.045296
93.434616 -54.281616 68.006172
48.419617 50.05138 95.120369
99.296455 -63.194382 68.737251
41.124596 -23.08292 11.289263
-5.9158545 72.846039 27.32428
90.893158 -51.377529 66.731621
9.3003044 73.338577 51.744358
105.84612 -60.499046 82.190872
8.9145985 64.595688 43.034729
95.814804 -59.130119 67.047745
-4.9772902 57.485538 11.873652
94.613632 -57.16362 66.488403
105.32684 -51.44173 90.726929
81.629089 -12.952133 89.868118
55.179634 -11.794855 46.612015
69.849167 -30.201756 50.69313
107.80843 -55.348724 88.04248
12.092237 66.006905 49.694458
103.67479 -59.406906 78.819824
39.834763 -24.41534 8.5237751
40.598957 -25.047089 7.2811146
59.937859 -19.689413 45.521172
57.978191 -15.630062 46.064045
42.7243 -20.949751 14.388266
97.235214 -63.680511 64.333786
102.10223 -61.635841 75.187698
40.092621 -20.561848 10.485616
6.2747936 72.778351 45.422935
56.101757 34.756252 93.910393
91.881943 -45.106602 73.296761
88.947357 -49.369888 64.909088
-1.0298147 55.227749 17.051611
104.64074 -47.670727 93.703728
22.068758 79.844574 83.282906
-1.9873123 64.107971 21.992456
8.6556664 70.738205 49.293312
-0.54648399 58.439503 18.986431
106.49758 -61.821205 79.984268
62.320751 -23.342388 44.99543
-2.3713045 52.276009 11.79368
105.31435 -50.448544 91.057205
78.872604 -7.4149094 87.431747
53.400379 41.826653 93.732422
96.561279 -58.843971 67.942688
95.806519 -51.36829 70.682114
101.12998 -60.945908 71.622528
-8.4443874 66.816788 17.548639
107.37086 -61.135551 82.353043
59.652676 -20.118845 44.388489
84.817329 -36.724857 69.045486
58.069908 -19.139015 42.630829
97.208023 -35.264706 90.161026
107.30591 -52.969513 89.588028
93.173553 -50.069908 68.445679
95.735275 -52.507027 70.330376
89.580353 -23.226532 88.653061
94.320648 -53.422203 69.074989
105.82851 -59.875801 81.186165
48.865204 1.739789 47.125229
73.454636 -29.981281 53.403831
24.144714 81.802696 81.664543
97.254837 -58.331924 68.814674
103.34488 -44.684521 91.204704
107.9827 -55.15863 89.148209
43.046986 -32.695679 3.3538799
56.716465 -15.685314 42.81567
-0.43200588 66.449112 27.826748
13.35679 64.377625 49.250923
89.905304 -49.952995 64.934799
92.38269 -43.151852 73.955666
