# .PCD v0.7 - Point Cloud Data file format
VERSION 0.7
FIELDS x y z
SIZE 4 4 4
TYPE F F F
COUNT 1 1 1
WIDTH 1397
HEIGHT 1
VIEWPOINT 0 0 0 1 0 0 0
POINTS 1397
DATA ascii
0.6032961 -0.21396783 0.4878217
0.60869896 -0.211202 0.48615304
0.60302156 -0.21633631 0.49347186
0.60498977 -0.21331668 0.4912492
0.60544342 -0.21089116 0.49024776
0.60007656 -0.21622351 0.49908033
0.59736252 -0.21633112 0.50336862
0.60919327 -0.21540236 0.48470908
0.61189479 -0.21401742 0.48498937
0.60767543 -0.21542138 0.48789224
0.60973781 -0.21161172 0.48656484
0.61219025 -0.20852569 0.48639926
0.60338414 -0.21738002 0.49433592
0.60576928 -0.21258077 0.49372828
0.60967267 -0.20998308 0.49068543
0.61240113 -0.20732218 0.48952112
0.60213745 -0.21496323 0.49825662
0.6053341 -0.21200493 0.49794766
0.59886432 -0.21566442 0.50395012
0.60153997 -0.2138401 0.50326687
0.60456216 -0.21041843 0.50302762
0.60649157 -0.20611814 0.50252664
0.59851265 -0.21593431 0.50888842
0.60063881 -0.21204975 0.50756735
0.60347652 -0.20828781 0.50643438
0.60559541 -0.2051025 0.50487393
0.59783798 -0.21363258 0.51337159
0.60017902 -0.20975083 0.51177186
0.60190064 -0.20761308 0.51017916
0.59542167 -0.21168336 0.51779032
0.5932405 -0.21194261 0.52140212
0.59410352 -0.21006551 0.52156204
0.62198156 -0.22063279 0.47730124
0.62498808 -0.21298236 0.47664428
0.62798238 -0.20730492 0.47472253
0.6297788 -0.2039288 0.47354999
0.63303542 -0.19650832 0.4722729
0.62302655 -0.21196884 0.48099229
0.62380093 -0.21116349 0.4800626
0.61781323 -0.21411756 0.48660442
0.6208533 -0.21082324 0.48545322
0.61711013 -0.20837489 0.4877772
0.62051159 -0.20619583 0.48855937
0.61093539 -0.21226496 0.4957296
0.6137026 -0.21021575 0.49576318
0.61552083 -0.20677105 0.49230573
0.61893028 -0.20355994 0.49154785
0.62147886 -0.20147756 0.4907487
0.61074275 -0.21172613 0.49978343
0.61355233 -0.21119124 0.49930558
0.60831118 -0.21023884 0.50284994
0.61079586 -0.20832559 0.50412971
0.60606462 -0.20717934 0.50708973
0.59989035 -0.21208313 0.5154928
0.60160083 -0.20880437 0.51486355
0.60493988 -0.20634496 0.51298696
0.59874707 -0.2113381 0.51924103
0.60089737 -0.20804375 0.51772153
0.60422319 -0.20452499 0.51718199
0.59733313 -0.20955691 0.52328384
0.60003543 -0.20625737 0.52208465
0.60346526 -0.20263696 0.52177894
0.59621888 -0.20761707 0.52753454
0.59932321 -0.20454898 0.52726591
0.6019212 -0.20211908 0.5259729
0.59573185 -0.20532146 0.53172964
0.59820205 -0.20288005 0.53179801
0.59716493 -0.20184341 0.53397852
0.59931588 -0.19418028 0.53716439
0.61754984 -0.23902926 0.48252946
0.61808312 -0.23558763 0.48080447
0.61877143 -0.23049518 0.47912371
0.62056786 -0.22711906 0.4779512
0.61637008 -0.23722169 0.48592675
0.61732376 -0.23404488 0.48453799
0.61880225 -0.22964624 0.48268136
0.62118006 -0.2252115 0.48131141
0.62285364 -0.22110441 0.47960535
0.62478209 -0.21681371 0.47847009
0.62686759 -0.2115415 0.47677392
0.62882173 -0.20755857 0.47609684
0.6309635 -0.20400515 0.47528169
0.63259202 -0.19922101 0.4735623
0.6153807 -0.23570594 0.48877528
0.61681342 -0.23213008 0.48841679
0.61830211 -0.2280992 0.48732218
0.62047577 -0.22338739 0.48556995
0.62265319 -0.2194519 0.48423216
0.62452579 -0.21581525 0.48278949
0.62703067 -0.21060458 0.48103768
0.62967408 -0.20680946 0.48010549
0.63135535 -0.20276576 0.47822866
0.63221353 -0.19750401 0.47576556
0.63437033 -0.19355211 0.47441515
0.63674879 -0.18988484 0.47346339
0.64033604 -0.185563 0.47301278
0.64278221 -0.18141195 0.47226971
0.64464754 -0.1767492 0.4707683
0.61728102 -0.22592339 0.49127117
0.618752 -0.2216039 0.48886022
0.62087536 -0.2178925 0.48729211
0.62297535 -0.21371731 0.48618194
0.625579 -0.20866618 0.48503092
0.62855887 -0.20443806 0.48386049
0.63067031 -0.20045942 0.48248917
0.63241726 -0.19626579 0.48082992
0.63477927 -0.19235706 0.4786078
0.63730764 -0.18836948 0.47734934
0.6397866 -0.18446657 0.4763515
0.64200097 -0.18045413 0.47480878
0.64508373 -0.17588249 0.47199881
0.6162405 -0.22468999 0.49434948
0.62392896 -0.20503157 0.48827758
0.62688345 -0.20195797 0.4883495
0.62945735 -0.1982106 0.48679331
0.63156193 -0.19510958 0.48486209
0.62104833 -0.20211607 0.49336776
0.62492347 -0.20062292 0.49278507
0.6295228 -0.19432744 0.48920467
0.61628932 -0.21044388 0.5013296
0.61925679 -0.20785394 0.49883464
0.62142324 -0.20200756 0.49748433
0.62350655 -0.19904301 0.49647924
0.61444712 -0.20982933 0.5043022
0.62125909 -0.20035818 0.50079918
0.60737759 -0.20046738 0.52458978
0.60167277 -0.20223016 0.52970737
0.60471857 -0.20002845 0.52713299
0.60728687 -0.19688198 0.52665514
0.60095143 -0.2009258 0.53191441
0.60315508 -0.19834381 0.53131378
0.60617137 -0.19487923 0.53013277
0.60854423 -0.19328776 0.52931035
0.59995133 -0.19975173 0.53604484
0.60173631 -0.19580397 0.53517389
0.60501963 -0.19249374 0.53478235
0.60082078 -0.19334897 0.53970319
0.6034627 -0.19028297 0.53920203
0.60075414 -0.19131544 0.54301137
0.60288554 -0.18824571 0.5424934
0.60418642 -0.18661115 0.54185826
0.61573499 -0.24837819 0.4865182
0.6165508 -0.24550778 0.48487929
0.61784786 -0.24258783 0.48409992
0.61430597 -0.24713543 0.49001518
0.61552626 -0.24378413 0.48842448
0.61679435 -0.24077448 0.4872635
0.61359775 -0.24635097 0.49503884
0.61511314 -0.24203414 0.49319789
0.61631149 -0.23799124 0.49160704
0.61727542 -0.23357034 0.49106151
0.64182413 -0.18696722 0.47534308
0.61139268 -0.24683407 0.50162476
0.61313069 -0.24474075 0.49990997
0.61531472 -0.24029237 0.49870881
0.61684537 -0.2358934 0.4968479
0.61707246 -0.23096085 0.49425989
0.63733178 -0.19192988 0.48203149
0.63965249 -0.18778795 0.48111543
0.64149594 -0.18457642 0.47835553
0.64376885 -0.17916667 0.4770979
0.64743078 -0.17621225 0.47646478
0.65118337 -0.17249918 0.47491565
0.65315533 -0.16864038 0.4741739
0.65498728 -0.1654304 0.47312316
0.61025894 -0.24568298 0.50524908
0.61158043 -0.24372426 0.50404382
0.6141035 -0.23828241 0.50285387
0.61599737 -0.23410788 0.50127721
0.61638349 -0.22898754 0.49851239
0.6168043 -0.2252391 0.49738476
0.63036495 -0.19770342 0.48987171
0.63296407 -0.19401863 0.48739201
0.63586789 -0.19100374 0.48549303
0.63833123 -0.18636316 0.48341528
0.64090866 -0.18229714 0.48233852
0.64322978 -0.17853749 0.48083502
0.64756662 -0.17507902 0.48084563
0.64964467 -0.17288694 0.47874227
0.65241718 -0.16704983 0.47659931
0.65391111 -0.16486865 0.47595754
0.61324137 -0.23568055 0.50617248
0.6145426 -0.23194101 0.5052402
0.6151191 -0.22847208 0.5021531
0.6282928 -0.19990963 0.49321684
0.62983924 -0.19652948 0.49243578
0.63215101 -0.19247106 0.49092004
0.63515997 -0.18884957 0.48966101
0.63760078 -0.18457016 0.48790693
0.64069271 -0.18035999 0.48679236
0.64347142 -0.17666617 0.48583642
0.64621311 -0.17296362 0.48486292
0.64765137 -0.16983306 0.48448166
0.65045762 -0.16585913 0.48180154
0.61162734 -0.23138615 0.51200885
0.6130026 -0.23055154 0.509969
0.61918956 -0.20920622 0.50336665
0.62143904 -0.20668718 0.5014196
0.62190664 -0.20409986 0.50159323
0.62819159 -0.19874644 0.49896595
0.6304329 -0.19534752 0.49768323
0.63246167 -0.19064549 0.49603057
0.63481808 -0.18691733 0.49453774
0.63609922 -0.18220207 0.49255291
0.63938266 -0.1780642 0.49158779
0.64219826 -0.17437544 0.49065223
0.64470613 -0.1705682 0.48953694
0.61165518 -0.2292839 0.51332873
0.61920166 -0.20937124 0.50694722
0.62206095 -0.20566654 0.50584728
0.62269813 -0.20050102 0.50369185
0.6263237 -0.19765529 0.50306493
0.62980938 -0.19365034 0.50228274
0.63153124 -0.1888949 0.50010902
0.6323753 -0.1839689 0.49865511
0.63366836 -0.17932501 0.49649426
0.63732725 -0.17569187 0.49560753
0.6410085 -0.17235565 0.49482501
0.64326179 -0.16863731 0.49351183
0.61826134 -0.21098897 0.51062769
0.61889005 -0.20980737 0.51021731
0.6225161 -0.20279622 0.5097602
0.62356365 -0.19919971 0.50880277
0.62584978 -0.19527879 0.50736231
0.62847483 -0.19154808 0.50634819
0.63050914 -0.18670514 0.50443333
0.63162243 -0.18195871 0.50298071
0.63324881 -0.17769074 0.50122523
0.63715649 -0.17377761 0.50019979
0.63978463 -0.17029265 0.49896625
0.64201337 -0.16679576 0.49706015
0.61498892 -0.20941845 0.52002954
0.62294275 -0.19695181 0.5132181
0.62475139 -0.19312087 0.51231945
0.62688458 -0.18911174 0.51092708
0.62928689 -0.1844857 0.50929248
0.6311031 -0.18029416 0.50764114
0.63342297 -0.17637867 0.50639307
0.63583142 -0.17249048 0.50477558
0.63879538 -0.16877696 0.5018149
0.63978779 -0.16621181 0.50162405
0.61897421 -0.19782862 0.52010441
0.62106526 -0.19411382 0.51785684
0.62269175 -0.19069606 0.51621413
0.62524092 -0.1868245 0.51476699
0.62761199 -0.18207213 0.51329869
0.63007087 -0.17834035 0.51196957
0.63208318 -0.17426172 0.5104785
0.63441992 -0.17003003 0.50922006
0.63709176 -0.1651454 0.50738698
0.63804698 -0.16300848 0.50698656
0.61723006 -0.19620174 0.52360916
0.61903137 -0.19252455 0.52155042
0.62196124 -0.18865106 0.52048069
0.62409258 -0.18483409 0.51896644
0.62645245 -0.18039533 0.51742846
0.62879062 -0.17618874 0.51577985
0.63108259 -0.17249939 0.51388037
0.63335043 -0.16881013 0.51202643
0.63576961 -0.16330358 0.51107401
0.63720828 -0.16225976 0.5090515
0.61077559 -0.19531938 0.52824378
0.61461037 -0.19433829 0.52696538
0.61764699 -0.19007719 0.52584898
0.62030399 -0.18636462 0.52490246
0.622495 -0.18238649 0.52356642
0.6245681 -0.17842448 0.52225631
0.62740159 -0.17306164 0.52043152
0.62917268 -0.16967419 0.51931399
0.63047421 -0.16578236 0.51940823
0.63395816 -0.16098794 0.51598984
0.60919267 -0.19289425 0.53280151
0.61219752 -0.19161448 0.53081042
0.61641586 -0.188032 0.53000784
0.61848366 -0.18399754 0.5285694
0.62104481 -0.18022227 0.52751923
0.6234346 -0.1757547 0.52612913
0.62558115 -0.17145449 0.52490193
0.6281485 -0.16701984 0.52297133
0.62974674 -0.16538283 0.52103615
0.60819602 -0.1913673 0.53567123
0.61203849 -0.18988878 0.53558105
0.61543655 -0.1861271 0.53439051
0.61796552 -0.18272427 0.53185874
0.61989105 -0.17794821 0.53135717
0.62215054 -0.17350885 0.53000826
0.62433577 -0.17007717 0.52814144
0.6068086 -0.18924156 0.5396663
0.61027873 -0.18784246 0.53955042
0.61331624 -0.18460646 0.53936797
0.61897618 -0.17542484 0.5347237
0.62044388 -0.17196646 0.5342226
0.60796481 -0.18627307 0.54254824
0.61481357 -0.24330696 0.50269347
0.65217859 -0.17308369 0.47830519
0.65564281 -0.16797304 0.47513029
0.65858883 -0.16415775 0.47455779
0.66098094 -0.1608991 0.47416806
0.61055785 -0.24720505 0.5081473
0.6135208 -0.24283653 0.5054301
0.65172547 -0.17110807 0.48044637
0.65431356 -0.16658571 0.4796471
0.65852284 -0.16301683 0.47851887
0.66072857 -0.15945888 0.47717315
0.60990483 -0.2473979 0.51295972
0.6107735 -0.24498212 0.51110154
0.6126107 -0.24059483 0.50919753
0.61378753 -0.23616853 0.50928104
0.65055716 -0.16917875 0.48449495
0.6538077 -0.16492105 0.48354003
0.65734053 -0.16152823 0.4828262
0.6595459 -0.15722552 0.48148957
0.66072071 -0.1543678 0.48114711
0.61004996 -0.24679759 0.51604766
0.61115462 -0.24372146 0.51597929
0.61137974 -0.23772496 0.51390356
0.61301923 -0.23454311 0.51245403
0.61426193 -0.23204365 0.51108181
0.64906198 -0.16689926 0.48931223
0.6523326 -0.16300449 0.48809332
0.65580291 -0.15924415 0.48676118
0.65845197 -0.15518168 0.48487976
0.6101923 -0.24173 0.51908767
0.61127281 -0.2364684 0.51900661
0.61232722 -0.23248768 0.51714933
0.64536726 -0.16678479 0.49521762
0.64785558 -0.16486785 0.49346235
0.65146238 -0.16071722 0.49217644
0.65405905 -0.15781751 0.49085832
0.65677786 -0.15394464 0.48883346
0.61047566 -0.23451313 0.52277076
0.61114603 -0.23019242 0.52140027
0.6114772 -0.22777721 0.51910007
0.62150723 -0.21204236 0.51656377
0.62299651 -0.20883355 0.51371211
0.62340838 -0.20515928 0.51239377
0.64314485 -0.16966149 0.49751666
0.64334613 -0.1658332 0.49963713
0.64683515 -0.16290024 0.49777761
0.65014672 -0.1586906 0.49680629
0.65203232 -0.15570486 0.49571255
0.60975921 -0.23164406 0.52648491
0.61053425 -0.22855961 0.52570528
0.61993521 -0.21094891 0.52018297
0.62151772 -0.20672539 0.51916581
0.62262875 -0.20232955 0.51657361
0.62335396 -0.19835618 0.51598227
0.63800406 -0.17074803 0.50646907
0.63967937 -0.16782001 0.50523174
0.64252037 -0.16418305 0.50337934
0.64547968 -0.16085514 0.50237542
0.64869529 -0.15756816 0.50165862
0.61789542 -0.20837343 0.52415574
0.62043273 -0.20522261 0.52277988
0.62228215 -0.20136932 0.52080148
0.62196028 -0.1978755 0.51891536
0.6372745 -0.16909412 0.50891966
0.63769805 -0.1675981 0.50910008
0.64106309 -0.16189384 0.50705588
0.64476693 -0.15863869 0.50659323
0.64744973 -0.15596622 0.50504512
0.61758363 -0.20633125 0.52830154
0.61891496 -0.20199987 0.52723503
0.62020493 -0.19920382 0.52357394
0.62833959 -0.1783863 0.51964676
0.62988901 -0.17547441 0.51863551
0.63194907 -0.17192772 0.51707876
0.63476372 -0.16769066 0.51477695
0.63702554 -0.16367206 0.51292658
0.63959765 -0.15984622 0.51133198
0.64238209 -0.15650436 0.51040095
0.646222 -0.15421653 0.50849462
0.61692286 -0.20378089 0.5312081
0.61682463 -0.19992134 0.53057176
0.62724066 -0.17713162 0.52253103
0.62853509 -0.17446169 0.52184093
0.63112783 -0.17014608 0.51978499
0.63353378 -0.1658136 0.51843381
0.63587415 -0.16120216 0.5173099
0.63923466 -0.15744385 0.51640254
0.64211124 -0.15448236 0.51530451
0.62634629 -0.17533243 0.52538621
0.62809622 -0.17169362 0.52447248
0.62937385 -0.16804251 0.52445441
0.63241184 -0.16383427 0.5233134
0.63494813 -0.15951228 0.52177256
0.63856971 -0.15536466 0.52075654
0.64064401 -0.15302464 0.51975566
0.61893487 -0.18171138 0.5351516
0.62659961 -0.16862354 0.53012395
0.6293059 -0.16555211 0.52887958
0.63232255 -0.16212234 0.52791518
0.63484997 -0.15810096 0.52673769
0.63748896 -0.15377203 0.52519739
0.63922966 -0.15085772 0.52382809
0.61312389 -0.1864824 0.54295856
0.61636269 -0.18354091 0.54006404
0.61813527 -0.18009624 0.53896099
0.61977297 -0.17579359 0.5379957
0.62242109 -0.17184439 0.53623873
0.62470078 -0.16731855 0.53440529
0.62778252 -0.16322845 0.53325927
0.63135684 -0.16005364 0.5326218
0.63335532 -0.15629771 0.53131735
0.61222613 -0.18930775 0.54948163
0.61353415 -0.18648991 0.54663569
0.61623019 -0.18322507 0.5453698
0.61776966 -0.17852643 0.54387331
0.61985862 -0.17411819 0.54237962
0.62159914 -0.17003906 0.54039466
0.62331766 -0.16520089 0.53843331
0.62620521 -0.16114256 0.53693748
0.62904322 -0.15765327 0.53631014
0.63191116 -0.15454826 0.53517342
0.61553353 -0.17966691 0.5495584
0.61708283 -0.17675498 0.54854709
0.61900336 -0.17184854 0.54647011
0.62145692 -0.16795814 0.54532623
0.62226665 -0.1632328 0.54276001
0.62448543 -0.15924415 0.54142547
0.62743139 -0.15613165 0.54084647
0.62989265 -0.15340558 0.53971297
0.61547124 -0.1742526 0.5523994
0.61701804 -0.16949287 0.55054641
0.6205312 -0.16569939 0.54928255
0.62216139 -0.16222945 0.54803795
0.62470114 -0.15725055 0.54606938
0.61488712 -0.17235669 0.55554456
0.61694014 -0.16814816 0.55443299
0.61949503 -0.16474667 0.55185169
0.66367584 -0.16019341 0.47401765
0.66542649 -0.15812317 0.47356355
0.66260105 -0.15854672 0.47711241
0.66460234 -0.15594202 0.47616482
0.66859436 -0.1521785 0.47549736
0.61055654 -0.24902502 0.51586854
0.65902048 -0.15934259 0.48332214
0.66105235 -0.15617397 0.4815717
0.66376895 -0.1536963 0.48120078
0.66728151 -0.15085497 0.48001629
0.6097331 -0.24740598 0.51847291
0.61202997 -0.24285594 0.51712602
0.65761352 -0.15718693 0.4873735
0.65897262 -0.15513259 0.48616004
0.66196525 -0.15232006 0.4851549
0.60812438 -0.2483547 0.52533031
0.60894835 -0.24604702 0.52269042
0.61010337 -0.24097672 0.52197337
0.65609926 -0.15601504 0.49154082
0.65922534 -0.15306833 0.49126297
0.6605463 -0.15119937 0.4885532
0.60802847 -0.24751422 0.52828574
0.60910422 -0.24429464 0.52816331
0.60996002 -0.23954269 0.52588284
0.61063749 -0.23545945 0.52605551
0.62337571 -0.20983288 0.51735729
0.65539145 -0.15475544 0.49635291
0.658225 -0.15273094 0.49525601
0.61013913 -0.23753431 0.53046185
0.61012173 -0.23363581 0.52895695
0.62299466 -0.20924905 0.51845449
0.65075296 -0.15596047 0.50106758
0.65255737 -0.15469515 0.50147116
0.61035621 -0.23162496 0.53316879
0.61003435 -0.2270565 0.53118902
0.61131024 -0.22290856 0.53149843
0.62197942 -0.20355704 0.52407765
0.62240297 -0.20206103 0.52425814
0.64886677 -0.15388092 0.50596982
0.65220141 -0.15286872 0.50570732
0.60995394 -0.22800085 0.536847
0.61060447 -0.2250464 0.53560454
0.61701363 -0.20743966 0.5308761
0.62039506 -0.20315966 0.52731466
0.64503741 -0.15477222 0.51258487
0.64761531 -0.1527715 0.51066536
0.65023178 -0.1506187 0.509987
0.60935771 -0.22641614 0.53955841
0.61061382 -0.22291258 0.5394845
0.61856842 -0.20246765 0.53119934
0.6440261 -0.15322283 0.51549679
0.64736205 -0.15117046 0.51516837
0.64291906 -0.15130147 0.52004623
0.646074 -0.14897922 0.51986086
0.64771312 -0.1451982 0.5204851
0.63548052 -0.15698323 0.5291028
0.63826495 -0.15175024 0.5272854
0.6412825 -0.14958802 0.52456719
0.6332289 -0.15981501 0.53148621
0.63493812 -0.15557766 0.5310396
0.63683647 -0.15166831 0.53002363
0.64049697 -0.14924607 0.53006923
0.61116612 -0.19961745 0.55365133
0.61262631 -0.19557309 0.55354679
0.61482233 -0.18620798 0.54885244
0.61636424 -0.18331018 0.54784602
0.63139832 -0.15915534 0.53535712
0.63393736 -0.15259504 0.53575766
0.63622701 -0.15056962 0.53411263
0.61249828 -0.19394705 0.55484873
0.61348522 -0.19019267 0.55420744
0.61369002 -0.18507883 0.55171752
0.61535293 -0.18176076 0.55075794
0.62961364 -0.15427616 0.54189593
0.6319862 -0.15211189 0.54033422
0.63604063 -0.1501686 0.53917795
0.61309087 -0.18673167 0.55812657
0.61303049 -0.18284619 0.55639356
0.61440325 -0.17886561 0.55443245
0.62020779 -0.1671367 0.55117905
0.6238904 -0.16021565 0.54877537
0.62524921 -0.15701184 0.54831272
0.62811393 -0.15372998 0.54606062
0.63150132 -0.15027142 0.54497021
0.63352096 -0.14730406 0.5457831
0.61165023 -0.18469432 0.56211072
0.61202353 -0.18088338 0.56026
0.61323327 -0.17646918 0.55878955
0.61470228 -0.17215359 0.55825138
0.61719453 -0.16711643 0.55685532
0.6195637 -0.16406077 0.55439723
0.62203777 -0.16041937 0.55301511
0.62528443 -0.15617996 0.55138725
0.62810427 -0.15187252 0.55035019
0.63096899 -0.14819741 0.54851186
0.61075002 -0.18319944 0.56514943
0.61184442 -0.17948064 0.56502515
0.6133365 -0.17500415 0.56396782
0.61484367 -0.1705738 0.56198579
0.61675882 -0.16640639 0.56036443
0.61933154 -0.16226465 0.55912322
0.62196547 -0.1584523 0.55781198
0.62479103 -0.15614429 0.55641997
0.62797606 -0.15152511 0.55344903
0.61149865 -0.17699245 0.56779379
0.61314332 -0.17343482 0.56702495
0.61491776 -0.16854098 0.56656617
0.61686563 -0.16456413 0.56492853
0.61908883 -0.16108286 0.56335664
0.6215964 -0.15724513 0.56114876
0.61424273 -0.16633531 0.5695926
0.67091137 -0.15019199 0.47808066
0.67355239 -0.14841872 0.47615868
0.67708051 -0.14563075 0.47670025
0.66926336 -0.14960679 0.48205459
0.67214012 -0.14634371 0.47999591
0.67592108 -0.14377493 0.47953391
0.66551811 -0.15142798 0.48740992
0.6678893 -0.14838809 0.48586556
0.67247379 -0.14463791 0.48500419
0.67490399 -0.14247945 0.48377553
0.66212887 -0.15159768 0.49366882
0.66402507 -0.14978397 0.49128893
0.66692203 -0.14641237 0.49027151
0.67133307 -0.14307898 0.49002776
0.66060483 -0.1513119 0.4967196
0.66316748 -0.14824054 0.49563968
0.66652614 -0.14491212 0.49503151
0.66998118 -0.14183778 0.49363163
0.60895407 -0.24501297 0.53485894
0.60968989 -0.24294531 0.53315532
0.61063528 -0.23914072 0.53330559
0.65680242 -0.15377173 0.50226027
0.65926933 -0.15000156 0.50091976
0.6637072 -0.14638412 0.50063694
0.66653436 -0.14423552 0.49910113
0.6086393 -0.24381027 0.5392043
0.60973442 -0.24102589 0.5382216
0.61069143 -0.23610353 0.53638136
0.61157262 -0.23271227 0.53573966
0.65546209 -0.15141037 0.50713009
0.65860814 -0.14825967 0.50589001
0.66293365 -0.14558265 0.50498903
0.6090163 -0.24333403 0.54251772
0.61005741 -0.23924372 0.54271704
0.61060375 -0.23418963 0.54129702
0.61052227 -0.23030633 0.53928405
0.65402526 -0.14942041 0.51106179
0.65839916 -0.14758244 0.51137084
0.6098448 -0.23617694 0.54563206
0.60974646 -0.23227736 0.54573101
0.60956907 -0.22769207 0.54318655
0.61105281 -0.22348931 0.54273653
0.65219194 -0.14778179 0.51525253
0.65640914 -0.14422047 0.51572806
0.60965389 -0.22998583 0.55003196
0.60946071 -0.22624269 0.54813772
0.61084062 -0.22162259 0.54602373
0.61235851 -0.21851468 0.54575616
0.64865947 -0.14888683 0.52075237
0.65081537 -0.14514157 0.5194878
0.65488482 -0.14166403 0.51896268
0.61003482 -0.22387767 0.55246788
0.61035067 -0.21956626 0.55038494
0.61131078 -0.21568376 0.549573
0.64682817 -0.14715356 0.52532542
0.64926285 -0.14317086 0.52409136
0.65331197 -0.13941163 0.52292466
0.65571618 -0.13708761 0.52187145
0.60952568 -0.22082672 0.55625099
0.61019671 -0.21791616 0.55565286
0.61073369 -0.21272394 0.55377698
0.61144066 -0.20755512 0.55296451
0.64369458 -0.14798725 0.53067052
0.6457963 -0.1451492 0.52968633
0.64842176 -0.14145505 0.52857327
0.65242511 -0.13745952 0.52744269
0.60947067 -0.21528533 0.55941468
0.60998094 -0.21066782 0.55797786
0.61105078 -0.20607677 0.55583715
0.61290711 -0.20298368 0.55486232
0.63926256 -0.15037245 0.5374434
0.6418277 -0.14688471 0.53489876
0.64460683 -0.14274386 0.53393704
0.6482535 -0.13937503 0.53310496
0.65172279 -0.13638344 0.53186083
0.60799915 -0.2116957 0.56507987
0.60974962 -0.20858938 0.56288964
0.61002934 -0.20414358 0.56025594
0.61144382 -0.19959304 0.55815566
0.61295664 -0.19561121 0.55735457
0.61407322 -0.19211277 0.55753958
0.63659859 -0.15047887 0.54238027
0.63834226 -0.14869994 0.54046679
0.64097792 -0.1449765 0.53941107
0.64495271 -0.14098427 0.53900045
0.6478461 -0.13775322 0.53761971
0.64994144 -0.13581994 0.53577846
0.60690594 -0.20952028 0.56855434
0.60846168 -0.20648113 0.56711948
0.60883713 -0.2020857 0.56458199
0.6103003 -0.19740272 0.56326485
0.61228764 -0.19320458 0.56166703
0.61349362 -0.18987986 0.56008631
0.63580716 -0.14926627 0.5446592
0.63681173 -0.14640614 0.54519433
0.6408065 -0.14344308 0.54510808
0.64419448 -0.14042079 0.5435763
0.60763359 -0.20383266 0.57089907
0.60841846 -0.20020136 0.5695675
0.60905051 -0.19515893 0.56721753
0.61087251 -0.19103646 0.56574172
0.61195171 -0.1878666 0.56429821
0.63297015 -0.14798388 0.5508281
0.63553983 -0.14429274 0.54939729
0.63980848 -0.14107013 0.54916883
0.64181221 -0.13766468 0.54985243
0.60640812 -0.20103586 0.5750277
0.60636055 -0.19772238 0.57327187
0.60750777 -0.1930809 0.57147306
0.60909659 -0.18866229 0.56951582
0.61099589 -0.18459639 0.5682292
0.61229289 -0.18095866 0.56816584
0.62511158 -0.15616745 0.56025594
0.62719136 -0.15432307 0.55779839
0.62940896 -0.15064627 0.55673724
0.63281488 -0.14659995 0.55564117
0.63651234 -0.14302394 0.55464494
0.63965201 -0.13925776 0.55287242
0.60308558 -0.20238021 0.58039463
0.60434496 -0.19971338 0.57976842
0.60592055 -0.19626835 0.5783878
0.6060282 -0.19087178 0.5755102
0.60764599 -0.1864785 0.57354361
0.60973561 -0.18236473 0.57205415
0.61216152 -0.17786109 0.57087946
0.61393011 -0.17343178 0.57000178
0.6212759 -0.16032606 0.56475019
0.62354583 -0.15609494 0.56352413
0.62667453 -0.15256763 0.56250226
0.62936348 -0.14919096 0.56127208
0.63301861 -0.14574468 0.56046897
0.63508695 -0.14293724 0.55905026
0.60394585 -0.19726342 0.58211756
0.60551959 -0.19310573 0.5818736
0.60660636 -0.18908554 0.58097094
0.60757679 -0.18439955 0.57864285
0.60905373 -0.18012407 0.57633948
0.61151296 -0.17589113 0.57516563
0.61320513 -0.17155382 0.57333201
0.61501157 -0.16723385 0.57201463
0.61766893 -0.16296294 0.57073563
0.61996698 -0.15934503 0.56903797
0.6227268 -0.15492719 0.56791294
0.62648135 -0.15084764 0.56741637
0.62849021 -0.14751562 0.56697559
0.6083051 -0.18322071 0.5830906
0.61110073 -0.17796659 0.58126587
0.61231256 -0.17418462 0.5806222
0.61325389 -0.1698353 0.57874155
0.61546135 -0.16589341 0.57710481
0.61875659 -0.16182014 0.57648855
0.62112027 -0.15805113 0.57515591
0.62365341 -0.15192524 0.5746718
0.61232996 -0.17180642 0.58297646
0.61385691 -0.16893673 0.58197981
0.61668622 -0.16361934 0.58013308
0.61915624 -0.15897718 0.57852089
0.62009937 -0.15720472 0.5779053
0.62261432 -0.15247813 0.57626379
0.68088627 -0.14489537 0.47742334
0.68425471 -0.14171937 0.47783139
0.68598634 -0.13977474 0.47658846
0.67966205 -0.14252785 0.48095155
0.68337679 -0.14067924 0.48090261
0.67817813 -0.14097384 0.48534191
0.68126833 -0.13810214 0.48543397
0.67363501 -0.14284939 0.49111435
0.67668849 -0.1393019 0.48954672
0.67979079 -0.13576406 0.48862323
0.66994703 -0.1434806 0.49763358
0.67224365 -0.14060652 0.49544066
0.67556179 -0.13811967 0.493698
0.67917556 -0.13577482 0.49199927
0.66644859 -0.14455548 0.5035069
0.66860902 -0.14305499 0.50116819
0.67198181 -0.14055809 0.49961391
0.66515321 -0.14435273 0.50702822
0.66867971 -0.14217561 0.5056389
0.60972494 -0.24248102 0.5461961
0.61040264 -0.24008742 0.54648483
0.66137791 -0.14628553 0.51190782
0.66435516 -0.14334804 0.51143062
0.60895324 -0.2400116 0.54925853
0.61008072 -0.23771742 0.54863667
0.6110577 -0.23465624 0.54879856
0.66013104 -0.14452857 0.51539755
0.66303098 -0.14119595 0.51564842
0.60806054 -0.23812374 0.55383831
0.60908115 -0.2356289 0.55280608
0.61001945 -0.23220757 0.55234814
0.66076803 -0.13864625 0.5191533
0.66487259 -0.13745558 0.51778305
0.60772765 -0.23682347 0.55809581
0.60875046 -0.23333663 0.55733621
0.60988712 -0.22897941 0.55581737
0.61078387 -0.22512087 0.55553699
0.65928566 -0.13625422 0.52381861
0.6628207 -0.13431188 0.52369124
0.60949415 -0.23033312 0.56123906
0.60978323 -0.22728625 0.56090307
0.61008304 -0.22289667 0.55894232
0.65752602 -0.13461065 0.52825129
0.60875976 -0.22507349 0.56493872
0.60908723 -0.22059751 0.5629769
0.60989434 -0.21706271 0.56246841
0.65357244 -0.1346947 0.53414232
0.6572262 -0.13344958 0.5322234
0.60840815 -0.22292402 0.56811589
0.60840803 -0.21875513 0.56749713
0.60945278 -0.21459752 0.56490725
0.65044278 -0.13640636 0.53946352
0.65337771 -0.13425228 0.53813708
0.65620196 -0.13275105 0.53714919
0.60739905 -0.21582323 0.57108408
0.60759157 -0.21274826 0.56961221
0.64610434 -0.13924021 0.5452109
0.64946461 -0.13598961 0.54358667
0.65339899 -0.13381895 0.54172003
0.60683548 -0.21407971 0.57684433
0.60679901 -0.20959204 0.57384694
0.60793585 -0.2060034 0.57336754
0.64487469 -0.13773265 0.54869127
0.64797443 -0.13531846 0.54826403
0.60512167 -0.21207109 0.57914943
0.60556191 -0.2078633 0.5782482
0.60682118 -0.20365193 0.57699764
0.63925934 -0.14135453 0.55669522
0.64051694 -0.1389913 0.55587453
0.64356911 -0.1358729 0.55318576
0.64621598 -0.13415974 0.55054379
0.60451925 -0.20531431 0.58079505
0.60571599 -0.2013154 0.58059943
0.60718131 -0.19884154 0.57946026
0.63294721 -0.14761752 0.56447035
0.6347788 -0.14452517 0.5630464
0.63760573 -0.14191416 0.56032848
0.641545 -0.13849127 0.55797964
0.64419854 -0.13581005 0.55771154
0.6046927 -0.19931859 0.58382595
0.60596335 -0.19483057 0.58436728
0.6322028 -0.14702126 0.56709349
0.63416201 -0.14365399 0.56625867
0.63675976 -0.14061415 0.56601173
0.60608566 -0.19180062 0.58611494
0.60734737 -0.18732947 0.58666217
0.60927051 -0.18324861 0.58571166
0.61132288 -0.17933282 0.58440995
0.6135028 -0.17436102 0.58355826
0.62366831 -0.15630612 0.57623786
0.62518746 -0.1542013 0.57475692
0.62752879 -0.14982894 0.57376689
0.63097775 -0.14551395 0.57240772
0.63382262 -0.14284769 0.57039165
0.63629597 -0.14086202 0.56926608
0.60711229 -0.18453822 0.58892614
0.6083945 -0.18107253 0.58877802
0.61043012 -0.17700735 0.58760595
0.61243743 -0.17294326 0.58648586
0.61449045 -0.16840512 0.58558983
0.61721551 -0.16396222 0.58336824
0.619259 -0.15993401 0.58215696
0.62157571 -0.15547478 0.58071345
0.62374681 -0.15169609 0.5790993
0.62700188 -0.14875245 0.57802075
0.62984961 -0.1456978 0.57599819
0.61005801 -0.17528346 0.59206176
0.61189115 -0.17087129 0.59088933
0.61373138 -0.1665473 0.58944309
0.6166079 -0.16250768 0.58819985
0.61948049 -0.15818557 0.58733523
0.62151742 -0.15419772 0.5848375
0.62399524 -0.15077394 0.58294541
0.60968721 -0.17211142 0.59442425
0.61230862 -0.16908786 0.59547937
0.61441374 -0.16532749 0.59368038
0.61642265 -0.16281173 0.59228909
0.6881547 -0.13925835 0.47730368
0.68546087 -0.13942105 0.4822602
0.68882966 -0.1380032 0.48083085
0.69210154 -0.13387883 0.4800773
0.68438035 -0.13830179 0.48502147
0.68708038 -0.13561979 0.4859485
0.68959677 -0.13218623 0.48588946
0.68238306 -0.13470551 0.49112248
0.68618846 -0.13299829 0.48953849
0.68918359 -0.12922949 0.48859596
0.67903471 -0.13715807 0.49655673
0.68161237 -0.1346311 0.4950687
0.68500668 -0.13229012 0.49381205
0.68911672 -0.12608844 0.49077174
0.67474025 -0.13961923 0.50227904
0.67807221 -0.13665637 0.50073415
0.68125999 -0.13329425 0.50083429
0.6719625 -0.14105234 0.50751847
0.67497277 -0.13917071 0.50658786
0.6780706 -0.1356197 0.50481588
0.68072957 -0.13055116 0.50362164
0.68146747 -0.12846431 0.5035969
0.67039508 -0.14037028 0.51162541
0.67407733 -0.13773325 0.51143593
0.66934347 -0.13833597 0.51604253
0.67323738 -0.13623184 0.51399451
0.66776514 -0.13595131 0.52069402
0.60915989 -0.23732001 0.56176019
0.60999382 -0.23645273 0.56075895
0.6667757 -0.13415059 0.52482492
0.60940498 -0.23557207 0.56466705
0.60981941 -0.23253366 0.56389207
0.66229528 -0.13395819 0.52936298
0.66447437 -0.13290191 0.5294562
0.60802191 -0.23273805 0.56911618
0.60897028 -0.23020938 0.56799477
0.61025167 -0.22826812 0.56561649
0.66061383 -0.13233021 0.53447658
0.66403079 -0.1311416 0.53387761
0.60761738 -0.23119265 0.57422543
0.60835832 -0.22850722 0.57291561
0.60908777 -0.22420195 0.57144755
0.65717399 -0.13308299 0.53955901
0.6604178 -0.13139197 0.53939092
0.60809666 -0.22625631 0.57765973
0.608612 -0.22165078 0.57483882
0.60932332 -0.21811286 0.57398957
0.6531747 -0.13499919 0.54582453
0.65586996 -0.13257515 0.5443452
0.65886188 -0.13033447 0.54374778
0.60738772 -0.22366872 0.58068103
0.60749167 -0.21933284 0.57903349
0.6082778 -0.21651107 0.57699996
0.65214992 -0.13413465 0.54998475
0.65544802 -0.13167784 0.54903001
0.65795362 -0.12905592 0.54740232
0.60643375 -0.21663305 0.58149934
0.60662651 -0.21398115 0.58175468
0.64671868 -0.13583258 0.55741394
0.65080893 -0.13340652 0.55442756
0.65400231 -0.1315819 0.55317962
0.64140075 -0.14162701 0.56362635
0.6440987 -0.13867614 0.56196636
0.64724159 -0.13497147 0.56005496
0.64998579 -0.13324448 0.55815881
0.640625 -0.14039347 0.56652582
0.64349389 -0.13781029 0.56574649
0.64665425 -0.13549173 0.56443751
0.6368956 -0.14152563 0.57305002
0.63966846 -0.13894159 0.57185096
0.64257658 -0.13652587 0.56919932
0.63044506 -0.14751691 0.58037186
0.63265848 -0.14461675 0.57921833
0.63658297 -0.14176011 0.57704717
0.63969481 -0.13877121 0.57537645
0.62713957 -0.15000501 0.58540547
0.63001913 -0.14691663 0.58434755
0.63309562 -0.14340901 0.58363849
0.63563293 -0.14163837 0.58113891
0.61290622 -0.16997913 0.59867293
0.61614531 -0.16450742 0.59660208
0.6187216 -0.16111448 0.59464294
0.62124544 -0.15721366 0.59304518
0.62362194 -0.1531997 0.59137017
0.62628216 -0.14943194 0.59006321
0.62990272 -0.14632276 0.58796018
0.63203239 -0.14327186 0.5868395
0.6144489 -0.16735923 0.59971035
0.61625159 -0.16392004 0.60018671
0.61878556 -0.15951374 0.59910989
0.62139457 -0.15573269 0.59780818
0.62384003 -0.15176201 0.59619981
0.62630409 -0.14843756 0.59423351
0.61682242 -0.16159061 0.60346824
0.61831021 -0.15815011 0.60291779
0.62031251 -0.15549809 0.60088563
0.69120353 -0.13594598 0.4826425
0.69392806 -0.13423362 0.48136118
0.69792402 -0.12945363 0.48092961
0.69886714 -0.12768117 0.48031405
0.69056994 -0.13578963 0.48541975
0.69369459 -0.13238943 0.48597267
0.69371074 -0.12889704 0.48921132
0.69387376 -0.12646565 0.4904919
0.68393987 -0.13339713 0.49795732
0.6874826 -0.13096866 0.49511123
0.68842387 -0.12846994 0.49274611
0.68492484 -0.13278228 0.50068247
0.68700987 -0.13056895 0.50034243
0.67679703 -0.13762131 0.50862437
0.67834705 -0.13484827 0.50752133
0.68056607 -0.13267121 0.50477189
0.67754281 -0.13640505 0.51321232
0.6796096 -0.13357082 0.51117802
0.68168187 -0.13019919 0.50975364
0.67523229 -0.1358608 0.51748574
0.67455333 -0.13452211 0.52122605
0.66985452 -0.13285512 0.52626729
0.67227757 -0.13265833 0.52648079
0.66852868 -0.13169038 0.53026187
0.67101908 -0.13051847 0.53079945
0.66699064 -0.1296061 0.53475994
0.66964984 -0.12799174 0.53502196
0.66538405 -0.12858146 0.53931409
0.66832227 -0.12638676 0.5385645
0.60741001 -0.23002622 0.57871628
0.60762841 -0.22821584 0.5794875
0.66171229 -0.12904736 0.54516858
0.66468847 -0.12742436 0.54382598
0.65696669 -0.12955689 0.55115694
0.66071558 -0.12745455 0.54919451
0.66313118 -0.12591651 0.54788548
0.65329337 -0.13179377 0.55660051
0.65668619 -0.12982532 0.55555737
0.66032892 -0.12663618 0.55292958
0.66250813 -0.12391376 0.55110568
0.64957511 -0.13411504 0.56207335
0.65315253 -0.13210741 0.56037152
0.65610898 -0.1298902 0.55923128
0.6453166 -0.13688523 0.56826872
0.64968222 -0.13377905 0.5667302
0.65210533 -0.13119906 0.56526518
0.64282793 -0.1373623 0.5726344
0.64562881 -0.13610247 0.57181126
0.64880699 -0.13277557 0.57084858
0.63831222 -0.14024913 0.57923698
0.64195317 -0.13740158 0.57769382
0.6455617 -0.13530263 0.57552099
0.63444078 -0.14182502 0.58548433
0.63738978 -0.13985342 0.58345515
0.64114141 -0.13636306 0.58192164
0.63127434 -0.14561552 0.59086984
0.63472927 -0.14172968 0.58968055
0.63742948 -0.13833445 0.58793503
0.63987023 -0.13595915 0.58578897
0.62460709 -0.15050629 0.59829926
0.62799865 -0.14722037 0.59654397
0.63155663 -0.14482623 0.59463632
0.63409698 -0.14120927 0.59321231
0.61903739 -0.15714067 0.6044367
0.62227303 -0.15392116 0.6034261
0.62497723 -0.15039662 0.60212851
0.62839866 -0.14663863 0.60000676
0.63052678 -0.14431906 0.59789234
0.6194526 -0.15628487 0.60733241
0.62236762 -0.15272352 0.60690594
0.62454832 -0.14925483 0.60590655
0.69889939 -0.13389894 0.48213294
0.69908231 -0.1311689 0.4820866
0.70089138 -0.12893566 0.48014435
0.69694006 -0.13146165 0.48592159
0.69949776 -0.12933785 0.48670664
0.70062917 -0.12668717 0.48655802
0.69889247 -0.12839079 0.48982334
0.70082837 -0.1259923 0.488864
0.69007671 -0.13039413 0.49951759
0.67966789 -0.13517714 0.5181843
0.68231499 -0.13340661 0.51659167
0.68357247 -0.13104334 0.51577091
0.67776304 -0.13369802 0.52317506
0.67634296 -0.13234076 0.52739787
0.67488831 -0.13011208 0.53158635
0.67349136 -0.12784204 0.53547078
0.67142391 -0.12578321 0.53980929
0.66726494 -0.12593296 0.54530156
0.66999429 -0.12466889 0.54470807
0.6665678 -0.12473329 0.54962105
0.66933572 -0.12311947 0.54918385
0.66135389 -0.12594178 0.55640459
0.66593772 -0.12339417 0.55454224
0.66799521 -0.12149844 0.55350333
0.65606344 -0.13088462 0.5631212
0.65828276 -0.12826478 0.56129628
0.66204596 -0.12515467 0.56044197
0.66511798 -0.12260582 0.5581879
0.65551794 -0.12968186 0.56660146
0.65809488 -0.12712118 0.56547081
0.66096926 -0.12417806 0.56495899
0.65060163 -0.13124952 0.57314795
0.65378207 -0.1286051 0.571123
0.65748 -0.12573186 0.5700075
0.65951765 -0.123831 0.56791341
0.64699268 -0.1339018 0.57819903
0.64996016 -0.13077465 0.57614785
0.65256548 -0.12839743 0.57577199
0.64356792 -0.13456851 0.58420062
0.64679468 -0.1330429 0.58277541
0.65025771 -0.13002235 0.58038473
0.63933724 -0.1368196 0.59068245
0.64201558 -0.13458574 0.58822024
0.64576536 -0.13256115 0.58761591
0.63363069 -0.14324436 0.59721375
0.6357618 -0.13997248 0.59534407
0.63810879 -0.13648412 0.59365535
0.64171326 -0.13352728 0.59237415
0.64474738 -0.13169011 0.59054285
0.62942553 -0.14614746 0.60322195
0.632204 -0.14303225 0.6005283
0.6350655 -0.13927865 0.59914649
0.63856161 -0.13513193 0.5981403
0.64114541 -0.13275957 0.5966143
0.62340844 -0.15255597 0.61034763
0.62712526 -0.14803591 0.60853946
0.62939119 -0.14532366 0.60660744
0.63300103 -0.14158854 0.60492092
0.63539398 -0.13926876 0.60317492
0.6242947 -0.15100938 0.61303145
0.62688702 -0.14827675 0.61264706
0.7055918 -0.12929866 0.48220688
0.70348424 -0.13035956 0.48547533
0.70390779 -0.12886354 0.48565575
0.70173675 -0.12798306 0.49327976
0.70182997 -0.12712735 0.49514738
0.68567526 -0.13330218 0.51999378
0.68338609 -0.13468018 0.52599412
0.68423951 -0.13326609 0.52642667
0.68059337 -0.13209504 0.52847672
0.68284398 -0.13044173 0.52922279
0.67875504 -0.12970194 0.53238028
0.68144566 -0.12797484 0.53290421
0.67728448 -0.12744898 0.53661448
0.67995286 -0.12668934 0.53691983
0.67633688 -0.1254327 0.54119575
0.67774594 -0.12449748 0.54138499
0.67479759 -0.12386455 0.54585439
0.67345446 -0.12192508 0.55059946
0.66823184 -0.12231239 0.55698061
0.67140812 -0.12137537 0.55533403
0.66784519 -0.12112335 0.56015307
0.66374785 -0.12245951 0.56531167
0.66673058 -0.12006216 0.56468499
0.66011482 -0.12376737 0.5712859
0.66239208 -0.12158483 0.569915
0.66546011 -0.11938798 0.56988794
0.6558519 -0.12680793 0.5773133
0.65888906 -0.12345844 0.57586944
0.66216701 -0.12070362 0.57483673
0.65019572 -0.13190922 0.58461356
0.65224159 -0.12903613 0.58353466
0.65548265 -0.12633914 0.58195645
0.65852231 -0.12236359 0.58088595
0.64913744 -0.13106999 0.58882004
0.65172011 -0.12781405 0.58768737
0.65489835 -0.12444191 0.58599371
0.65706259 -0.12170865 0.58504611
0.64470458 -0.13222921 0.59472466
0.64769626 -0.13008028 0.59333855
0.65093589 -0.12724039 0.5925045
0.64045143 -0.1345225 0.60122114
0.64397013 -0.13117185 0.5985446
0.64766216 -0.12878254 0.59735376
0.63503683 -0.14039865 0.60756189
0.63833976 -0.13808149 0.60633069
0.64056456 -0.13547379 0.60428429
0.64358109 -0.13068911 0.60340804
0.62884152 -0.14690197 0.61496043
0.63239515 -0.14401108 0.61350882
0.63514906 -0.14070818 0.6118046
0.63706934 -0.13819045 0.61112112
0.62927306 -0.14704415 0.61882842
0.63212782 -0.1428642 0.61698639
0.63501716 -0.13920707 0.61505663
0.71199137 -0.12984157 0.48652512
0.71422726 -0.12620452 0.4858107
0.71000147 -0.12799397 0.48862582
0.71218634 -0.12566081 0.48777455
0.7080822 -0.12858683 0.49580473
0.70850414 -0.12572861 0.49353689
0.70757842 -0.12710011 0.4977217
0.70856643 -0.12524325 0.49707681
0.68788207 -0.1353389 0.52342361
0.6881156 -0.1343258 0.52624357
0.68705344 -0.13097554 0.53005552
0.68698108 -0.12770095 0.53436989
0.68903804 -0.12734464 0.53240663
0.68417096 -0.12564039 0.53876948
0.68283898 -0.12451578 0.54367691
0.68074584 -0.1231268 0.54788095
0.67925996 -0.12111203 0.55178952
0.67611027 -0.12118206 0.55627179
0.67881191 -0.12056344 0.55605155
0.66888773 -0.11777892 0.57095379
0.66526753 -0.11999305 0.57742554
0.66834998 -0.11878548 0.57576042
0.66094291 -0.12123469 0.58325857
0.66439974 -0.1204965 0.58169675
0.65997159 -0.12104618 0.58669132
0.66190791 -0.11857384 0.58466595
0.65355766 -0.1257219 0.59442145
0.65686357 -0.12338959 0.59199286
0.64982069 -0.12773761 0.59991705
0.65310258 -0.12615585 0.59881037
0.6566689 -0.12317868 0.59595984
0.64149439 -0.13655931 0.609065
0.64409757 -0.13374448 0.60724705
0.64675045 -0.13009059 0.60600692
0.64970261 -0.12751624 0.60374707
0.64034104 -0.13662896 0.61217684
0.64399666 -0.13347271 0.61216599
0.64678621 -0.12956604 0.60887992
0.64917243 -0.12716749 0.60744512
0.63158917 -0.14564168 0.62175256
0.63390809 -0.1427066 0.62042356
0.63759613 -0.13872173 0.61879706
0.63985467 -0.13630798 0.61587334
0.64293635 -0.13308743 0.61530113
0.63276315 -0.14470109 0.62387145
0.63422245 -0.14192015 0.62257272
0.63680321 -0.14031401 0.62211084
0.69232363 -0.13333091 0.52805012
0.69523305 -0.13244879 0.52856576
0.6918658 -0.13143283 0.53221697
0.693313 -0.12950718 0.53409415
0.68950921 -0.12851787 0.5352087
0.69246298 -0.12820479 0.53654188
0.68715602 -0.12496477 0.54473382
0.68669033 -0.12380371 0.5502634
0.6825707 -0.12125803 0.55298734
0.67998707 -0.12168615 0.56053239
0.68324667 -0.12082577 0.55867916
0.67894256 -0.12138545 0.5641762
0.67697304 -0.12008289 0.56840998
0.67579764 -0.11704443 0.57211053
0.66898572 -0.11928938 0.57980365
0.67138267 -0.11769734 0.57856476
0.674977 -0.11533057 0.57641613
0.66912353 -0.11975341 0.58324999
0.67147046 -0.11825774 0.58248729
0.66457123 -0.12056529 0.58949405
0.66601777 -0.12013649 0.5881688
0.65566063 -0.12553245 0.60077184
0.65737337 -0.12371349 0.59874016
0.65307885 -0.12617058 0.60669172
0.65494478 -0.1252453 0.60364056
0.64686173 -0.13196892 0.6131072
0.64895332 -0.1295974 0.61239409
0.65176457 -0.12583992 0.61056542
0.65556669 -0.12438033 0.60838038
0.64295077 -0.13503584 0.61972803
0.64561474 -0.13150069 0.61702877
0.64924151 -0.12825811 0.61606658
0.65195692 -0.12513131 0.61467445
0.6374737 -0.14155868 0.62671828
0.64065033 -0.13886982 0.6250481
0.64333928 -0.1352174 0.62354487
0.64650357 -0.13128018 0.62090993
0.64892554 -0.12722829 0.61900276
0.63843805 -0.14113837 0.62963367
0.69900662 -0.13315773 0.5299179
0.697438 -0.13063714 0.53352147
0.6970306 -0.12776226 0.53814286
0.6942395 -0.12666053 0.54200441
0.68994421 -0.1247972 0.54795301
0.69338739 -0.1248913 0.54698724
0.6906442 -0.12407386 0.55156314
0.69231164 -0.12301118 0.55134964
0.69491661 -0.1162904 0.5508405
0.69034928 -0.12272417 0.55522496
0.69423163 -0.11580273 0.55244613
0.68711817 -0.12112025 0.56160212
0.68232429 -0.12101147 0.56548733
0.6854099 -0.11886226 0.56529689
0.68133748 -0.11880892 0.56952155
0.68412805 -0.11675235 0.5692243
0.67964333 -0.11575653 0.57321322
0.68198931 -0.11463336 0.57287741
0.67761421 -0.11372011 0.57835597
0.67992276 -0.11214074 0.57671791
0.67486835 -0.11705831 0.58451867
0.677248 -0.11456306 0.58262944
0.67101771 -0.11937667 0.58965909
0.67368859 -0.1170795 0.58910763
0.66429675 -0.12349875 0.59700209
0.6678257 -0.12206831 0.59575701
0.67056495 -0.11797727 0.59327906
0.67196029 -0.11485486 0.5926947
0.6602993 -0.1251114 0.60346216
0.66490299 -0.1239178 0.60189831
0.65997398 -0.12430238 0.60682845
0.6632812 -0.12384551 0.60536438
0.65827239 -0.12292824 0.61114597
0.66170269 -0.12071212 0.61037618
0.65389228 -0.12416442 0.61701214
0.65785885 -0.12207829 0.61610144
0.64559758 -0.13384163 0.62539411
0.64840859 -0.13068804 0.6243962
0.65063667 -0.12713099 0.62228334
0.65335643 -0.12329441 0.62116027
0.65474963 -0.12084057 0.62039101
0.64017147 -0.14025915 0.63288772
0.6425277 -0.13730758 0.63095677
0.64534771 -0.13362274 0.62977505
0.64807081 -0.12990892 0.6288799
0.65145779 -0.12591627 0.62623358
0.65352517 -0.12238082 0.62465572
0.65416127 -0.11960595 0.62304473
0.64250934 -0.13798386 0.63517457
0.64480942 -0.13202509 0.63429564
0.64650381 -0.12809747 0.63189381
0.71024948 -0.13465822 0.51894212
0.71240783 -0.13156852 0.51690239
0.71411383 -0.12786236 0.51611525
0.70940202 -0.13393128 0.52267927
0.71124023 -0.13062924 0.52110159
0.70377636 -0.1374571 0.52928084
0.70459968 -0.13545486 0.52820522
0.70800835 -0.13240784 0.52684951
0.71059954 -0.127913 0.52491349
0.71324927 -0.12293323 0.523184
0.71435422 -0.12010651 0.52295232
0.70356178 -0.13272306 0.53079462
0.70631039 -0.13067695 0.53085238
0.70909828 -0.12783447 0.5277862
0.71370733 -0.11467233 0.52771503
0.70142722 -0.12953818 0.53441101
0.70464951 -0.12742254 0.53468412
0.70659232 -0.12514415 0.53425187
0.71329695 -0.11404359 0.52889669
0.7000249 -0.12681526 0.53882366
0.70180696 -0.1245895 0.53804106
0.70508897 -0.12159202 0.5381586
0.69851094 -0.12533703 0.54337609
0.70128489 -0.12264394 0.54313684
0.70416123 -0.11842955 0.54145426
0.70638198 -0.11444276 0.54126078
0.69686699 -0.12341545 0.54786855
0.69917631 -0.12012305 0.54701352
0.70182586 -0.11620628 0.54554498
0.70504534 -0.11215425 0.54415339
0.70646936 -0.10917524 0.5449059
0.69494593 -0.12100642 0.55216044
0.69711632 -0.11786493 0.55013192
0.69964808 -0.1132796 0.54900301
0.7028935 -0.10960151 0.54800802
0.70595187 -0.10561607 0.54731089
0.69120002 -0.12233403 0.55833405
0.69330138 -0.11988475 0.55598342
0.69547164 -0.11490593 0.55515426
0.69804561 -0.11125707 0.55307001
0.70160812 -0.10735866 0.55250615
0.70431906 -0.10341128 0.55129218
0.69048238 -0.12073468 0.5618397
0.69329292 -0.11809682 0.56093484
0.69585729 -0.11414012 0.55938292
0.69752997 -0.10949407 0.55808413
0.70159632 -0.10485422 0.55465794
0.70357239 -0.10114049 0.55336821
0.68973494 -0.11801691 0.56613201
0.69234771 -0.11555936 0.56545717
0.69554698 -0.1124457 0.563299
0.69710875 -0.10836742 0.56302536
0.68823516 -0.11571903 0.57045072
0.69071621 -0.11337984 0.56976354
0.68673038 -0.11341364 0.57478333
0.68942147 -0.11095046 0.57374579
0.69144005 -0.10764753 0.57236749
0.68543571 -0.1114301 0.57851118
0.68781352 -0.10884487 0.57795638
0.68958485 -0.10682837 0.57594359
0.67978674 -0.11373397 0.58539724
0.67706925 -0.11545687 0.59001625
0.67986864 -0.11254229 0.58948469
0.67011201 -0.12143316 0.59855449
0.67384267 -0.11871403 0.59777141
0.67644209 -0.11421365 0.59315175
0.67875212 -0.1119873 0.59293526
0.6671198 -0.12359001 0.60277021
0.66988987 -0.12083399 0.60227495
0.67376733 -0.11813491 0.60051757
0.66585159 -0.12201973 0.60716814
0.66932976 -0.11910196 0.60649443
0.66452241 -0.11992776 0.61115527
0.66803998 -0.11727158 0.6107316
0.66064423 -0.12041008 0.61701584
0.66360086 -0.11803924 0.61634672
0.66718477 -0.1167061 0.61382139
0.65868902 -0.11946196 0.62130928
0.66298723 -0.1168819 0.62060589
0.65074039 -0.12847322 0.63036615
0.65230858 -0.12562591 0.62927729
0.65466094 -0.12135496 0.627644
0.66195822 -0.11471408 0.62383085
0.66396034 -0.111766 0.6231057
0.64447904 -0.1360907 0.63716167
0.65039301 -0.12722602 0.63183302
0.65172535 -0.12472209 0.63096339
0.65403074 -0.12038939 0.62945867
0.71065104 -0.13793385 0.52718288
0.71419817 -0.12878355 0.52203542
0.71616608 -0.12630656 0.52035874
0.71773475 -0.12412646 0.51954162
0.71021134 -0.1372602 0.52844894
0.71007144 -0.13276431 0.52719289
0.71218407 -0.12849385 0.5260098
0.71463674 -0.12439286 0.52471334
0.71784604 -0.12291168 0.52346575
0.70882827 -0.12948072 0.53167254
0.7106691 -0.12585536 0.53057915
0.71311951 -0.12185735 0.52895451
0.71464169 -0.11870008 0.52778345
0.70983654 -0.12336325 0.53476006
0.71217638 -0.1197455 0.53371358
0.71405089 -0.11543304 0.53236222
0.71523237 -0.11171486 0.53123254
0.70862031 -0.12101149 0.53759122
0.71070409 -0.11769495 0.53732425
0.71380705 -0.11360962 0.53638613
0.71494836 -0.10962192 0.53491342
0.70923996 -0.1153269 0.54013699
0.71216905 -0.11122864 0.54064709
0.71452397 -0.10714104 0.540003
0.710168 -0.10857692 0.54441798
0.71405017 -0.10493802 0.54431003
0.7160548 -0.10238685 0.54468209
0.70959026 -0.1053687 0.54597849
0.71188015 -0.10263931 0.54741472
0.71513706 -0.10006159 0.54792458
0.70698136 -0.10137171 0.55349034
0.71079773 -0.10046785 0.55210352
0.71307838 -0.09801551 0.55045724
0.70409995 -0.10715412 0.55869424
0.70692331 -0.10231548 0.55788219
0.70866108 -0.098422505 0.55607581
0.71278644 -0.097379409 0.55409306
0.69604254 -0.11219002 0.56698751
0.6973604 -0.10915323 0.56649286
0.7058416 -0.10107263 0.5602811
0.69513375 -0.11033802 0.56990433
0.69670087 -0.10814276 0.56839192
0.684412 -0.1142882 0.58747625
0.68714583 -0.11325922 0.58746344
0.68549824 -0.1141056 0.59000742
0.68623501 -0.11222114 0.58985299
0.67414564 -0.11878275 0.60383719
0.67174256 -0.1173991 0.60925663
0.67514831 -0.1170714 0.60752314
0.6706726 -0.1157599 0.61233735
0.67477161 -0.11408087 0.611853
0.67794555 -0.11125881 0.61051333
0.66957921 -0.11544196 0.61707389
0.67304993 -0.11192607 0.61603993
0.66511071 -0.11556288 0.6229189
0.66885906 -0.11337703 0.62175441
0.67075425 -0.11103528 0.61972111
0.6681087 -0.11128726 0.62452865
0.7199825 -0.11045208 0.54316962
0.7066009 -0.10628364 0.56213272
0.70761138 -0.10438458 0.56147319
0.7061612 -0.10561001 0.56339878
0.70717168 -0.10371093 0.56273925
0.68259704 -0.11951371 0.60751671
0.67991906 -0.11661591 0.60909677
0.72251391 -0.1086534 0.54403955
0.68642318 -0.11969043 0.60911727
0.68838382 -0.11744138 0.60690051
0.68481803 -0.11807788 0.61095989
0.68752402 -0.11555093 0.61197692
0.68509501 -0.11286574 0.61295086
0.68843901 -0.11794022 0.61315131
0.69006896 -0.11543917 0.6117202
