# .PCD v0.7 - Point Cloud Data file format
VERSION 0.7
FIELDS x y z
SIZE 4 4 4
TYPE F F F
COUNT 1 1 1
WIDTH 1397
HEIGHT 1
VIEWPOINT 0 0 0 1 0 0 0
POINTS 1397
DATA ascii
0.35905251 -0.17946425 0.69756168
0.36530194 -0.17882004 0.69716811
0.35663423 -0.17967078 0.70319366
0.35997561 -0.17814204 0.70108873
0.36144155 -0.17637762 0.69973606
0.35262129 -0.17697996 0.70729196
0.34906742 -0.17498624 0.7103188
0.36470431 -0.18324721 0.69704288
0.36755773 -0.18255171 0.69786066
0.36253893 -0.18183306 0.69944042
0.36601093 -0.1793094 0.69798946
0.36931336 -0.17715263 0.69790298
0.35640565 -0.18042174 0.70435607
0.36032578 -0.17683569 0.70342666
0.36548895 -0.17643678 0.70132279
0.36914477 -0.17506742 0.70052266
0.3551192 -0.17660969 0.70692128
0.35909185 -0.17479864 0.70698357
0.35051543 -0.17455176 0.71118635
0.35372689 -0.17377099 0.71101081
0.35767812 -0.17147216 0.71096539
0.36099085 -0.16819376 0.71010292
0.34890011 -0.17306557 0.7156322
0.35245362 -0.17048717 0.71418989
0.35656831 -0.16813132 0.71318603
0.3599405 -0.16626772 0.711694
0.34795901 -0.16931042 0.71892834
0.3517752 -0.16687986 0.71730465
0.3544443 -0.16588405 0.71590638
0.34533003 -0.16547278 0.72167134
0.3423759 -0.16397268 0.72429681
0.34374848 -0.16242054 0.72427201
0.37641451 -0.19360027 0.69583577
0.38186297 -0.1875858 0.69437283
0.38695127 -0.18378666 0.69223541
0.3899987 -0.18154129 0.69094259
0.3957496 -0.17600396 0.68905437
0.37935349 -0.18473482 0.69743133
0.38055399 -0.18450025 0.69664627
0.37252006 -0.18354878 0.70132875
0.37666765 -0.18167424 0.70048982
0.37350783 -0.17775649 0.70076108
0.377141 -0.17634138 0.70207548
0.36464742 -0.17714161 0.70689416
0.36784232 -0.17593947 0.7073471
0.37149009 -0.17439857 0.70396399
0.37585032 -0.17255887 0.70362669
0.37906042 -0.17155078 0.70324039
0.36366239 -0.17525262 0.71039021
0.3665159 -0.17561036 0.71076107
0.36119547 -0.17228267 0.71200943
0.36378372 -0.17071998 0.71353626
0.35913482 -0.16753492 0.71437508
0.34982693 -0.16769311 0.72116613
0.35263112 -0.16533431 0.72036326
0.35694969 -0.1645349 0.71916705
0.3481195 -0.16548625 0.72401673
0.35154656 -0.16351733 0.7225458
0.35587993 -0.16130427 0.72230446
0.346439 -0.16217145 0.72679251
0.35029241 -0.16022584 0.72579598
0.35469732 -0.15786758 0.72577739
0.34503371 -0.15871614 0.72981876
0.34894899 -0.15676913 0.72986019
0.35244045 -0.15562126 0.72895575
0.34433165 -0.15510833 0.73291659
0.34737843 -0.15346497 0.73320651
0.34624738 -0.15154099 0.73459363
0.34998319 -0.14402524 0.73634207
0.36497065 -0.20752949 0.70360881
0.36702451 -0.20510039 0.70137584
0.36975893 -0.20119098 0.69883198
0.3728064 -0.19894558 0.69753915
0.36366984 -0.20446306 0.70586836
0.36593613 -0.20226559 0.70414627
0.36920187 -0.19923949 0.70187503
0.37317982 -0.19623774 0.70033783
0.37648925 -0.19347456 0.69833982
0.3799527 -0.19041607 0.6969018
0.38402322 -0.18668905 0.69476569
0.38729572 -0.1837644 0.69382864
0.39062959 -0.18132269 0.69293308
0.39412689 -0.17793638 0.69074273
0.36257896 -0.20189175 0.70776278
0.36516324 -0.1991044 0.70704132
0.36812964 -0.19616166 0.70555705
0.37210733 -0.19298518 0.70353621
0.37572855 -0.19037846 0.70208329
0.37899813 -0.18800443 0.70050627
0.38344365 -0.18445435 0.69847441
0.38734347 -0.18195394 0.69758052
0.39068043 -0.17930731 0.69544506
0.39381692 -0.17554596 0.69220406
0.39742789 -0.17292342 0.69072878
0.40104857 -0.17048138 0.68976003
0.40586603 -0.16757107 0.6894908
0.40965873 -0.16463539 0.68861657
0.4132781 -0.16134477 0.68673331
0.36696139 -0.1926147 0.70828205
0.37032911 -0.1898436 0.70552278
0.37388262 -0.18750453 0.70389682
0.37745765 -0.18458474 0.70256704
0.38179338 -0.18100378 0.70115411
0.38620201 -0.17827055 0.70004976
0.38978574 -0.17561963 0.69853395
0.39317945 -0.17277989 0.69658184
0.39717558 -0.17053735 0.69439173
0.4011144 -0.1679424 0.69311547
0.40491647 -0.16532561 0.69208074
0.40864697 -0.16272613 0.69043481
0.41366389 -0.16025171 0.68778777
0.36567375 -0.19021145 0.71043766
0.38070998 -0.17620891 0.70267391
0.38440758 -0.17410684 0.70297414
0.3883805 -0.17184097 0.70150059
0.39180201 -0.17017421 0.69968665
0.37781638 -0.17115417 0.70563775
0.38198534 -0.1709342 0.70603454
0.38914597 -0.16751683 0.70277083
0.36876369 -0.17492294 0.71333426
0.37293819 -0.1741201 0.71141928
0.37718952 -0.16977468 0.70948517
0.38032016 -0.16791826 0.70854092
0.3665655 -0.17292288 0.71527743
0.37678087 -0.16712758 0.71204668
0.35829756 -0.15590951 0.72911191
0.35126588 -0.15441692 0.732301
0.35540172 -0.15401325 0.73043454
0.35890606 -0.15193379 0.7300877
0.3505052 -0.15231737 0.73375213
0.35351923 -0.15070394 0.73330969
0.35770914 -0.14867848 0.73239416
0.36060131 -0.14808232 0.7320478
0.34897789 -0.1496273 0.73689383
0.35213181 -0.14675805 0.73573232
0.35632095 -0.14467514 0.73566252
0.35101125 -0.14278913 0.73895282
0.35456148 -0.1408087 0.73862892
0.35082114 -0.13981825 0.74144709
0.35391182 -0.13771546 0.74093682
0.35579631 -0.13675603 0.74039316
0.35922834 -0.21427098 0.70891762
0.36132795 -0.21240228 0.70699656
0.3636727 -0.21031946 0.70600665
0.35748789 -0.21162483 0.71132272
0.36010441 -0.20940086 0.70946306
0.36254573 -0.20735648 0.708094
0.35587856 -0.20906308 0.71547019
0.35914677 -0.20611525 0.71324539
0.36197385 -0.20325616 0.71120954
0.36445847 -0.19964716 0.70995522
0.40618449 -0.16843626 0.69245166
0.35210231 -0.20676968 0.72085071
0.35480127 -0.20585901 0.71935761
0.35856614 -0.20274127 0.71790624
0.36188051 -0.19972897 0.71564829
0.36436298 -0.19615507 0.71216357
0.39880708 -0.16962996 0.69825625
0.40252474 -0.16672963 0.69718492
0.40594745 -0.16517475 0.69450223
0.41012755 -0.16122201 0.69279456
0.41460165 -0.15963608 0.69271767
0.41963482 -0.15768671 0.6916517
0.42289793 -0.15490103 0.69069195
0.42589256 -0.15277502 0.68956244
0.3505691 -0.2042366 0.72349244
0.3527196 -0.20317706 0.72235739
0.35712162 -0.19923359 0.72078681
0.36062256 -0.19641957 0.71896362
0.36335567 -0.19277242 0.71532506
0.36526355 -0.18983731 0.71352375
0.38862485 -0.1705744 0.70448279
0.39282519 -0.16867954 0.70219177
0.396938 -0.16727549 0.70069468
0.40123519 -0.16434309 0.69849122
0.40520051 -0.1616281 0.69737762
0.40893438 -0.15927178 0.69586468
0.4140341 -0.15717694 0.69647598
0.41717052 -0.15638885 0.6947183
0.42216405 -0.15246397 0.69226658
0.42440817 -0.15105605 0.69164783
0.35639402 -0.19554752 0.7228868
0.35905302 -0.1927703 0.72155899
0.3614876 -0.19078088 0.71809328
0.38518611 -0.17096287 0.70737672
0.38791171 -0.16852236 0.70635617
0.39173973 -0.16589576 0.70475602
0.39599431 -0.16375166 0.70372874
0.40007162 -0.16103476 0.70190066
0.40456274 -0.15832663 0.70088893
0.40855777 -0.15595943 0.7000432
0.41252634 -0.15358111 0.69916713
0.41497275 -0.15120822 0.69853544
0.41950694 -0.14916736 0.69606036
0.35493141 -0.18929741 0.72661597
0.35695979 -0.18955287 0.72501302
0.3713204 -0.17382455 0.71585411
0.37468374 -0.17272839 0.71421617
0.37592962 -0.1704284 0.71389872
0.38407877 -0.16796252 0.71229482
0.38756591 -0.16584167 0.71104437
0.39138409 -0.16260555 0.70906818
0.39513698 -0.160283 0.70758444
0.39835981 -0.15696314 0.70505333
0.4029648 -0.15431774 0.7042591
0.40698674 -0.15195736 0.70344561
0.41081193 -0.14947391 0.70233685
0.35533544 -0.1869497 0.72731423
0.37040269 -0.17278427 0.71915919
0.3745099 -0.17047483 0.71820652
0.37733793 -0.1666446 0.71519554
0.38174123 -0.16514671 0.71513879
0.38644144 -0.16261074 0.71461105
0.3901251 -0.15942481 0.71204501
0.39289051 -0.15562937 0.7098003
0.39614332 -0.15243608 0.70713031
0.40090281 -0.15031582 0.70665586
0.40555832 -0.14843673 0.70635623
0.40917027 -0.14603806 0.70500404
0.36810899 -0.17280123 0.72259223
0.36917558 -0.17201534 0.72213972
0.37492624 -0.16666761 0.72122133
0.37731275 -0.1639671 0.71982092
0.38105318 -0.16143438 0.71831447
0.38493481 -0.15901551 0.71735555
0.38886899 -0.15573975 0.71510816
0.39181945 -0.15217316 0.71299809
0.39515162 -0.14926842 0.71090007
0.40026483 -0.14700013 0.71031392
0.40412092 -0.14487892 0.70921618
0.40778136 -0.14287359 0.70736998
0.36335814 -0.16743848 0.7296803
0.37641925 -0.16029668 0.72308642
0.37956259 -0.15754882 0.72193611
0.38318142 -0.1548824 0.72040087
0.38731 -0.1518006 0.71858424
0.39076409 -0.14897704 0.716663
0.39448652 -0.14639339 0.71534419
0.39837059 -0.14397937 0.71372521
0.40303013 -0.14230767 0.71111083
0.40483552 -0.14027742 0.71064186
0.37083247 -0.15783131 0.72824883
0.37452349 -0.15570778 0.72599256
0.37754482 -0.15353972 0.72420472
0.38150993 -0.1511184 0.72279179
0.38561162 -0.1478585 0.72108537
0.38941914 -0.14550307 0.71978396
0.39297512 -0.14277679 0.7181015
0.39682081 -0.13991272 0.71670181
0.40132949 -0.13672739 0.71473122
0.40300944 -0.13514793 0.71416342
0.3689312 -0.15475592 0.73046219
0.37229973 -0.15253296 0.72829038
0.37652007 -0.15007693 0.72734767
0.3801029 -0.14762571 0.7257477
0.3841069 -0.14467192 0.72405058
0.38804069 -0.14196113 0.72230214
0.39182124 -0.13979375 0.72043604
0.39556867 -0.13760537 0.71860337
0.39983967 -0.13349843 0.71719873
0.40199134 -0.13357306 0.71558172
0.36221638 -0.15083247 0.73231602
0.3663477 -0.15130094 0.73219067
0.37080589 -0.14853352 0.7311464
0.37469402 -0.14611641 0.73026413
0.37834144 -0.14347357 0.72880703
0.3818697 -0.14080802 0.72733819
0.38668302 -0.13722384 0.72531229
0.38969776 -0.13494363 0.72405833
0.39215729 -0.13168558 0.72362828
0.39776239 -0.12930903 0.72050661
0.3604711 -0.14671844 0.73534727
0.36412004 -0.14694995 0.73422337
0.36935154 -0.14498428 0.73402435
0.3729305 -0.14229423 0.73241925
0.37677762 -0.13983119 0.7313953
0.38078237 -0.13680917 0.72983581
0.38446999 -0.13382587 0.72838438
0.38875738 -0.13105735 0.7263999
0.39123073 -0.13060161 0.72477084
0.3593722 -0.14412811 0.73725587
0.3633863 -0.14374936 0.73809373
0.36802524 -0.14154965 0.73722434
0.37208042 -0.1399118 0.73493135
0.37554839 -0.13619938 0.73395097
0.37941501 -0.13315752 0.73239243
0.38300446 -0.13118786 0.73058337
0.35784236 -0.140522 0.73991287
0.36149719 -0.14013323 0.7406227
0.36538664 -0.13798833 0.74067938
0.37473485 -0.13255599 0.73609608
0.37734655 -0.12993166 0.7352851
0.35918155 -0.13714013 0.74219847
0.35613251 -0.20403609 0.72210354
0.41951913 -0.15733203 0.6952129
0.42515227 -0.15458149 0.69222921
0.42924663 -0.15201667 0.69175887
0.4326064 -0.14976269 0.69140613
0.34962675 -0.20472962 0.72660285
0.35444424 -0.20238 0.72405005
0.41924256 -0.15470856 0.69652969
0.42330205 -0.1514881 0.69556105
0.42860028 -0.14964119 0.69506574
0.43212339 -0.1473878 0.69370729
0.34779346 -0.20314172 0.73081481
0.34984326 -0.20177311 0.72882271
0.35344335 -0.19886062 0.72663057
0.35597017 -0.19508901 0.72601879
0.41783381 -0.15131694 0.6993565
0.42244625 -0.14855102 0.69853139
0.42696863 -0.14656124 0.69823098
0.43073747 -0.14362657 0.69669902
0.43284348 -0.14142489 0.69608134
0.34737223 -0.20160118 0.73352885
0.34942028 -0.19909209 0.73308426
0.35213065 -0.19437805 0.72980565
0.35503799 -0.19236362 0.72825569
0.35733774 -0.19084805 0.72681034
0.41605651 -0.14727044 0.70268887
0.42063069 -0.14492795 0.70171863
0.42536959 -0.14279434 0.70074463
0.4295952 -0.14036825 0.69892293
0.3484492 -0.19600758 0.73510826
0.35120693 -0.19150662 0.73411065
0.35394728 -0.18875781 0.73179942
0.41128889 -0.14429617 0.70680726
0.41462231 -0.14374271 0.70557046
0.41960424 -0.14127156 0.70458883
0.42325726 -0.13970384 0.70354646
0.42751822 -0.13751528 0.70166361
0.35021418 -0.18827674 0.73679578
0.35259935 -0.18496236 0.73471689
0.35426727 -0.18361041 0.7321431
0.36926529 -0.17257386 0.72933716
0.37238705 -0.17096561 0.72645354
0.37430862 -0.16815946 0.72449374
0.40774509 -0.14560726 0.70886213
0.40868708 -0.14146322 0.70992613
0.41329584 -0.14026341 0.70868003
0.41795188 -0.13756165 0.70787215
0.42093122 -0.13566726 0.70677596
0.34961173 -0.18425107 0.73923928
0.35153601 -0.18189111 0.73803496
0.36731499 -0.16998807 0.73184228
0.37041229 -0.16686699 0.73041284
0.37352186 -0.16399896 0.72734982
0.37565109 -0.16075456 0.72608346
0.40051675 -0.14235821 0.71556646
0.40332034 -0.14051297 0.71428359
0.40757197 -0.13851157 0.7126562
0.41162124 -0.13653764 0.71191633
0.41582021 -0.13456783 0.71153325
0.36534649 -0.16582063 0.73415178
0.3690432 -0.16402903 0.73297572
0.37249461 -0.1616306 0.73085028
0.37382635 -0.15899906 0.72817266
0.39980569 -0.13985711 0.7171514
0.40064606 -0.13853794 0.71709186
0.40611082 -0.1348457 0.71495998
0.41068175 -0.13293931 0.71497893
0.41439348 -0.1316762 0.71381122
0.36473164 -0.16250286 0.73732501
0.36764807 -0.1592387 0.73574066
0.37064826 -0.1582275 0.73215425
0.38595378 -0.1425634 0.72620958
0.3885822 -0.14062673 0.7250945
0.39202037 -0.13841847 0.72349805
0.39655772 -0.13601393 0.7213062
0.40040854 -0.13352296 0.71939439
0.40441531 -0.13119799 0.71786606
0.4082922 -0.1291444 0.71713084
0.41301689 -0.12863335 0.71611637
0.36427072 -0.15905017 0.73912942
0.36562309 -0.15572348 0.73757535
0.38466743 -0.1401912 0.72816372
0.38690463 -0.13830563 0.72731525
0.39120606 -0.13569346 0.72525406
0.39517096 -0.13278544 0.72376835
0.39911371 -0.12953159 0.72239971
0.40364826 -0.12723142 0.72177649
0.40752301 -0.12560239 0.72101271
0.38375601 -0.13738275 0.73002672
0.38678554 -0.13480055 0.72889
0.38917047 -0.13179329 0.72840852
0.39361829 -0.12908256 0.72735524
0.39774475 -0.12627915 0.72574276
0.40267327 -0.12372435 0.7250126
0.40558657 -0.12243312 0.72422147
0.37249729 -0.13812831 0.738006
0.3850669 -0.12975565 0.73278868
0.38885888 -0.1280337 0.73180807
0.39298469 -0.12596783 0.73109847
0.39691418 -0.12331488 0.72988737
0.40113631 -0.12052997 0.72830784
0.40402707 -0.11875717 0.72693002
0.36370999 -0.13845289 0.74434292
0.3683463 -0.13752928 0.74206877
0.37137794 -0.13519248 0.74081457
0.37453911 -0.13199556 0.73943138
0.37869582 -0.12963092 0.73775041
0.38272792 -0.12667674 0.73573625
0.38717744 -0.12408594 0.73472178
0.39164633 -0.1222794 0.73455799
0.39503661 -0.11978141 0.73311973
0.36035886 -0.13863248 0.75067353
0.36318377 -0.13733414 0.74783021
0.36703622 -0.13544071 0.74677938
0.37036955 -0.13203624 0.74478316
0.37410584 -0.12902936 0.74304354
0.37753496 -0.12640095 0.74082065
0.38119134 -0.12306803 0.73842669
0.38553873 -0.12057539 0.73703671
0.38943949 -0.11829945 0.73655999
0.39336362 -0.11655044 0.73572314
0.3665657 -0.13063416 0.74949336
0.36919406 -0.12869751 0.74837834
0.37308535 -0.12539023 0.74592978
0.3768957 -0.12282731 0.74475658
0.37983444 -0.11957704 0.74153638
0.38351026 -0.11693092 0.74008733
0.38737187 -0.11500827 0.73978251
0.39079857 -0.1135041 0.73890543
0.36762056 -0.12474126 0.75073874
0.37106794 -0.12140175 0.74840546
0.37584016 -0.11922564 0.7474997
0.37878516 -0.11687831 0.74606305
0.38323805 -0.11362004 0.74390191
0.36695302 -0.12182375 0.75294566
0.37049681 -0.11886262 0.75159073
0.37458721 -0.11724883 0.74926156
0.43533254 -0.14982778 0.69199526
0.43772769 -0.14852098 0.69166011
0.43414745 -0.14703429 0.69405353
0.43706945 -0.14546645 0.69322211
0.44212231 -0.14323568 0.6930266
0.3471348 -0.20381296 0.73407817
0.42910615 -0.14481547 0.69870937
0.43243983 -0.14300916 0.69701934
0.43583021 -0.14153931 0.69698244
0.44026521 -0.14020371 0.69638133
0.34628907 -0.20126945 0.73578036
0.35022613 -0.19813523 0.73420912
0.42755476 -0.14115855 0.7014038
0.42977336 -0.14002383 0.70025051
0.43368155 -0.13852781 0.69964635
0.3428345 -0.19945508 0.74172056
0.34499824 -0.19843456 0.73902798
0.3479152 -0.19433796 0.73752278
0.42554951 -0.13833272 0.70440823
0.42944643 -0.13650465 0.70447814
0.43193361 -0.1360282 0.70199466
0.34230617 -0.19768116 0.74417496
0.34438887 -0.19505244 0.74363649
0.3473087 -0.1916939 0.74068534
0.34924456 -0.18808308 0.74007201
0.37150976 -0.17075318 0.73014343
0.42415056 -0.13540888 0.70824724
0.42767349 -0.13462228 0.70769882
0.34702384 -0.1883823 0.744425
0.34867477 -0.18532935 0.74209738
0.37108961 -0.16976276 0.73087323
0.41837421 -0.13380286 0.71128863
0.42034078 -0.13295633 0.71194887
0.34853083 -0.18215138 0.74552053
0.35024366 -0.17857236 0.74249548
0.35271272 -0.17500308 0.74219042
0.37069026 -0.16245702 0.73426676
0.37153062 -0.16113782 0.73420721
0.41615346 -0.12981474 0.71461684
0.41959175 -0.12979412 0.71524239
0.34847498 -0.17752674 0.74785179
0.35035539 -0.17540905 0.74621618
0.36321485 -0.16251498 0.73975015
0.36858997 -0.16062951 0.73658955
0.41075483 -0.12748694 0.71958214
0.41423783 -0.12693381 0.71820521
0.41750368 -0.12583789 0.71793419
0.34779862 -0.17503425 0.74973559
0.35012844 -0.17217478 0.74923205
0.36620918 -0.15825871 0.73934954
0.40963975 -0.12485852 0.72151881
0.41344202 -0.12391298 0.72183084
0.40816188 -0.12132216 0.72482407
0.41185439 -0.12003898 0.72514015
0.41445512 -0.11678758 0.72533244
0.39728388 -0.12166249 0.7319786
0.4020074 -0.11818215 0.72997475
0.40613946 -0.11785541 0.72797751
0.39370778 -0.12289741 0.73408961
0.39678583 -0.11960448 0.73321867
0.40006569 -0.1168462 0.73197222
0.40419552 -0.11551832 0.73264289
0.35493949 -0.14637277 0.75663328
0.35764292 -0.14308086 0.75603789
0.36390996 -0.1366528 0.75020957
0.36652565 -0.13472554 0.74909991
0.39131603 -0.12055967 0.73684365
0.39571738 -0.11507136 0.73645395
0.39887908 -0.11433391 0.73522478
0.35775065 -0.14113477 0.75678408
0.36005738 -0.13817036 0.75561291
0.36255607 -0.13439322 0.75216573
0.3654106 -0.13209713 0.75103652
0.3897216 -0.11350118 0.74101293
0.39298478 -0.11262972 0.7398535
0.39760703 -0.11223479 0.73967773
0.35989556 -0.13361582 0.75820601
0.36155859 -0.1306403 0.75565958
0.36461419 -0.12800398 0.75335979
0.37460372 -0.11982351 0.74946976
0.38085097 -0.11522046 0.7468195
0.38326931 -0.11278861 0.74606931
0.38752165 -0.1112496 0.74417245
0.39202541 -0.10929 0.74346465
0.39465547 -0.10680955 0.74415404
0.35829052 -0.13008088 0.76085693
0.36035237 -0.12731829 0.75836599
0.36328423 -0.12408371 0.75635302
0.36619192 -0.12069143 0.75529951
0.37048128 -0.11717769 0.75362968
0.37425724 -0.11579245 0.75143522
0.37806144 -0.1135407 0.75011277
0.38282838 -0.11101476 0.74867803
0.38708529 -0.10812578 0.74762243
0.39136776 -0.10609081 0.74600637
0.35722747 -0.12748694 0.76295942
0.35949406 -0.12440877 0.76230359
0.36260304 -0.12104865 0.7607457
0.36593601 -0.11804243 0.75836194
0.36946487 -0.11525502 0.75650686
0.37349132 -0.11252474 0.75522351
0.37748075 -0.11013269 0.75397706
0.38116291 -0.10918432 0.75308806
0.38632816 -0.10674521 0.75031698
0.35933301 -0.12113556 0.76410252
0.36220425 -0.1185533 0.76308244
0.36556339 -0.11468246 0.76206195
0.36906251 -0.112082 0.76024944
0.37263116 -0.10997816 0.75870955
0.37673277 -0.10783102 0.75659829
0.36494541 -0.11150029 0.76405483
0.44426417 -0.14113086 0.69566673
0.44772938 -0.1408011 0.69436401
0.45173958 -0.13894257 0.69535297
0.44198868 -0.13887119 0.6985935
0.44619858 -0.13728774 0.69688147
0.45061079 -0.13602501 0.6970942
0.43666413 -0.13783067 0.70266658
0.44021365 -0.13615572 0.70130873
0.44584897 -0.1341463 0.70113742
0.44908136 -0.13318318 0.70030183
0.43199375 -0.13507187 0.70727813
0.43490589 -0.13467619 0.70530027
0.43891624 -0.13265178 0.70451665
0.4441039 -0.13077375 0.70495164
0.42995667 -0.13342282 0.70947868
0.43357772 -0.13161111 0.70859993
0.43789428 -0.12960225 0.70835346
0.4424071 -0.12811223 0.70748013
0.34237882 -0.19343808 0.74985927
0.34415385 -0.19230253 0.74804854
0.34624633 -0.18901837 0.74757212
0.42432192 -0.13288823 0.71385723
0.42815229 -0.13050359 0.71253878
0.43346861 -0.12838644 0.71287775
0.43713424 -0.12763155 0.71189725
0.34143272 -0.19081756 0.75341815
0.34359801 -0.18887666 0.75220877
0.34655935 -0.18524089 0.74965078
0.34864885 -0.18258142 0.74853259
0.42270014 -0.12878743 0.71726906
0.42691797 -0.12709916 0.71641964
0.43196931 -0.12601709 0.71638775
0.34112629 -0.18937138 0.75644505
0.34338921 -0.18583399 0.75597548
0.34591797 -0.18183798 0.75363111
0.3476294 -0.1789526 0.7508232
0.42109552 -0.12531403 0.71988511
0.425616 -0.12460453 0.72117603
0.34350657 -0.18201756 0.75781095
0.34469271 -0.17840931 0.7569167
0.34668049 -0.17503843 0.75342155
0.34954238 -0.17172307 0.75248069
0.41894951 -0.12197749 0.72269058
0.42386112 -0.1196048 0.72366041
0.34432271 -0.1748662 0.76024348
0.34585673 -0.17204168 0.75754064
0.34916928 -0.1688756 0.75494802
0.35165289 -0.16650486 0.75445199
0.41402218 -0.12028856 0.72679138
0.41754255 -0.11782543 0.7254445
0.42253581 -0.11582657 0.72547412
0.34611127 -0.16858461 0.76109833
0.34834433 -0.16542965 0.75825459
0.35071099 -0.16239884 0.75688791
0.41181627 -0.11673888 0.72992259
0.4156622 -0.11411736 0.72863847
0.42088738 -0.11207082 0.72800833
0.42410859 -0.11089215 0.72728348
0.34574148 -0.16442087 0.76362938
0.3474687 -0.16213337 0.76259804
0.35014617 -0.15816125 0.75980175
0.35271123 -0.15389743 0.7580362
0.40738037 -0.11495177 0.73394918
0.41048053 -0.11320812 0.73306084
0.41437453 -0.1108556 0.73202103
0.41962802 -0.10857066 0.7313509
0.34676644 -0.15830645 0.76513994
0.34912103 -0.15470484 0.76287478
0.35214797 -0.15149847 0.76016158
0.3551074 -0.14945951 0.75913787
0.4008964 -0.11378481 0.73922181
0.40501601 -0.11208273 0.73690844
0.40916187 -0.10931044 0.73594856
0.41380879 -0.10740974 0.73558432
0.41826898 -0.10594661 0.73487771
0.34524053 -0.15278995 0.7689327
0.34840459 -0.15111831 0.76676357
0.35078388 -0.14801571 0.76337343
0.35410145 -0.14491689 0.76082188
0.35700184 -0.14192685 0.75962496
0.35913968 -0.13895166 0.75931197
0.3972303 -0.11158603 0.74285573
0.39987811 -0.11102935 0.74126029
0.40377709 -0.10863348 0.74026883
0.40882781 -0.10610463 0.74024564
0.41287673 -0.10432848 0.73916423
0.41587868 -0.10369288 0.73771417
0.34412229 -0.14938387 0.77120155
0.34690228 -0.14747408 0.76967186
0.34932849 -0.1444087 0.76641357
0.35254341 -0.14094007 0.76455909
0.35614246 -0.13813448 0.76274198
0.3587347 -0.13592786 0.76089317
0.39635763 -0.10952901 0.74437135
0.39809531 -0.10699109 0.74449569
0.402742 -0.10529625 0.74502563
0.40720853 -0.10388116 0.74402261
0.3461087 -0.14360029 0.77219152
0.34835878 -0.14092866 0.77035445
0.35118869 -0.13727418 0.76719463
0.35458213 -0.13445646 0.76545197
0.35697386 -0.13231418 0.76372361
0.39269614 -0.10561254 0.74873072
0.39661583 -0.10335507 0.74738359
0.40163311 -0.10153805 0.74781203
0.40442628 -0.098697864 0.74827152
0.34491745 -0.13937801 0.7748605
0.34640712 -0.13693416 0.77243698
0.34943789 -0.13358676 0.77004874
0.35283527 -0.13060293 0.76771772
0.35623422 -0.12779251 0.76618695
0.35864341 -0.1248173 0.76567388
0.38051108 -0.10800495 0.75669384
0.38361961 -0.10765203 0.75469905
0.38712364 -0.10519845 0.75357467
0.39184162 -0.10271 0.75272447
0.39664394 -0.1006877 0.75217706
0.40119109 -0.098614879 0.7506904
0.34013394 -0.13800254 0.77896857
0.34232256 -0.13608995 0.77816737
0.34524268 -0.13379732 0.77659458
0.34784174 -0.12986821 0.7726931
0.35125938 -0.12691763 0.77036935
0.35489705 -0.12417766 0.76870561
0.3588942 -0.12105981 0.76734549
0.36219534 -0.11775022 0.76605487
0.37453511 -0.10935809 0.76052296
0.37831184 -0.10646746 0.7591306
0.38258621 -0.10435926 0.7583822
0.38646075 -0.10235044 0.75733417
0.39113417 -0.10037155 0.75698024
0.39429978 -0.098792486 0.75569272
0.34220251 -0.13297838 0.77957582
0.34508115 -0.12965739 0.77886367
0.34763119 -0.12656236 0.7774229
0.35064504 -0.12330773 0.77448273
0.35397729 -0.12054231 0.77183414
0.35791421 -0.11767881 0.77055192
0.36134851 -0.11475303 0.76838779
0.364755 -0.1116988 0.76673609
0.36891079 -0.10888415 0.76541495
0.37262383 -0.10671601 0.7637521
0.37688425 -0.10374122 0.76256943
0.38178453 -0.10110774 0.76237321
0.3848322 -0.098710485 0.76182842
0.35061592 -0.12092929 0.77848834
0.35535851 -0.11743491 0.77647638
0.35787979 -0.11450098 0.77537125
0.36064574 -0.11139671 0.77291101
0.36436933 -0.10889111 0.77119446
0.36887845 -0.10619121 0.77073771
0.37261254 -0.10377982 0.76939225
0.37707955 -0.098980568 0.76830095
0.35811391 -0.11155469 0.77694076
0.36070421 -0.1096461 0.77584183
0.36550394 -0.10610963 0.77380568
0.36969414 -0.10302221 0.77202803
0.37129405 -0.10184338 0.77134931
0.37556046 -0.098699845 0.76953936
0.45527408 -0.13896051 0.69710064
0.45930076 -0.13675413 0.69782001
0.46182922 -0.13582003 0.69679081
0.45408747 -0.13532963 0.69932789
0.4580985 -0.13456893 0.7000705
0.45218274 -0.1320889 0.7024523
0.45593169 -0.13019708 0.70286542
0.44601166 -0.13076416 0.70665246
0.45035741 -0.12880114 0.70537704
0.45458728 -0.12664416 0.70470679
0.44085184 -0.12826598 0.71151412
0.44443646 -0.12693998 0.70958126
0.44871244 -0.12606582 0.70849347
0.45319957 -0.12537849 0.7075789
0.43587443 -0.1264334 0.71595895
0.43891269 -0.12637371 0.71418315
0.44319582 -0.12544093 0.7132827
0.43390301 -0.12475892 0.71868449
0.43817928 -0.12409986 0.71806353
0.34115842 -0.18754134 0.75982296
0.34250298 -0.18543065 0.75972766
0.42862996 -0.12397131 0.72234142
0.43243685 -0.12218175 0.72218245
0.34053147 -0.18408337 0.76175201
0.34247473 -0.18247649 0.76100177
0.34434533 -0.1798732 0.76072788
0.42722857 -0.12090378 0.72467518
0.43091914 -0.11849283 0.72505707
0.33923021 -0.18061969 0.76516449
0.34124321 -0.1789408 0.76395589
0.34334987 -0.17620668 0.76301682
0.42885295 -0.11445036 0.72687244
0.43332219 -0.11482439 0.72670221
0.3383216 -0.17793515 0.76861352
0.3406007 -0.17526254 0.76741183
0.34345883 -0.17207813 0.76534426
0.34563017 -0.1688765 0.76444632
0.4271619 -0.11035515 0.73004317
0.43105975 -0.10949139 0.73063165
0.34132674 -0.17140782 0.77048111
0.34268767 -0.16881558 0.76952791
0.34490231 -0.16554484 0.7667712
0.42502567 -0.10695142 0.73309237
0.34150839 -0.16520551 0.77232212
0.34377733 -0.16186315 0.76955241
0.3458147 -0.15901053 0.7684958
0.41995969 -0.10409958 0.73715991
0.42417035 -0.10449689 0.73632646
0.34112939 -0.16210318 0.7745738
0.34266993 -0.15851289 0.77299297
0.34563923 -0.15584484 0.76996815
0.41524053 -0.10312092 0.74138033
0.41895506 -0.10231756 0.74062502
0.42226848 -0.10196889 0.74030042
0.34185302 -0.15440097 0.77520782
0.34341258 -0.15213826 0.7731812
0.40894249 -0.1027272 0.74585974
0.41348252 -0.10112833 0.74470741
0.41824451 -0.10073381 0.74378932
0.34051538 -0.15075561 0.77984023
0.34270951 -0.14765897 0.77600336
0.34505805 -0.14482805 0.77507001
0.40747592 -0.099894129 0.74825144
0.4112078 -0.09859436 0.74830651
0.33906177 -0.1477398 0.78087801
0.3410852 -0.14431566 0.77917725
0.34394088 -0.1412046 0.77743047
0.39920172 -0.099154301 0.75455254
0.401335 -0.097582571 0.75364763
0.40581015 -0.096383728 0.75145549
0.40943632 -0.096350126 0.74951375
0.34036383 -0.14089099 0.78052711
0.34283441 -0.13760647 0.77977204
0.34527141 -0.13609084 0.77861941
0.38946846 -0.10072591 0.76105744
0.39251474 -0.098831363 0.75961661
0.39662266 -0.098049335 0.75744665
0.40192422 -0.096676357 0.75578547
0.40529996 -0.094971515 0.75577158
0.34178075 -0.1344628 0.78188205
0.34430185 -0.13050523 0.78170341
0.38834921 -0.099126898 0.7630527
0.39145955 -0.096816711 0.76212382
0.39489883 -0.094764613 0.76202303
0.34499675 -0.12719321 0.78259647
0.34750259 -0.12324687 0.78242427
0.35084623 -0.12031662 0.78120387
0.3543382 -0.11768531 0.77974713
0.35818848 -0.11397339 0.77848488
0.37525064 -0.10245178 0.77080113
0.37769708 -0.1013993 0.76944518
0.38152832 -0.098318793 0.76825708
0.38643923 -0.095683865 0.76711613
0.39041072 -0.094621949 0.76557779
0.39359972 -0.093792371 0.7648927
0.34766647 -0.11989292 0.78372651
0.35002556 -0.11709901 0.78317344
0.35352042 -0.11428433 0.78179258
0.35697645 -0.1114464 0.78044999
0.36057743 -0.10811324 0.77921087
0.36508223 -0.10547265 0.77701187
0.3685815 -0.10270666 0.77560705
0.37252995 -0.099692188 0.77397656
0.37616059 -0.097318821 0.77230823
0.38036928 -0.095791928 0.77169275
0.38447443 -0.094379179 0.7700547
0.35266891 -0.11113834 0.78530568
0.35609505 -0.10795837 0.78377235
0.35956526 -0.10495172 0.78201365
0.36383471 -0.10238921 0.78085458
0.36810243 -0.099442355 0.77996999
0.37189618 -0.097140305 0.77740121
0.3757557 -0.095257662 0.77566862
0.35281202 -0.10737162 0.78655958
0.35594973 -0.10490607 0.78765649
0.35955927 -0.10259493 0.78580225
0.3625668 -0.10125782 0.78459102
0.4638015 -0.13564044 0.69803894
0.46008459 -0.13347912 0.70169449
0.46397385 -0.13348642 0.70116973
0.46851227 -0.13077998 0.70056772
0.45879984 -0.13127574 0.70357585
0.46192655 -0.12918314 0.70466566
0.46537712 -0.12668997 0.70461285
0.45669094 -0.12547961 0.70758861
0.46111208 -0.12538144 0.70699799
0.46532598 -0.12299431 0.70621836
0.45149815 -0.12508467 0.71201986
0.45505103 -0.12390839 0.71090734
0.45922908 -0.12302364 0.7103231
0.46578121 -0.11939224 0.70741105
0.44537047 -0.12437066 0.71640015
0.44976947 -0.12300044 0.71538091
0.45376882 -0.12068311 0.71571428
0.44108465 -0.12325146 0.72059542
0.44468042 -0.12258268 0.72029221
0.44911754 -0.12069539 0.71884453
0.45351997 -0.11712646 0.71740651
0.45489365 -0.11541434 0.71712071
0.43888238 -0.12087885 0.72364658
0.44316107 -0.11943906 0.72405797
0.437525 -0.1172973 0.7268222
0.44227225 -0.11701392 0.72574168
0.43574747 -0.11318999 0.72995025
0.33856621 -0.17751536 0.77254915
0.33985907 -0.17726278 0.77170372
0.43443862 -0.10993167 0.73294306
0.33866274 -0.17501441 0.77485156
0.34024212 -0.17260686 0.77354252
0.42931512 -0.10715046 0.73553526
0.43162897 -0.10668918 0.73608887
0.33726224 -0.17061296 0.77775073
0.33924243 -0.16891539 0.77642852
0.34163678 -0.16825294 0.77421612
0.42707875 -0.10355306 0.73923445
0.43073282 -0.10350405 0.73953795
0.33616221 -0.16740382 0.7818917
0.33805177 -0.16557565 0.7802906
0.34050936 -0.16232225 0.77814621
0.42245501 -0.10170507 0.74290001
0.4260138 -0.10101265 0.74341559
0.33740616 -0.16188058 0.78397447
0.34009892 -0.15875241 0.7804535
0.34213322 -0.15598714 0.77905387
0.41664532 -0.10038573 0.74774039
0.4202688 -0.099329002 0.74670011
0.42388621 -0.098217674 0.74660659
0.33688581 -0.15834397 0.78585815
0.33882776 -0.15496993 0.78333443
0.34098047 -0.15326983 0.78105605
0.41498509 -0.097961627 0.7509765
0.41904047 -0.096847244 0.75060689
0.4225935 -0.095613502 0.74932003
0.33816257 -0.1514312 0.78456861
0.33915976 -0.14897805 0.78421825
0.40766007 -0.095706157 0.75634605
0.41292241 -0.095490329 0.75439787
0.41674337 -0.095023923 0.75388056
0.39936969 -0.097614609 0.76164484
0.40321538 -0.096138947 0.76031244
0.40777889 -0.094169237 0.75871533
0.41131631 -0.09389817 0.75748187
0.3983669 -0.095335461 0.76372576
0.4020308 -0.093942799 0.76334202
0.40600124 -0.093038864 0.76263762
0.39300123 -0.093281694 0.76870048
0.39668036 -0.092004783 0.76790214
0.40078101 -0.091398336 0.76586729
0.38334307 -0.094723217 0.77468008
0.38660702 -0.093006738 0.77365971
0.39166299 -0.092086606 0.77229357
0.39590093 -0.090680905 0.77108002
0.37827519 -0.094504647 0.77876937
0.38218513 -0.092747383 0.77801216
0.38632905 -0.090540133 0.77753603
0.38983998 -0.090379991 0.77567345
0.35541758 -0.10479907 0.79098141
0.36069664 -0.10129675 0.78884006
0.36465183 -0.099488579 0.78708673
0.36864039 -0.097084604 0.78552109
0.37255135 -0.094567381 0.78380835
0.3765488 -0.092220925 0.7825855
0.38139555 -0.090973936 0.78111845
0.38462549 -0.08908879 0.78006327
0.35744265 -0.10244379 0.79180115
0.36011443 -0.099592887 0.7919966
0.36415362 -0.096557431 0.79078543
0.36810759 -0.09418463 0.78954697
0.37205067 -0.091701441 0.78792852
0.37588266 -0.089930631 0.78614801
0.36061007 -0.096516944 0.79460692
0.36324611 -0.093930267 0.79376197
0.36644948 -0.092681102 0.79193163
0.46637937 -0.13158831 0.70310891
0.469744 -0.13112083 0.70243233
0.47508171 -0.12788671 0.70220494
0.47668162 -0.12670788 0.70152622
0.46517682 -0.13036558 0.70538872
0.46902093 -0.12784722 0.7061041
0.46940941 -0.12359115 0.70820671
0.47005585 -0.12098984 0.70883393
0.45687705 -0.12238973 0.71401268
0.46160731 -0.12199131 0.71200907
0.46387458 -0.12073386 0.70955926
0.45731404 -0.12116177 0.71667272
0.46003357 -0.11976824 0.71651798
0.44636115 -0.12093797 0.72237682
0.44896626 -0.1191585 0.72121227
0.45238367 -0.11863384 0.71891683
0.44632626 -0.11848297 0.72650677
0.44964954 -0.11708432 0.72465146
0.4530082 -0.11499429 0.72322237
0.44336072 -0.11599907 0.72949553
0.44227594 -0.11336752 0.73234874
0.43732235 -0.10902242 0.7349667
0.43954244 -0.10936331 0.73592085
0.43552837 -0.10630662 0.73787832
0.43805578 -0.1056679 0.73891205
0.43372491 -0.10253384 0.74095339
0.43662074 -0.10162524 0.74168444
0.43149206 -0.099690638 0.74431527
0.43508229 -0.098658793 0.74407643
0.33526635 -0.16479403 0.78562766
0.33588046 -0.16294155 0.78596109
0.42656434 -0.097267471 0.74853653
0.43014333 -0.096963204 0.7479099
0.42061147 -0.094577365 0.75253254
0.42520526 -0.094231747 0.75148201
0.42823711 -0.093856864 0.75071979
0.41519231 -0.093903579 0.75681126
0.41919276 -0.093286537 0.75651193
0.42421445 -0.092147075 0.75455487
0.42755154 -0.09080755 0.75295597
0.40969694 -0.093285926 0.76112235
0.41403934 -0.092897825 0.76027513
0.41774902 -0.091980167 0.75968111
0.40338358 -0.092704408 0.76602083
0.40877011 -0.091453813 0.76531696
0.41219428 -0.090183847 0.76416093
0.3998929 -0.091076367 0.76928347
0.40306443 -0.090886898 0.76916003
0.40730262 -0.088953562 0.76853091
0.39320707 -0.090402581 0.77449548
0.39784858 -0.089212202 0.77360898
0.40236464 -0.088905565 0.77232087
0.38763168 -0.088810585 0.77927887
0.39146969 -0.088411115 0.77793288
0.39642385 -0.086659111 0.77693516
0.38217038 -0.089694701 0.78405285
0.38690224 -0.087395407 0.78317326
0.390919 -0.085544191 0.78165519
0.3944571 -0.084691934 0.77993476
0.37265548 -0.090045236 0.7897898
0.37726775 -0.088465504 0.78851998
0.3817715 -0.08778926 0.78738445
0.38563803 -0.085589923 0.78605181
0.36387414 -0.092682146 0.79514134
0.36814055 -0.090876587 0.79451394
0.37209478 -0.088759266 0.79337358
0.37698093 -0.086879067 0.79166484
0.3802081 -0.085990779 0.7898826
0.36383095 -0.09103886 0.79770803
0.36777675 -0.088649057 0.79742229
0.3711628 -0.086355455 0.79639256
0.47419462 -0.13177189 0.7047106
0.47528252 -0.12934574 0.70406324
0.47814831 -0.12840083 0.70235252
0.4722982 -0.12781128 0.70691305
0.47514385 -0.12623963 0.70796233
0.47709399 -0.12415131 0.70755726
0.47414774 -0.12419055 0.7103678
0.47694433 -0.12279845 0.70955414
0.46308604 -0.12063234 0.71674645
0.44745758 -0.11622598 0.73144341
0.450847 -0.1157904 0.7304433
0.45298022 -0.11421863 0.72953832
0.44499806 -0.11275057 0.7349925
0.44312677 -0.1097604 0.73803359
0.44152287 -0.10597967 0.74081928
0.44005951 -0.10227668 0.74333715
0.4378044 -0.09845107 0.74609667
0.43262669 -0.095741846 0.74974859
0.43567848 -0.095454521 0.74980944
0.43133774 -0.093039371 0.7531572
0.43450305 -0.092390858 0.75328785
0.42453137 -0.090606473 0.75789171
0.43000945 -0.09002573 0.75710201
0.43276855 -0.08914768 0.75637913
0.41642687 -0.091577984 0.7634511
0.41976658 -0.090342037 0.7618897
0.4244388 -0.088712759 0.76160717
0.4286361 -0.08789254 0.75995648
0.41548178 -0.089189477 0.76614517
0.41895798 -0.087863214 0.76534963
0.42268154 -0.086054958 0.76512349
0.40888453 -0.087235264 0.77085072
0.41315651 -0.086278133 0.76942152
0.41775408 -0.084935702 0.76893717
0.4207544 -0.084399872 0.76724553
0.40348133 -0.087086342 0.77489483
0.40772659 -0.085646324 0.77325296
0.41098335 -0.084242456 0.77319902
0.39867571 -0.084857248 0.77938151
0.40247056 -0.084730364 0.77878702
0.40721449 -0.083621524 0.77702707
0.39249083 -0.083714329 0.78442347
0.3962754 -0.083154283 0.78252888
0.40051261 -0.082426988 0.78273445
0.38355866 -0.085995682 0.79003698
0.38704631 -0.084159248 0.78824633
0.39075851 -0.082118101 0.78663957
0.39533928 -0.080731936 0.78595275
0.39916161 -0.080409698 0.78484809
0.37729532 -0.085610606 0.7948153
0.38152128 -0.084349491 0.79252821
0.38571563 -0.082090057 0.79130775
0.39052722 -0.079502158 0.79054493
0.39404336 -0.078480892 0.78943753
0.36794063 -0.087603234 0.80086255
0.3732734 -0.084996603 0.79935187
0.37671253 -0.083723508 0.79768592
0.38165653 -0.081765048 0.79644185
0.38503501 -0.080818377 0.7950834
0.36860842 -0.085516445 0.80322468
0.3719739 -0.083788581 0.80307198
0.48180464 -0.12919089 0.70588619
0.47873414 -0.12855327 0.70841908
0.4795745 -0.12723407 0.70835954
0.4760305 -0.12336116 0.71436405
0.47594485 -0.12198205 0.71588713
0.45311183 -0.11538126 0.73463619
0.44910362 -0.11407746 0.73967379
0.4502466 -0.11285371 0.7400071
0.44681624 -0.1102142 0.7403729
0.44923487 -0.10900905 0.74139917
0.44498724 -0.10628506 0.74273109
0.44788536 -0.10519411 0.7436837
0.44336584 -0.10246307 0.74554718
0.44597456 -0.10232066 0.74652934
0.44205707 -0.098868571 0.74891144
0.44360578 -0.098297633 0.74932522
0.44004115 -0.095511995 0.75225824
0.43830657 -0.091836311 0.75565851
0.43186423 -0.088787593 0.75982332
0.43547097 -0.089258187 0.7591539
0.43113437 -0.086552911 0.7622934
0.42569879 -0.085050367 0.76595151
0.42936715 -0.08380387 0.7657901
0.42049649 -0.083363496 0.7705003
0.42363235 -0.082388528 0.76947838
0.4271653 -0.081145577 0.76994026
0.41413 -0.083083116 0.77531034
0.4183647 -0.08125519 0.77419043
0.42252019 -0.079890542 0.77367043
0.40549719 -0.083915167 0.78131789
0.40858126 -0.082157515 0.78031623
0.41281703 -0.081018396 0.77930135
0.41717154 -0.078496478 0.77836949
0.40378669 -0.081490494 0.78459114
0.40750045 -0.079533122 0.78362608
0.41193211 -0.077802263 0.7823202
0.41504535 -0.076157115 0.78151166
0.39792255 -0.079496242 0.78877366
0.4017016 -0.078731321 0.78798419
0.40580201 -0.077213623 0.78761154
0.39169958 -0.078381412 0.79383177
0.39667404 -0.077080809 0.7917496
0.40112332 -0.076202773 0.79131281
0.3832626 -0.08029788 0.79923522
0.38734338 -0.079404019 0.79864955
0.3907381 -0.078254275 0.79689115
0.39529392 -0.074925102 0.79593116
0.37364754 -0.082242377 0.80549479
0.37820157 -0.080960728 0.80465192
0.38222638 -0.079192869 0.80321193
0.38498122 -0.077596478 0.80261523
0.37304935 -0.081187867 0.80919582
0.37749192 -0.078691863 0.80744994
0.38181311 -0.07670965 0.80576324
0.48639792 -0.1298075 0.71208447
0.48982081 -0.12727904 0.71129161
0.48468903 -0.12693912 0.71288335
0.48766416 -0.12563124 0.7122671
0.48099175 -0.1246177 0.71892595
0.48288214 -0.12287367 0.71630388
0.48056081 -0.12250187 0.72014105
0.48223689 -0.12126691 0.71942997
0.45360571 -0.11663128 0.73899227
0.45346794 -0.11482566 0.741391
0.45268729 -0.1102448 0.74369091
0.45266005 -0.10580688 0.74679679
0.45513114 -0.10663875 0.74560755
0.44971421 -0.10177811 0.7493639
0.44767857 -0.098793112 0.75311458
0.44520953 -0.09561608 0.75590646
0.44357422 -0.092115842 0.75847906
0.43958876 -0.089916952 0.76152813
0.44230905 -0.090086244 0.76207715
0.430563 -0.080161341 0.77166086
0.4249489 -0.079137065 0.77688813
0.42856494 -0.079344593 0.77610457
0.4191733 -0.077268191 0.78106159
0.42294854 -0.077960037 0.7806114
0.41751394 -0.075715236 0.78381795
0.42059562 -0.074611329 0.78201568
0.40822801 -0.07583154 0.78986067
0.41260865 -0.075323753 0.78818178
0.40281191 -0.074923463 0.79411161
0.40659797 -0.074652694 0.7938118
0.41153374 -0.073761873 0.79167813
0.39005646 -0.077876188 0.80181974
0.39380902 -0.076553933 0.80034506
0.39774546 -0.074287139 0.79920828
0.40184355 -0.07341636 0.79750621
0.38822359 -0.076620869 0.80428618
0.39260745 -0.074642204 0.80472463
0.39725184 -0.072860502 0.80170864
0.40057459 -0.071736716 0.80061209
0.3749125 -0.079501115 0.81228864
0.37832695 -0.077837013 0.81113505
0.38341078 -0.075650178 0.80991077
0.38698557 -0.074977718 0.80741215
0.39100522 -0.072987549 0.8071323
0.37577808 -0.078224711 0.81437999
0.37835094 -0.076481141 0.81300509
0.38134927 -0.07580217 0.81305283
0.45719096 -0.11434426 0.74419618
0.46000871 -0.11407899 0.74542028
0.45638987 -0.11111505 0.74737501
0.4578917 -0.1090888 0.74909711
0.45448542 -0.10688815 0.74860269
0.45695442 -0.10687941 0.75072503
0.45120242 -0.099903129 0.75562567
0.44981614 -0.096888982 0.76022285
0.44624826 -0.09265738 0.76070911
0.44191158 -0.089901812 0.76682353
0.44561908 -0.090531431 0.76601237
0.44017151 -0.088158481 0.76972032
0.43777892 -0.085080437 0.7726016
0.4368183 -0.080793016 0.77483833
0.42798927 -0.078610845 0.78012156
0.43100506 -0.078158863 0.77940375
0.43559161 -0.077596776 0.77806765
0.42711908 -0.077918284 0.78341913
0.42994115 -0.077383123 0.78314197
0.42117909 -0.075465463 0.78778625
0.42296275 -0.075869687 0.78695697
0.40865669 -0.074055336 0.79629862
0.41131854 -0.073494039 0.79457545
0.40464827 -0.072033249 0.80098486
0.40740052 -0.072662987 0.7986024
0.39548814 -0.073658086 0.80616987
0.39835742 -0.072246484 0.80563891
0.40261635 -0.070120148 0.80399382
0.40709862 -0.070447065 0.80291516
0.38928863 -0.073289804 0.81164408
0.39355171 -0.071620189 0.80921125
0.39817017 -0.069872968 0.80875272
0.40202501 -0.068152063 0.80762708
0.38042068 -0.075563453 0.81777596
0.38461748 -0.074446641 0.81665772
0.38865051 -0.072277687 0.81529379
0.39348757 -0.070342548 0.81298828
0.39750931 -0.067879312 0.81107002
0.38072765 -0.074444227 0.82064986
0.462879 -0.11519473 0.74808246
0.46141133 -0.1113153 0.75022626
0.46087092 -0.10705731 0.7535975
0.45775405 -0.10408574 0.75591499
0.45301196 -0.099357866 0.75944585
0.45635191 -0.10060566 0.75973701
0.45300964 -0.097666569 0.76279032
0.45493445 -0.097176827 0.76289237
0.45967126 -0.091861688 0.76165712
0.45229742 -0.095144831 0.76569742
0.45881823 -0.090715222 0.76277202
0.44833338 -0.090769984 0.77003664
0.44305584 -0.088206075 0.77195024
0.44662872 -0.087065242 0.77228093
0.44190699 -0.084614716 0.7747578
0.44520637 -0.08352188 0.77491546
0.44048077 -0.080191009 0.77681017
0.44307354 -0.079852544 0.77701229
0.43805674 -0.076127075 0.78032029
0.44108531 -0.075798117 0.77921265
0.43293962 -0.07644286 0.78583181
0.43639949 -0.075380884 0.78429568
0.4274058 -0.075901054 0.78979534
0.43073839 -0.074644618 0.7896229
0.41811922 -0.075567268 0.79524797
0.42211363 -0.075540744 0.79494143
0.42657658 -0.073309503 0.79259962
0.42903069 -0.071001269 0.79177064
0.41236493 -0.0739071 0.80019212
0.41733688 -0.074464716 0.80001122
0.41151693 -0.071968816 0.80295193
0.41503829 -0.072847821 0.80260956
0.40937176 -0.068863042 0.80598122
0.41342226 -0.067938529 0.80588293
0.40353942 -0.066964604 0.81016517
0.40806928 -0.066336282 0.81014889
0.39071444 -0.070959456 0.81739497
0.39456913 -0.06910608 0.81665361
0.39829943 -0.067114688 0.81460422
0.40232924 -0.064658813 0.81355184
0.40460357 -0.063020535 0.81271696
0.38180527 -0.072981812 0.82397652
0.38540605 -0.071512483 0.82228327
0.38949087 -0.069238789 0.82124788
0.3934271 -0.066819556 0.82043409
0.39848819 -0.064892106 0.81817889
0.40193447 -0.062702857 0.81656837
0.40383181 -0.060868047 0.81463617
0.38413471 -0.070717938 0.82628322
0.38843012 -0.066145636 0.82479548
0.39186841 -0.063782893 0.82221448
0.47529581 -0.12296324 0.74220073
0.478789 -0.12135608 0.7403087
0.48177007 -0.11865959 0.73925614
0.47385439 -0.12084871 0.74514431
0.47701406 -0.11881604 0.74351448
0.46594504 -0.12048634 0.75014126
0.46762472 -0.11922238 0.74894768
0.47207543 -0.11773118 0.74810576
0.47640589 -0.11491544 0.74610955
0.48090085 -0.11160349 0.74420261
0.48290592 -0.10937613 0.74367017
0.46695822 -0.11561816 0.7502932
0.47012928 -0.1144063 0.7507627
0.47436389 -0.11352 0.74820608
0.48296601 -0.10268187 0.7464658
0.46519351 -0.11099143 0.7520979
0.4687666 -0.10975998 0.75290447
0.47140077 -0.10830326 0.75260246
0.48251352 -0.10161527 0.74725169
0.46374735 -0.10669864 0.75498456
0.46630308 -0.10536736 0.75432271
0.47026244 -0.10339933 0.75479239
0.46175048 -0.10346553 0.75826502
0.46523267 -0.10176962 0.75831461
0.46966752 -0.099194385 0.75671268
0.47306609 -0.096170075 0.75630391
0.45979759 -0.099816911 0.76133931
0.4632068 -0.09766712 0.76052701
0.46728358 -0.095236234 0.75911707
0.47190577 -0.092795573 0.75793421
0.47401199 -0.090179287 0.75836724
0.45780393 -0.095723666 0.76401973
0.46132261 -0.09406855 0.76212925
0.46543214 -0.090886869 0.76082617
0.46985647 -0.088660888 0.76010436
0.47414026 -0.086010061 0.75951642
0.45244354 -0.093960755 0.76871717
0.45574722 -0.093026571 0.76667929
0.45958561 -0.08929839 0.76543272
0.46365452 -0.087298281 0.76350224
0.46833587 -0.084805332 0.76322496
0.47241676 -0.082276694 0.76205993
0.45146769 -0.091160618 0.77128029
0.45512721 -0.089745782 0.77074933
0.45916018 -0.087285526 0.76922536
0.46254909 -0.083895557 0.76746643
0.4686349 -0.081804417 0.76456952
0.47198707 -0.07933449 0.76314741
0.45064551 -0.08707241 0.77427691
0.45400879 -0.085696869 0.77393353
0.45848677 -0.084361382 0.77227479
0.46133527 -0.081119649 0.77155101
0.44899181 -0.083174221 0.77714914
0.45219865 -0.081878446 0.77677965
0.44733265 -0.079263352 0.78003073
0.45085758 -0.078022681 0.77938181
0.45413318 -0.075966753 0.7779935
0.44590515 -0.075898461 0.78251004
0.44906771 -0.074309267 0.78216654
0.45184416 -0.073576041 0.78043187
0.43831244 -0.074322723 0.78746021
0.43413621 -0.073688947 0.79118127
0.43778685 -0.071894996 0.79091913
0.42372486 -0.074587725 0.79809612
0.42821977 -0.073282816 0.79796302
0.4332144 -0.071358584 0.79352427
0.43611303 -0.069966935 0.79355383
0.41925225 -0.074416511 0.80146426
0.4228144 -0.0727477 0.80126405
0.42767408 -0.071821637 0.8002975
0.41754755 -0.071211077 0.80466348
0.42185208 -0.069627188 0.80449736
0.41606149 -0.067652546 0.80734092
0.42025366 -0.06623318 0.8074795
0.41093886 -0.065191917 0.81150299
0.41458493 -0.063977353 0.81130069
0.41890934 -0.064479582 0.80987018
0.40842667 -0.062420256 0.8145299
0.41337258 -0.061353914 0.8146925
0.39597416 -0.065668099 0.8223272
0.39861712 -0.063820712 0.82116354
0.40258157 -0.061049677 0.81941807
0.4123711 -0.058053605 0.81675738
0.4153541 -0.056099169 0.81604505
0.38607469 -0.068812154 0.82828742
0.39571562 -0.063958593 0.8232429
0.39797583 -0.062293254 0.82228404
0.40188667 -0.059411682 0.82062495
0.47255871 -0.12329737 0.75063866
0.48009521 -0.11754572 0.74490052
0.48312211 -0.11632904 0.74342513
0.48547679 -0.11499884 0.74267185
0.47207388 -0.12215459 0.7514807
0.4737516 -0.11844476 0.74919313
0.47738773 -0.1154656 0.74777782
0.48130471 -0.11276156 0.74641407
0.4850255 -0.11261167 0.74598622
0.47262084 -0.11365788 0.75205702
0.47577253 -0.11116997 0.7507903
0.47973326 -0.10866856 0.74915195
0.48245761 -0.10655507 0.74782246
0.47482485 -0.10730367 0.75371212
0.47841707 -0.10492886 0.75265628
0.48189133 -0.10190945 0.75099808
0.48448235 -0.099188201 0.74945587
0.47381034 -0.10392147 0.75531113
0.47687867 -0.10149863 0.75495332
0.48129517 -0.098848052 0.75413638
0.48402315 -0.095985912 0.75220263
0.47564831 -0.098047234 0.75644892
0.47955742 -0.094859712 0.75688976
0.48322168 -0.091926552 0.7560907
0.47769883 -0.090699591 0.75900984
0.48247355 -0.088369004 0.75931758
0.4850587 -0.086410813 0.75970209
0.47786123 -0.087116741 0.7594555
0.48050597 -0.084711201 0.76086068
0.48420683 -0.082988478 0.76178163
0.47498471 -0.080336191 0.7644515
0.4790999 -0.080906607 0.76424003
0.48239601 -0.079778574 0.76290256
0.46916327 -0.083164416 0.7696411
0.47354555 -0.079717539 0.76866198
0.47686657 -0.077198468 0.76664621
0.48145497 -0.077916093 0.76596111
0.45812324 -0.083019935 0.77573669
0.46045637 -0.080740847 0.77498448
0.47238937 -0.077522151 0.77018279
0.45720118 -0.080139317 0.77763814
0.45972916 -0.079026662 0.7762475
0.44183254 -0.075263105 0.79103059
0.44466826 -0.074997388 0.79167908
0.44226497 -0.074518166 0.79365319
0.44360176 -0.073033281 0.79329824
0.42699257 -0.071397386 0.80360484
0.42394289 -0.067744441 0.80740154
0.42757675 -0.068854935 0.80687821
0.4227632 -0.064963661 0.80945045
0.427174 -0.064596288 0.80996597
0.43133199 -0.063247316 0.80911529
0.42071763 -0.062828474 0.81332195
0.42530259 -0.060818188 0.81267923
0.41518161 -0.059899859 0.81718493
0.419608 -0.059212111 0.81684041
0.42261064 -0.058219723 0.81504905
0.4189443 -0.056201123 0.81860685
0.48631626 -0.095218278 0.76160192
0.47089204 -0.081835784 0.77339369
0.47260621 -0.080572762 0.77266651
0.47040722 -0.080692999 0.77423573
0.47212139 -0.079429962 0.77350855
0.43354765 -0.072898872 0.80995119
0.43168923 -0.069079719 0.80979037
0.48900887 -0.093907975 0.76279908
0.4365826 -0.073459916 0.81272733
0.4396587 -0.072629102 0.81081325
0.43520862 -0.070985474 0.8134768
0.43826711 -0.069005556 0.81468838
0.43671244 -0.065642782 0.81411046
0.43801734 -0.071013235 0.81664592
0.44068465 -0.06961035 0.81527555
