# .PCD v0.7 - Point Cloud Data file format
VERSION 0.7
FIELDS x y z
SIZE 4 4 4
TYPE F F F
COUNT 1 1 1
WIDTH 1397
HEIGHT 1
VIEWPOINT 0 0 0 1 0 0 0
POINTS 1397
DATA ascii
0.63312501 -0.25062889 0.22465391
0.63745701 -0.2465028 0.22269583
0.63451082 -0.25396401 0.22961031
0.6353808 -0.25024337 0.22778489
0.63516802 -0.24763902 0.22727099
0.63288444 -0.25549123 0.23554017
0.63123161 -0.25694558 0.24011397
0.63836223 -0.25017065 0.22030839
0.64077044 -0.24830337 0.2203996
0.63760138 -0.25108373 0.22362867
0.63861638 -0.24674307 0.2228177
0.64038676 -0.2432182 0.22289522
0.63523191 -0.25504017 0.23014824
0.63653779 -0.2498071 0.23018618
0.63916147 -0.2459249 0.22713852
0.64105487 -0.24257089 0.226116
0.63445973 -0.25368714 0.23465824
0.63693595 -0.25009748 0.23443837
0.63268131 -0.25608209 0.24055079
0.63477713 -0.25362778 0.23981737
0.63701892 -0.2496437 0.23979615
0.637999 -0.24500768 0.23990871
0.63346601 -0.25729349 0.24529423
0.63453031 -0.25286824 0.2444943
0.6363402 -0.24843918 0.2437221
0.63746941 -0.24464418 0.24254155
0.6333856 -0.25602627 0.25021759
0.63459605 -0.25150749 0.24911152
0.63552278 -0.24879859 0.24774258
0.6316821 -0.25546479 0.25531128
0.63042045 -0.25682878 0.25910836
0.63095063 -0.25486779 0.25951716
0.64995235 -0.25109461 0.20979227
0.65133816 -0.24298109 0.21029297
0.65278703 -0.23653959 0.20915262
0.65365732 -0.23270042 0.20844316
0.65518904 -0.22464325 0.20825426
0.65022177 -0.24320628 0.21503457
0.65061986 -0.24209996 0.21418013
0.64682013 -0.24739827 0.22087824
0.64890319 -0.24337076 0.21995084
0.64538193 -0.24224742 0.22337799
0.64843035 -0.23955466 0.22399949
0.64187562 -0.248735 0.23125948
0.64417535 -0.24617206 0.23124675
0.6445573 -0.24185704 0.22835527
0.64709526 -0.23789881 0.22772178
0.6489982 -0.23520395 0.2269558
0.6424771 -0.24897872 0.2353017
0.64497489 -0.24776934 0.23446111
0.64054662 -0.24862416 0.23899974
0.64287055 -0.24647419 0.24020366
0.63877022 -0.24692841 0.24413322
0.63554215 -0.2544688 0.25222662
0.63646549 -0.2508381 0.25203267
0.63882583 -0.24741824 0.25017434
0.63512832 -0.25466725 0.25618902
0.63627714 -0.25076804 0.25506598
0.63872778 -0.24657144 0.25472382
0.63433474 -0.25398234 0.26070762
0.63608229 -0.25001487 0.25979519
0.63866562 -0.24573953 0.25968114
0.6338461 -0.25311685 0.26540703
0.63622302 -0.24944906 0.26526618
0.6380043 -0.24632229 0.26409298
0.63388425 -0.25176355 0.27001932
0.63583696 -0.24889494 0.27017796
0.63513207 -0.24851237 0.27268028
0.63653058 -0.24125443 0.27702385
0.65009916 -0.27064294 0.21159384
0.6496253 -0.26691771 0.21059237
0.64901704 -0.26158214 0.20996509
0.64988732 -0.25774294 0.20925564
0.64938539 -0.26976728 0.21545704
0.64943504 -0.26626438 0.21464613
0.64967006 -0.26139164 0.21355894
0.65086764 -0.2563749 0.21278717
0.65137434 -0.2517662 0.21174644
0.65221721 -0.24702708 0.21124832
0.6529147 -0.24121226 0.2103975
0.65393656 -0.2368442 0.21026762
0.65518469 -0.23282309 0.20987846
0.65552509 -0.22757204 0.20898028
0.64878666 -0.26903296 0.21869631
0.64944965 -0.26522553 0.21887611
0.64992535 -0.26083869 0.21843845
0.65079468 -0.25553262 0.2173963
0.65189546 -0.25104436 0.21658231
0.65273386 -0.24689062 0.21565674
0.65383279 -0.24103375 0.21466477
0.65549397 -0.23665075 0.2141269
0.65598208 -0.23207097 0.21290712
0.65533662 -0.22639717 0.21153565
0.65641195 -0.22189538 0.21071678
0.65783733 -0.21768932 0.21017933
0.66041577 -0.21268082 0.21005088
0.66186571 -0.20803265 0.20980695
0.66250241 -0.20288524 0.20904952
0.64941859 -0.25967294 0.22288315
0.64953971 -0.25477946 0.22124805
0.65057832 -0.25047719 0.22017385
0.6516118 -0.24581604 0.21964426
0.65296447 -0.24019738 0.21917668
0.65481991 -0.23528332 0.21844469
0.65584248 -0.23076206 0.21761963
0.65641439 -0.22606264 0.21662965
0.65750474 -0.22140306 0.21492836
0.65895039 -0.21680252 0.21413963
0.66042042 -0.21234019 0.21359138
0.66149843 -0.20773366 0.21259092
0.66303504 -0.20217676 0.2103418
0.64887089 -0.25926149 0.22629063
0.65144253 -0.23764373 0.22337623
0.65374869 -0.23406364 0.22358994
0.65521598 -0.22963092 0.22245514
0.65626574 -0.22585417 0.22090295
0.64926797 -0.23637497 0.229407
0.65259582 -0.23399541 0.2284853
0.65511465 -0.22631738 0.22560281
0.64790964 -0.24681549 0.2360809
0.6497556 -0.24324153 0.23372345
0.65050429 -0.23691939 0.23331515
0.65175939 -0.2334425 0.23262599
0.64667928 -0.24715368 0.23939449
0.65077537 -0.23595998 0.23688468
0.64264745 -0.24330451 0.26215708
0.63859802 -0.24714528 0.26769724
0.64057076 -0.24391286 0.26516512
0.6423738 -0.24024932 0.26493555
0.63815451 -0.24644177 0.27022725
0.63968092 -0.24337761 0.26982167
0.6417045 -0.23918661 0.26890701
0.64352083 -0.23699699 0.26804298
0.63788509 -0.24626504 0.27462447
0.63870859 -0.24193321 0.27433082
0.64118761 -0.23797224 0.27409291
0.63837981 -0.24057941 0.27937451
0.64026272 -0.236973 0.27909201
0.63867497 -0.23922892 0.28300393
0.64006352 -0.235727 0.28279668
0.64088404 -0.23376249 0.28231198
0.65088326 -0.2807183 0.21371007
0.65080059 -0.27749512 0.21261685
0.65135807 -0.27427214 0.21227406
0.65005213 -0.28045666 0.21759029
0.65028286 -0.27669245 0.21657625
0.65071356 -0.27332205 0.21589182
0.65032619 -0.28074878 0.22270824
0.6506145 -0.27594933 0.22161174
0.65070152 -0.2715261 0.22075193
0.65072393 -0.26697648 0.22101919
0.6626001 -0.21411814 0.21171805
0.64972836 -0.28286037 0.22931536
0.65065211 -0.28016895 0.22781672
0.65169805 -0.27521119 0.2272443
0.65198207 -0.27032596 0.22614381
0.65076208 -0.26508331 0.22469275
0.66062373 -0.22104494 0.21785463
0.66191727 -0.21640213 0.21746492
0.66251647 -0.21242915 0.21518774
0.6634649 -0.20651932 0.21475455
0.66631776 -0.20277469 0.21414018
0.66892397 -0.19811969 0.21279559
0.66997087 -0.19385543 0.21257345
0.67093116 -0.1901896 0.21193846
0.64922452 -0.28264505 0.23324548
0.64988333 -0.28026378 0.23228043
0.65108085 -0.27428073 0.23187481
0.65181506 -0.26958233 0.23093389
0.65067607 -0.26409346 0.22932579
0.65016979 -0.2602042 0.2289844
0.65666687 -0.22949266 0.22535916
0.6579684 -0.22495073 0.22331984
0.65980756 -0.22108847 0.22163811
0.66089672 -0.21573003 0.22021665
0.66241515 -0.21107572 0.21961065
0.66364896 -0.20669554 0.21857391
0.66720033 -0.20243448 0.21856736
0.66834843 -0.19950533 0.21665688
0.66950798 -0.19291963 0.2153783
0.67041534 -0.19038728 0.21497194
0.65051395 -0.27255964 0.235779
0.65089673 -0.26852202 0.235467
0.65016311 -0.26451957 0.23315653
0.65579706 -0.23265433 0.22845733
0.65651184 -0.22893511 0.22816879
0.65768117 -0.224268 0.22718693
0.65965289 -0.21991417 0.22623278
0.66085494 -0.21496466 0.22504735
0.66283327 -0.21005337 0.22434522
0.66463715 -0.20573397 0.22373851
0.66640007 -0.20141113 0.22312345
0.66714239 -0.19802587 0.2231835
0.66854781 -0.19312583 0.22097801
0.64947289 -0.26982424 0.24260129
0.65020102 -0.26836216 0.24058111
0.65091699 -0.24535792 0.23779093
0.65220565 -0.24210541 0.23607129
0.6522333 -0.23955114 0.23671789
0.65674442 -0.2325796 0.2342463
0.6580137 -0.22860216 0.23335712
0.6587674 -0.22335468 0.23243406
0.660043 -0.21899898 0.23139445
0.66000456 -0.21384253 0.23028807
0.66221201 -0.20898543 0.22967966
0.6640566 -0.2046665 0.22908491
0.66554582 -0.20026883 0.22839797
0.64941388 -0.26803452 0.24432056
0.65173686 -0.24614869 0.24118949
0.65358484 -0.2417758 0.24043263
0.65281129 -0.23629703 0.23937477
0.6556499 -0.2326657 0.23874915
0.65811497 -0.22792466 0.23825152
0.6584512 -0.22260027 0.2368944
0.65807128 -0.21743082 0.23642103
0.65801859 -0.21230906 0.23512806
0.66069305 -0.20786865 0.23441851
0.66346431 -0.20372684 0.23374037
0.66468179 -0.19943483 0.23288931
0.65192199 -0.2485588 0.24453682
0.65222663 -0.24721508 0.2442885
0.65436381 -0.23961587 0.24473207
0.65452313 -0.23576622 0.24440978
0.65570849 -0.23125009 0.24347487
0.65734571 -0.22691835 0.24284759
0.65802264 -0.22148789 0.24170263
0.65793329 -0.21643245 0.24114358
0.65835536 -0.21167085 0.24009879
0.66118878 -0.206883 0.23927288
0.66282475 -0.20274755 0.23838101
0.66392899 -0.19856828 0.23691706
0.65054816 -0.24943091 0.25448275
0.6544891 -0.23452689 0.24924678
0.65535003 -0.23029707 0.24889696
0.65638351 -0.22573806 0.24805447
0.65751314 -0.22048546 0.24706604
0.65815353 -0.21577439 0.24607089
0.65941417 -0.21129021 0.24531342
0.66068423 -0.20674749 0.24417974
0.6622262 -0.20201327 0.24162035
0.66268229 -0.1993015 0.24181922
0.65233386 -0.23745324 0.25636938
0.653193 -0.23303424 0.25464949
0.65379059 -0.22910865 0.25352797
0.65523565 -0.22458148 0.25252917
0.65634906 -0.21924387 0.25173336
0.657758 -0.21489143 0.25083345
0.65864158 -0.2102745 0.24993281
0.65986007 -0.20548132 0.2492312
0.66115928 -0.19988666 0.24806069
0.66161001 -0.19755682 0.24797182
0.65113384 -0.23689286 0.26039651
0.65176266 -0.23260649 0.25890106
0.65365493 -0.22806153 0.25819749
0.65469414 -0.22366573 0.25719652
0.65583724 -0.21861921 0.25626755
0.65697664 -0.21378063 0.25518575
0.65810883 -0.2094041 0.25375882
0.65922779 -0.2050409 0.2523798
0.66036582 -0.1990605 0.25223467
0.66112149 -0.19738691 0.25026539
0.64579076 -0.23827228 0.26618153
0.64901924 -0.23626958 0.26448786
0.65093505 -0.23132108 0.26380479
0.65262079 -0.22701184 0.26323283
0.65372747 -0.22247998 0.26242739
0.65472949 -0.21799387 0.2616643
0.65610087 -0.21190652 0.26057711
0.65695679 -0.20807171 0.25992736
0.65753621 -0.2040699 0.26063371
0.65928602 -0.19810395 0.2577779
0.64483297 -0.23709741 0.27136445
0.64705682 -0.23486219 0.26919883
0.6502955 -0.23036362 0.2684598
0.65125167 -0.22578637 0.26759022
0.65281177 -0.22141938 0.26694936
0.65401065 -0.21636494 0.26616329
0.65504116 -0.21155296 0.26554033
0.65629876 -0.20639561 0.26419681
0.6571213 -0.20413347 0.26241213
0.64422995 -0.23635767 0.27462775
0.64763606 -0.23408659 0.27418134
0.64997119 -0.22952569 0.27325439
0.65124416 -0.22526039 0.2711162
0.65213603 -0.22016849 0.27133241
0.65322387 -0.21517676 0.27060282
0.65430635 -0.21107654 0.26917017
0.64339042 -0.23532785 0.27917075
0.64644766 -0.23320945 0.27874848
0.64874941 -0.22941034 0.27873865
0.65154284 -0.21854272 0.27527484
0.65222913 -0.21481518 0.27528602
0.64460063 -0.2327383 0.2823776
0.65261859 -0.27892032 0.23050177
0.67072022 -0.19906537 0.21574518
0.67244798 -0.19284335 0.2131954
0.67447442 -0.18843895 0.21295349
0.67610753 -0.18472178 0.21286415
0.6504119 -0.28455493 0.235643
0.65188974 -0.27923545 0.23346001
0.6704008 -0.19764753 0.21831046
0.67190892 -0.19260211 0.21806821
0.67507046 -0.18806081 0.21701525
0.67626375 -0.18392731 0.21610652
0.65086639 -0.28573561 0.24033584
0.6508674 -0.28289843 0.23892386
0.6514383 -0.27795011 0.23772511
0.65180099 -0.27346051 0.23855951
0.6698181 -0.19676803 0.22282328
0.67197508 -0.19180493 0.22225656
0.67460877 -0.18765327 0.221683
0.67567158 -0.18280667 0.22094505
0.67621779 -0.17974751 0.22102976
0.65157109 -0.28567559 0.24340446
0.65207088 -0.28247064 0.2438122
0.6507718 -0.27629808 0.24308459
0.65146559 -0.27263039 0.24209489
0.65191644 -0.26971763 0.24110119
0.66902691 -0.19575988 0.22820798
0.67120999 -0.19109395 0.22730535
0.67358404 -0.18649347 0.22622938
0.67499667 -0.18168432 0.22483766
0.6514703 -0.28131995 0.24739957
0.65155661 -0.27602041 0.24827482
0.6514585 -0.27164093 0.24717133
0.66674519 -0.19750126 0.23455615
0.66841161 -0.19480868 0.23284718
0.67085743 -0.18981215 0.23187628
0.67254871 -0.18623026 0.2307815
0.67403066 -0.18156247 0.22919847
0.65126365 -0.27498484 0.25245449
0.65084255 -0.27044889 0.25196022
0.65023154 -0.26765075 0.25021923
0.65651578 -0.24991648 0.24942937
0.65675557 -0.24600683 0.24712633
0.65621239 -0.24215685 0.24658735
0.66562253 -0.20115359 0.23653106
0.66559809 -0.19781153 0.23936348
0.66802204 -0.19390757 0.23759805
0.67024255 -0.18897445 0.23699431
0.67128479 -0.18550448 0.23625968
0.65087515 -0.27304572 0.25677055
0.65090239 -0.26977837 0.25655589
0.65560037 -0.24985091 0.25341979
0.65614891 -0.24527244 0.25308171
0.65587157 -0.2403519 0.25135306
0.65573424 -0.23627557 0.25152132
0.66282892 -0.20490274 0.24579889
0.66364837 -0.20150851 0.24495123
0.66532707 -0.19707111 0.2434607
0.6673587 -0.19305511 0.24269633
0.66970611 -0.18907349 0.24215312
0.65405011 -0.24852739 0.25815493
0.65562731 -0.24470718 0.25706986
0.6562885 -0.24025552 0.25568137
0.65494949 -0.23663768 0.25468823
0.66236854 -0.20390867 0.24864018
0.66254896 -0.20241266 0.24906375
0.66432232 -0.19584306 0.24774595
0.66719919 -0.1918309 0.2473532
0.66896325 -0.18840761 0.24597295
0.65429074 -0.24737047 0.26263365
0.6545682 -0.24273442 0.26231626
0.6545139 -0.23912075 0.25918189
0.65777481 -0.21667384 0.25849909
0.65852541 -0.21336256 0.25788718
0.65953487 -0.20923416 0.25679928
0.66098416 -0.2041468 0.25501266
0.66203964 -0.19946946 0.25370985
0.6634829 -0.19495504 0.25255555
0.66536009 -0.1909766 0.25189516
0.66822505 -0.18760718 0.24988216
0.65383649 -0.24558191 0.26609546
0.65291923 -0.24178605 0.26634181
0.657125 -0.21622026 0.26173526
0.65774375 -0.21325366 0.26142421
0.65901953 -0.20818278 0.25992998
0.6602664 -0.20326139 0.25914901
0.66145015 -0.19812684 0.2586585
0.66381156 -0.19362755 0.25800931
0.66580838 -0.18996453 0.25708953
0.65656871 -0.21519439 0.26502568
0.65740412 -0.21115908 0.26462999
0.65797883 -0.20737359 0.26518047
0.65990007 -0.20247121 0.26446208
0.66123265 -0.19749789 0.26347363
0.6637519 -0.19254886 0.26275855
0.66510999 -0.18967409 0.26193911
0.65271127 -0.22466137 0.27432513
0.65665275 -0.20954041 0.27098766
0.65843469 -0.20578298 0.26998159
0.66051197 -0.20166373 0.26926714
0.66196835 -0.19704528 0.26856363
0.66339833 -0.19204304 0.26755902
0.66425425 -0.18862434 0.26657012
0.64967871 -0.2318895 0.28181082
0.65163583 -0.22784826 0.27909821
0.65248621 -0.22396079 0.2784746
0.65308487 -0.21930361 0.27819371
0.65454382 -0.21462543 0.27689695
0.65553033 -0.20946036 0.27571759
0.65751332 -0.20466095 0.27496094
0.6602422 -0.2007231 0.27440587
0.66121036 -0.19645201 0.27361661
0.6507374 -0.23595357 0.28761619
0.65087378 -0.23245968 0.28526574
0.65260702 -0.22851497 0.28428289
0.65292561 -0.2234049 0.28359583
0.65382373 -0.21845447 0.28275076
0.65433896 -0.21380861 0.28142437
0.65470362 -0.20844318 0.28028971
0.65642971 -0.20365448 0.27922484
0.65839833 -0.19957677 0.27887848
0.66035289 -0.19577099 0.2779544
0.65221858 -0.22599436 0.28920081
0.65296912 -0.22268307 0.28858891
0.6534903 -0.21718766 0.28732228
0.65490633 -0.21271698 0.28663564
0.65428704 -0.20755032 0.28505707
0.65541887 -0.20300257 0.28425044
0.6575684 -0.19927157 0.28384939
0.65920055 -0.19591856 0.28291804
0.65181661 -0.22131519 0.29311663
0.65205389 -0.2160816 0.29209936
0.65447795 -0.21145217 0.29108852
0.65515643 -0.20754629 0.29035977
0.65628272 -0.20186584 0.28910312
0.65160394 -0.22018044 0.29665142
0.65258622 -0.21549727 0.29613602
0.65387344 -0.21121885 0.29394543
0.67853618 -0.18343146 0.21239531
0.67975044 -0.18098301 0.21209942
0.67788583 -0.18263371 0.21591458
0.67913854 -0.17953023 0.21521683
0.6821574 -0.17493109 0.21468699
0.65241337 -0.28767145 0.24265808
0.67594147 -0.18527795 0.22233655
0.67694879 -0.18148422 0.22098549
0.67903602 -0.17844932 0.22068672
0.68164575 -0.17474791 0.21954504
0.6519025 -0.28675857 0.24565606
0.65300697 -0.28165287 0.2449459
0.67509013 -0.18423364 0.22694355
0.67576623 -0.18175097 0.22598477
0.67792112 -0.17822213 0.22510119
0.65201873 -0.28923541 0.25231665
0.6518259 -0.28637302 0.25013882
0.65187919 -0.28112811 0.25034893
0.67433566 -0.18417744 0.23146687
0.67675298 -0.18061979 0.23128684
0.67709976 -0.17805795 0.22885834
0.65242064 -0.28897375 0.25535312
0.65285546 -0.2856279 0.25574529
0.65233785 -0.2804763 0.25443861
0.65230137 -0.27644047 0.25537255
0.65808982 -0.24753003 0.25034025
0.67447984 -0.18397596 0.23648508
0.67660171 -0.18122184 0.23537017
0.65314972 -0.27932188 0.25923872
0.65211427 -0.27531698 0.25864559
0.65785927 -0.2472472 0.25158799
0.67126727 -0.18697794 0.24157068
0.67286259 -0.18544249 0.24191333
0.65289903 -0.27408296 0.26308399
0.65134907 -0.26941708 0.26223481
0.65190524 -0.26521319 0.26320797
0.65709871 -0.24300222 0.25840354
0.65727913 -0.2415062 0.25882709
0.67015469 -0.18626188 0.24706282
0.67311865 -0.18451826 0.24643965
0.65267032 -0.27134448 0.26747414
0.65250039 -0.26814693 0.26680908
0.65450037 -0.24901496 0.26496464
0.65621185 -0.24353968 0.26187783
0.66807657 -0.18912373 0.25389719
0.66977847 -0.18630213 0.25203294
0.6717602 -0.18354632 0.25138611
0.65240699 -0.27043408 0.27052712
0.65297508 -0.26678497 0.27099565
0.65518105 -0.24396192 0.26608089
0.66746467 -0.18837313 0.2572085
0.67023104 -0.18561924 0.25674814
0.66705114 -0.18757682 0.26218942
0.66962701 -0.18462859 0.26195714
0.6706655 -0.18075368 0.2630882
0.66288984 -0.19625479 0.27096498
0.66423875 -0.19030406 0.2698653
0.66616011 -0.18709014 0.26719165
0.66174954 -0.19988535 0.27303585
0.66254133 -0.19536726 0.27322596
0.66344899 -0.19102184 0.27276462
0.66654265 -0.18790868 0.27268618
0.65245575 -0.24681894 0.28956321
0.65311724 -0.24260096 0.29008377
0.65254247 -0.23230197 0.28722623
0.65328944 -0.22900671 0.28661728
0.66071773 -0.20033704 0.27721933
0.66207832 -0.1935591 0.27858073
0.66355884 -0.19082518 0.2770364
0.65298921 -0.24129902 0.29170987
0.65313101 -0.23736715 0.29173613
0.65187883 -0.23197274 0.29042256
0.65267754 -0.22825609 0.28992856
0.65956205 -0.19720201 0.28487331
0.66111565 -0.1943316 0.2834245
0.66441089 -0.19137922 0.28201836
0.65299129 -0.23482619 0.29632068
0.65186721 -0.2308027 0.29551342
0.65205204 -0.22633567 0.29425371
0.65483505 -0.21323842 0.29265341
0.65661907 -0.20536809 0.29119903
0.6572544 -0.20191538 0.29121101
0.65893185 -0.19774275 0.28925538
0.66133249 -0.19349287 0.28836051
0.66292149 -0.19034956 0.28942811
0.65211403 -0.23389085 0.30084339
0.65139377 -0.22982365 0.29983002
0.65145195 -0.22506295 0.2991645
0.65197945 -0.22050579 0.29932636
0.65317434 -0.2148813 0.29864031
0.6543715 -0.21099707 0.29652566
0.65579963 -0.20671864 0.29555255
0.65780956 -0.2016546 0.29433671
0.65952647 -0.19672288 0.29377836
0.66122419 -0.19224623 0.29230541
0.65164608 -0.23319088 0.30424485
0.65200984 -0.22936146 0.30474055
0.6524179 -0.2245528 0.30443501
0.65264744 -0.21962111 0.30322927
0.65339369 -0.21491699 0.3022401
0.65485835 -0.21016186 0.30149361
0.65642488 -0.20569718 0.30059734
0.65842474 -0.20262031 0.29926234
0.66001606 -0.19696693 0.29685092
0.65183902 -0.22753955 0.3080005
0.6526193 -0.22363077 0.30774492
0.65335459 -0.2184663 0.30805466
0.65416253 -0.21393508 0.3070026
0.6553368 -0.20983128 0.30585697
0.65658259 -0.20521069 0.30412811
0.65297395 -0.21703289 0.31155896
0.68459094 -0.17297852 0.21718766
0.68639308 -0.17036107 0.21526033
0.6894027 -0.16701365 0.21576096
0.68376994 -0.17348026 0.22142142
0.68550444 -0.16935734 0.21964526
0.68857723 -0.16598731 0.2190901
0.68166351 -0.17699288 0.22682948
0.68306416 -0.17328544 0.22558804
0.68661183 -0.1685358 0.22476411
0.68829411 -0.16571748 0.22362345
0.67980236 -0.17900325 0.23340099
0.68078285 -0.17642783 0.23117507
0.68274391 -0.17238104 0.23041828
0.68633342 -0.16817875 0.2301272
0.67895269 -0.17960164 0.23666157
0.68063253 -0.17590471 0.23583877
0.68313348 -0.17187148 0.23538353
0.6855998 -0.16792077 0.23409599
0.65429544 -0.28753754 0.26204208
0.65426433 -0.28509074 0.26072633
0.65452963 -0.28126013 0.26153064
0.67694485 -0.18377258 0.24211867
0.67835224 -0.17937951 0.24121481
0.68190855 -0.17489181 0.24094327
0.68390685 -0.17194211 0.2394353
0.65472549 -0.28722239 0.26653022
0.65506893 -0.28413737 0.26599857
0.65471399 -0.27887833 0.26513356
0.65481871 -0.27531788 0.2650992
0.6762991 -0.18266149 0.24754418
0.67849004 -0.17873304 0.24648149
0.68197083 -0.17506278 0.24543197
0.65572381 -0.28727096 0.2697472
0.65604085 -0.28315392 0.27064374
0.65535992 -0.27793229 0.27028352
0.65415502 -0.27386582 0.26921085
0.67542255 -0.18176149 0.25200558
0.67936176 -0.17910062 0.25192633
0.65592718 -0.28077373 0.27414656
0.65516263 -0.27706987 0.27510738
0.65362555 -0.27225626 0.27369428
0.65420628 -0.26781982 0.27391359
0.67428398 -0.1813309 0.25670955
0.67780352 -0.17707957 0.25719282
0.65560305 -0.27565342 0.27975035
0.65434158 -0.27176687 0.27878094
0.6543867 -0.26665735 0.27751237
0.6552341 -0.26329666 0.27766255
0.67228621 -0.18413551 0.26237437
0.67341602 -0.17984751 0.2615931
0.6765908 -0.17553127 0.2611239
0.6554153 -0.27014005 0.28334972
0.65450054 -0.26556379 0.28223252
0.65455687 -0.2614845 0.28212768
0.67121607 -0.18368147 0.26746547
0.67257792 -0.17911032 0.26671568
0.67554361 -0.17441434 0.26569563
0.67720991 -0.17147388 0.26476395
0.65520865 -0.26799351 0.28773487
0.65520626 -0.26494786 0.28767496
0.6543926 -0.25951487 0.28690892
0.65397763 -0.25425595 0.2871283
0.66951925 -0.18611145 0.27297008
0.67081887 -0.18275569 0.27227014
0.67244148 -0.17844142 0.2715399
0.67532927 -0.17353499 0.27061403
0.65486127 -0.26324803 0.29198673
0.65421951 -0.25845027 0.29152173
0.65396625 -0.25343138 0.29027623
0.65498722 -0.24988584 0.28968433
0.66716194 -0.19056626 0.27973777
0.66845179 -0.18620931 0.27759928
0.67017549 -0.18145974 0.27708429
0.67289704 -0.17728539 0.27637178
0.67542553 -0.17343862 0.27521324
0.65404481 -0.26112765 0.29846609
0.65469748 -0.25737688 0.29672927
0.65360433 -0.25258183 0.29511911
0.65369797 -0.24753396 0.29384243
0.65426946 -0.243241 0.29367161
0.6547609 -0.23967312 0.29441231
0.66569817 -0.19212361 0.28492552
0.66663986 -0.18969744 0.28316668
0.66827947 -0.18536304 0.28249609
0.67129707 -0.18059371 0.28226557
0.67320055 -0.17661816 0.28113008
0.67446828 -0.17398015 0.27941191
0.65336567 -0.25989375 0.30246806
0.65400761 -0.25638384 0.30147624
0.6530363 -0.25163335 0.29993045
0.65332347 -0.2465867 0.2994256
0.65413868 -0.2418416 0.29845291
0.65436262 -0.2381078 0.29744524
0.66521925 -0.19153617 0.28751695
0.66579258 -0.18866736 0.28847468
0.66908246 -0.18493901 0.28832802
0.67146492 -0.18102942 0.28691456
0.65356547 -0.25469238 0.3058269
0.65338498 -0.25080013 0.30519974
0.65258598 -0.24540608 0.30392921
0.6532824 -0.24079125 0.30308649
0.65344203 -0.23725794 0.3021993
0.66361099 -0.19201669 0.29422006
0.66511142 -0.1876611 0.29319412
0.66858709 -0.18359885 0.29291886
0.67005503 -0.18001558 0.29396051
0.65279144 -0.25300691 0.31061545
0.65177608 -0.24952553 0.30965948
0.65166253 -0.24450205 0.30873942
0.65197796 -0.23956828 0.30754042
0.65279984 -0.23502441 0.30685329
0.65338576 -0.23123951 0.30735385
0.65957105 -0.20325315 0.30288216
0.66070545 -0.20059459 0.30055583
0.66195089 -0.19639491 0.29994398
0.66426373 -0.19157586 0.29916826
0.66696149 -0.18716246 0.2983343
0.66892135 -0.18255024 0.29689559
0.65100861 -0.25597197 0.31606334
0.65160805 -0.25302729 0.3158192
0.65220892 -0.2491331 0.31496418
0.650729 -0.24341969 0.31335732
0.65107477 -0.23850225 0.31213868
0.65202665 -0.23383506 0.31123346
0.65330064 -0.22877635 0.31065559
0.65402156 -0.22398467 0.31046319
0.65760505 -0.20887622 0.30697128
0.65876645 -0.2041039 0.3063125
0.66092139 -0.19985645 0.3055442
0.66263574 -0.19581233 0.30462116
0.66535789 -0.19156691 0.30395192
0.66653657 -0.18817075 0.30283421
0.65130162 -0.25117934 0.31867772
0.65202159 -0.24680309 0.31906903
0.65215516 -0.242548 0.31888455
0.65174896 -0.23742636 0.31749743
0.65190715 -0.23259293 0.31595498
0.65326124 -0.22778694 0.3153131
0.65371722 -0.22293061 0.31419671
0.6543982 -0.21815765 0.31355181
0.65591294 -0.21325344 0.31278211
0.65710759 -0.20897992 0.31153226
0.65872806 -0.20393971 0.31092417
0.6615001 -0.19911923 0.31066918
0.6627413 -0.19540593 0.31061476
0.65320665 -0.23692529 0.32189369
0.65456098 -0.23095058 0.32078961
0.65491325 -0.22694284 0.32077974
0.65463614 -0.22223002 0.319754
0.65569961 -0.21767604 0.31864917
0.65800589 -0.21294029 0.31835943
0.65931606 -0.20857221 0.31748116
0.6605556 -0.20205559 0.31790003
0.65502036 -0.22507402 0.32355368
0.65576011 -0.22181073 0.32295063
0.65713078 -0.21576402 0.32183325
0.6583274 -0.21048513 0.32085776
0.65878427 -0.20846957 0.32048529
0.66000271 -0.20309471 0.31949204
0.69308233 -0.16560808 0.21593998
0.6958409 -0.16189928 0.21642518
0.69688755 -0.15943564 0.21534817
0.69225508 -0.16422784 0.22005856
0.6954819 -0.16163673 0.21975492
0.69151044 -0.16383788 0.22487368
0.69398707 -0.16042565 0.22503872
0.68873847 -0.16765027 0.23081179
0.69069886 -0.16330303 0.22953743
0.69284809 -0.15906867 0.22887056
0.68672907 -0.17021476 0.23758568
0.68794656 -0.16656762 0.23569892
0.69031101 -0.16314973 0.23397885
0.69299406 -0.15981163 0.23221765
0.68483979 -0.17304927 0.24360949
0.68613845 -0.17072429 0.24130811
0.68859458 -0.16731828 0.23976135
0.68432665 -0.17376108 0.24726309
0.68702292 -0.1706578 0.24577786
0.65705287 -0.28695047 0.27333754
0.6573416 -0.28455687 0.27401525
0.68210757 -0.177303 0.25219557
0.6843403 -0.17375124 0.25184861
0.65654051 -0.28529137 0.27695101
0.65708047 -0.28273386 0.27665335
0.65751046 -0.27961195 0.27730143
0.68135852 -0.17650692 0.25614843
0.68360531 -0.17272185 0.2565999
0.65634531 -0.284486 0.28191572
0.65665776 -0.28168625 0.28128678
0.65685189 -0.27811715 0.28142524
0.68174368 -0.17138863 0.26092002
0.68517399 -0.16910978 0.25913587
0.65672147 -0.28406551 0.28634402
0.65691948 -0.28036159 0.28619218
0.65690708 -0.27566287 0.2854808
0.65702248 -0.27171463 0.28589207
0.68091172 -0.17024274 0.26618108
0.68393242 -0.16758679 0.26585442
0.65794969 -0.2780093 0.29045969
0.65761364 -0.27496237 0.2907488
0.65669626 -0.27033633 0.28976876
0.6798957 -0.16983426 0.2711052
0.65711689 -0.27377707 0.2952852
0.65621048 -0.2690618 0.29431796
0.6562475 -0.26540336 0.29445583
0.67739767 -0.17181998 0.27744231
0.6802662 -0.16948965 0.27522343
0.65708941 -0.27235401 0.2988646
0.65621531 -0.26824301 0.29917774
0.65591711 -0.2635659 0.29741126
0.67585522 -0.17508751 0.28273231
0.67800152 -0.17214622 0.2814073
0.68023098 -0.16991569 0.28028479
0.65550721 -0.26628473 0.30343735
0.6548264 -0.26303041 0.30265951
0.67344415 -0.17977072 0.28840154
0.67573947 -0.17563164 0.28695381
0.67872453 -0.1723612 0.2849367
0.65591031 -0.26575556 0.30944526
0.65442729 -0.26092461 0.30755123
0.65477759 -0.25714788 0.30767027
0.67275381 -0.17920861 0.29228806
0.67520779 -0.17614126 0.29185349
0.65441066 -0.2646094 0.31239867
0.65389085 -0.26031512 0.31237108
0.65408039 -0.25577733 0.31186372
0.66974801 -0.18532619 0.30017817
0.67035735 -0.18263878 0.29968157
0.6721487 -0.17850481 0.29723799
0.67381054 -0.17581607 0.29460555
0.65299219 -0.25854719 0.31555504
0.65338892 -0.25441402 0.31602508
0.6541087 -0.25151879 0.31521004
0.6664921 -0.19408968 0.30739757
0.66739178 -0.19047062 0.30637881
0.66905063 -0.18686749 0.30383688
0.67171341 -0.18230855 0.3016285
0.67372644 -0.17911026 0.30148387
0.65275455 -0.25329238 0.31973779
0.65329587 -0.24880435 0.32100844
0.6662426 -0.19414462 0.31017703
0.66734415 -0.19033839 0.30976087
0.66924465 -0.18681179 0.30972451
0.65325618 -0.2461796 0.3233234
0.65379316 -0.24171074 0.3245976
0.65470839 -0.23720694 0.32423204
0.65570056 -0.2327712 0.32347065
0.6567257 -0.22737397 0.32334828
0.66168755 -0.20653491 0.31844735
0.66245008 -0.20392151 0.31721443
0.66370642 -0.19903994 0.31680024
0.66595566 -0.19390699 0.31582281
0.66777462 -0.19037141 0.31396335
0.66955149 -0.18772779 0.31287634
0.65356499 -0.2394844 0.32741952
0.65414882 -0.23585282 0.327804
0.65512657 -0.23130031 0.32720244
0.65608865 -0.22676425 0.3266556
0.65705925 -0.22180294 0.32641882
0.65840346 -0.21655174 0.32476985
0.65938675 -0.21202606 0.32412124
0.66050541 -0.20698604 0.32329506
0.66156781 -0.20260064 0.32218283
0.66393524 -0.19887586 0.32121077
0.66568667 -0.19496574 0.31942904
0.65543306 -0.23051696 0.33192015
0.65615481 -0.22567542 0.33142966
0.65683961 -0.22086836 0.33065596
0.65861344 -0.21614482 0.32983142
0.66041589 -0.21121818 0.3294324
0.66112018 -0.20650448 0.32754144
0.66247952 -0.20234366 0.32603085
0.65502858 -0.22797216 0.33494359
0.65723795 -0.22468695 0.33614919
0.65820009 -0.2203007 0.33486727
0.6593793 -0.21720225 0.33372298
0.69903272 -0.1585951 0.21576242
0.69755447 -0.16021644 0.22096203
0.70022529 -0.15786918 0.21930115
0.70247018 -0.15306507 0.2188949
0.69691962 -0.15986703 0.22404747
0.69923711 -0.15686984 0.22504184
0.70103049 -0.15301634 0.2252859
0.69569212 -0.15793197 0.2310399
0.69869715 -0.15518449 0.22921605
0.70069832 -0.1507484 0.22860013
0.69409579 -0.16197824 0.23631588
0.69579786 -0.15872811 0.23498027
0.69836706 -0.15551989 0.23368146
0.70055044 -0.14813408 0.2313837
0.69165546 -0.16628973 0.24203433
0.69399184 -0.16244704 0.24060522
0.69647694 -0.1585443 0.24086742
0.69038349 -0.16919883 0.24724399
0.69273657 -0.16657285 0.24622624
0.69469446 -0.16217634 0.24474867
0.69608772 -0.15652125 0.24423359
0.69642043 -0.1543534 0.24453296
0.68965161 -0.16961364 0.25161219
0.6926769 -0.16624787 0.25135097
0.68924254 -0.16867335 0.25648078
0.69216108 -0.16544339 0.2542823
0.68831676 -0.16755296 0.26174405
0.65898138 -0.2848804 0.28949898
0.65941018 -0.28368896 0.28857881
0.68794644 -0.16677256 0.26627618
0.65953904 -0.28366494 0.29262584
0.65922934 -0.28052109 0.2924695
0.68459934 -0.16836759 0.27146828
0.6865238 -0.16689619 0.27140108
0.65867692 -0.2820349 0.29775795
0.65889472 -0.27920267 0.29706356
0.65926284 -0.27663887 0.294976
0.68380928 -0.16807784 0.27702871
0.68674773 -0.16608739 0.27610639
0.65912616 -0.28154588 0.30306977
0.65907609 -0.27857488 0.30226547
0.65869319 -0.27402359 0.30166376
0.68174708 -0.1704502 0.28235316
0.68452394 -0.16809161 0.28198439
0.65945792 -0.27731282 0.30735493
0.65852189 -0.27228001 0.30555809
0.65839237 -0.26857895 0.3053866
0.67961162 -0.17427075 0.28865916
0.68144673 -0.17109542 0.28728867
0.68379092 -0.1681879 0.28667209
0.65897584 -0.27551937 0.31094351
0.65794814 -0.271043 0.31028712
0.65775979 -0.26780295 0.30880991
0.67937982 -0.17440179 0.29302198
0.68190181 -0.17115687 0.29205519
0.68348753 -0.16780652 0.29061899
0.65699047 -0.26911926 0.31342885
0.65676063 -0.26657733 0.31421673
0.67608446 -0.1785308 0.30074638
0.67893028 -0.17478268 0.29768246
0.68140012 -0.1721153 0.29631522
0.67335963 -0.18635114 0.30639154
0.67506456 -0.18263747 0.30496174
0.67700821 -0.17805895 0.30337578
0.67892319 -0.17546804 0.30144489
0.67302716 -0.18585023 0.30958036
0.67515296 -0.18260847 0.30888557
0.67749029 -0.17946334 0.30757308
0.67106795 -0.18890539 0.31625745
0.67301017 -0.1856093 0.31517696
0.67479599 -0.18218769 0.31264174
0.66753244 -0.19735788 0.32312548
0.66889149 -0.19388814 0.32225668
0.67167914 -0.18990743 0.32009828
0.67377228 -0.18606533 0.31859308
0.66589624 -0.20135786 0.32800162
0.66788208 -0.19757952 0.32714742
0.67005849 -0.19341783 0.32668436
0.67163593 -0.19072299 0.32422048
0.65866441 -0.22597881 0.33891439
0.66035223 -0.21965507 0.33754277
0.66179699 -0.21549055 0.33594364
0.66317981 -0.21091408 0.33481121
0.66438442 -0.20624734 0.33365536
0.66598505 -0.20182051 0.33274886
0.66845101 -0.19767557 0.33076465
0.66971016 -0.19408523 0.3299751
0.65990603 -0.22331259 0.3402065
0.66112995 -0.21970397 0.34109226
0.66254628 -0.21473254 0.34056795
0.66409653 -0.21030498 0.33967847
0.66538948 -0.2056766 0.33856493
0.66673708 -0.20160098 0.33696395
0.6619786 -0.21792598 0.34464741
0.66267657 -0.21420248 0.34460372
0.66368592 -0.21086103 0.34287512
0.70253301 -0.15569948 0.2210665
0.70456547 -0.15323596 0.219726
0.70745915 -0.14770219 0.21964304
0.70791602 -0.14568661 0.21927057
0.70250142 -0.15617986 0.22387849
0.70501769 -0.15233457 0.22459473
0.70511836 -0.14955351 0.22846015
0.70512223 -0.14741154 0.23018932
0.69844139 -0.15754972 0.23760842
0.70079166 -0.15394332 0.23477679
0.70073742 -0.15092079 0.23288345
0.69987059 -0.15722863 0.24018307
0.70140529 -0.15459034 0.23996846
0.69465572 -0.16505007 0.24819444
0.69541156 -0.16185562 0.24746412
0.69655704 -0.15879565 0.24490534
0.696154 -0.16453417 0.25273028
0.69719237 -0.16100341 0.25102782
0.69827348 -0.15706386 0.25002673
0.69476956 -0.16527244 0.2573601
0.69469422 -0.16479869 0.26136166
0.69098556 -0.16511516 0.26739633
0.69332272 -0.16443698 0.2672143
0.69037545 -0.16499422 0.27171889
0.69267482 -0.16342293 0.27204809
0.6895082 -0.16412611 0.27676234
0.69183117 -0.1620446 0.27689338
0.68877536 -0.16429998 0.2816413
0.69104308 -0.16142131 0.28087819
0.65969735 -0.28126794 0.30767059
0.65975368 -0.27961963 0.30876601
0.6866076 -0.16658436 0.28781024
0.68888414 -0.16414098 0.28634688
0.68344605 -0.16916803 0.29428869
0.68624443 -0.16598648 0.29219764
0.68800521 -0.16375259 0.29084745
0.68150151 -0.17307964 0.29967821
0.68418181 -0.17026715 0.29850358
0.68654072 -0.16594762 0.29602921
0.6877526 -0.16253702 0.29448438
0.67953515 -0.17708725 0.30508548
0.68224245 -0.17408015 0.30325437
0.68443865 -0.17110662 0.302118
0.67728704 -0.18177141 0.31118441
0.68059158 -0.17756741 0.3096092
0.68214095 -0.17430411 0.30833465
0.67593294 -0.18354505 0.31571215
0.67821872 -0.1815805 0.31469941
0.68046957 -0.17752515 0.31393561
0.67354727 -0.18846937 0.32222211
0.67620105 -0.18467045 0.32071477
0.67881948 -0.1814854 0.31844589
0.67147022 -0.19193222 0.32856202
0.67350954 -0.18903838 0.32652032
0.67615759 -0.18460014 0.32514247
0.67027515 -0.19721444 0.33346796
0.67264318 -0.1925222 0.33255917
0.67425287 -0.18836641 0.33114356
0.67570722 -0.18517496 0.32916769
0.66635978 -0.20467687 0.34071717
0.66865027 -0.20047383 0.33914578
0.67122555 -0.19706349 0.33720469
0.67271239 -0.19278671 0.33617431
0.66352594 -0.21334484 0.34615225
0.66584063 -0.20937157 0.3453089
0.66752875 -0.2051702 0.34435058
0.66968441 -0.20044263 0.34252498
0.67085546 -0.19737831 0.34062278
0.66440272 -0.2129467 0.34904408
0.66647607 -0.20881869 0.3488926
0.66773647 -0.20483774 0.34830123
0.70944554 -0.15197001 0.21965782
0.70912683 -0.14930166 0.22017486
0.7100445 -0.14642017 0.21847571
0.70795703 -0.15072893 0.22417195
0.71020603 -0.14827327 0.22493386
0.71078944 -0.14545667 0.22516726
0.71013516 -0.1480488 0.22823866
0.71135908 -0.14515541 0.22749639
0.70413828 -0.15360899 0.23867086
0.69905758 -0.16377512 0.25739259
0.70093769 -0.16121739 0.25577971
0.70154691 -0.15852997 0.25528309
0.69805282 -0.16365509 0.26284236
0.69736779 -0.16341032 0.26744255
0.69648761 -0.16233063 0.27220553
0.69558936 -0.16114472 0.2766754
0.69418383 -0.16038796 0.28165415
0.69141352 -0.16241071 0.28763068
0.69367987 -0.16049835 0.28685194
0.69147152 -0.16217704 0.29216117
0.69374675 -0.15994836 0.29160172
0.68815738 -0.16567446 0.29933375
0.69169986 -0.16190167 0.29728755
0.69311237 -0.15945028 0.29633796
0.68541765 -0.17276089 0.30564326
0.68668604 -0.16943987 0.30406806
0.68956041 -0.16548453 0.30325735
0.69156647 -0.16197 0.30110359
0.68543792 -0.17234246 0.30934203
0.6872111 -0.16912355 0.30835691
0.68933648 -0.16558258 0.30799618
0.68242157 -0.1760778 0.31615621
0.68456465 -0.1724886 0.31422395
0.68736154 -0.1687285 0.31312251
0.6885246 -0.16608931 0.3111648
0.68052715 -0.18030453 0.32106724
0.68237436 -0.17629369 0.31925261
0.68437153 -0.17337854 0.31894702
0.67866409 -0.18275398 0.32728991
0.68118048 -0.18033491 0.32568169
0.68344837 -0.17625834 0.32343006
0.676413 -0.18698467 0.33377174
0.67805177 -0.18382123 0.33141953
0.68116021 -0.18095502 0.33061492
0.67349637 -0.19555111 0.33965474
0.67455477 -0.19161549 0.33819419
0.67582124 -0.18745728 0.33691603
0.67847764 -0.18360783 0.33569038
0.68066549 -0.18085964 0.33379424
0.67128241 -0.20031802 0.34553561
0.67281055 -0.1962458 0.3431353
0.67459071 -0.19177549 0.34211811
0.67699182 -0.18685636 0.34143457
0.67871892 -0.18374662 0.34002775
0.66819417 -0.20904185 0.35204774
0.6705665 -0.20357417 0.35063642
0.67183995 -0.20013528 0.34897035
0.67427522 -0.19546582 0.34752399
0.67578059 -0.19240902 0.34592849
0.66935438 -0.20784061 0.35480294
0.67127424 -0.20458569 0.35456875
0.71506912 -0.14611173 0.21954268
0.71394557 -0.14816821 0.22282271
0.71412599 -0.14667219 0.22324626
0.71354479 -0.14765169 0.23114033
0.71388876 -0.14714129 0.23310253
0.70488453 -0.16098948 0.25847173
0.70423734 -0.16387436 0.26433706
0.70489967 -0.16240817 0.26490849
0.70163852 -0.16244109 0.26777762
0.7036677 -0.16049691 0.26845422
0.70029896 -0.16123651 0.27237096
0.70268899 -0.15908638 0.27277237
0.69940919 -0.16014506 0.27718592
0.70190191 -0.15888958 0.27717099
0.69913876 -0.15922855 0.28218976
0.70036644 -0.15805794 0.28232494
0.6983968 -0.15888463 0.28727528
0.69779599 -0.15815698 0.29248977
0.69424045 -0.16079676 0.29945636
0.69676453 -0.15891431 0.29751649
0.69434869 -0.16030231 0.30282855
0.69177544 -0.16339116 0.3082158
0.69407666 -0.1603301 0.30760688
0.68982023 -0.16649647 0.31430963
0.69132054 -0.16366307 0.31306481
0.69386971 -0.16088223 0.31297261
0.68757927 -0.17141131 0.32018927
0.6895861 -0.1672796 0.31899351
0.69201899 -0.1637392 0.31802031
0.68464363 -0.17883289 0.32708931
0.68586284 -0.17543884 0.32631603
0.68815202 -0.17186521 0.32481319
0.69013137 -0.1671983 0.32411158
0.68439424 -0.17900373 0.33149695
0.68604916 -0.1751159 0.33066016
0.688133 -0.17088746 0.32920456
0.68951929 -0.16762514 0.32850587
0.6816299 -0.18212804 0.33769822
0.68381858 -0.17916876 0.33630475
0.68624276 -0.17559028 0.33554751
0.6793679 -0.18640672 0.34418887
0.6815685 -0.18195049 0.34172493
0.68442923 -0.17864276 0.34044695
0.67659271 -0.19434927 0.3499566
0.67908394 -0.19118829 0.34869325
0.68031162 -0.18783844 0.34690183
0.68216759 -0.18243438 0.34656683
0.67340964 -0.20325124 0.35674164
0.67599177 -0.19944601 0.35534704
0.67767841 -0.19537443 0.35394153
0.67892629 -0.1924189 0.35349268
0.6746906 -0.20397985 0.36034656
0.67628843 -0.19902016 0.35898173
0.67799312 -0.19453916 0.35741279
0.72224718 -0.14600636 0.22243413
0.72359264 -0.14190236 0.22214319
0.72046655 -0.14503856 0.22520529
0.7219646 -0.14217286 0.22450836
0.7202915 -0.14729841 0.232307
0.7196961 -0.14406109 0.23067738
0.7199614 -0.14632109 0.23455971
0.72044003 -0.14420955 0.23416953
0.70811015 -0.16307248 0.26092914
0.70876813 -0.16254948 0.26381475
0.70798379 -0.16024111 0.26839072
0.70827222 -0.15787913 0.27325696
0.70975614 -0.15674141 0.27108529
0.7061668 -0.15729313 0.27842638
0.7057566 -0.15737392 0.28361738
0.70441598 -0.15724184 0.28832588
0.70348287 -0.15632458 0.29277918
0.70144737 -0.15787207 0.29762465
0.70388281 -0.15665145 0.29706869
0.697106 -0.15878119 0.31373775
0.69543207 -0.16284177 0.32010972
0.69781417 -0.16071677 0.31822747
0.69277066 -0.16600895 0.3262051
0.69561774 -0.16427134 0.32425356
0.69255179 -0.16664819 0.32971311
0.69353104 -0.16349475 0.32796368
0.68890685 -0.17390244 0.33725274
0.69113779 -0.1705139 0.33484292
0.68687332 -0.17762484 0.34275165
0.68950194 -0.17519636 0.34145153
0.69177663 -0.17105742 0.33873081
0.6824367 -0.18952595 0.35108924
0.68404043 -0.18593544 0.34949511
0.68566877 -0.18163137 0.3486293
0.687554 -0.17811738 0.34649679
0.68201917 -0.19039564 0.35426539
0.68496561 -0.18656899 0.35429329
0.68623513 -0.18162967 0.35149458
0.68778783 -0.17855392 0.35021609
0.67730105 -0.20264852 0.36304748
0.67871702 -0.19909118 0.36199921
0.68119609 -0.19417566 0.36065099
0.68229967 -0.19084902 0.3579694
0.68456173 -0.18698595 0.35757428
0.67872196 -0.20186614 0.36507764
0.6793468 -0.19864912 0.36417735
0.68143845 -0.1964642 0.36362579
0.7130236 -0.16099946 0.26501876
0.71577173 -0.15961127 0.26518956
0.71315402 -0.16001634 0.26951224
0.71460998 -0.1581862 0.27147624
0.71102607 -0.15826194 0.27343586
0.71409565 -0.15755524 0.27425963
0.71020967 -0.15705307 0.28376848
0.71075994 -0.15702073 0.28941089
0.70694697 -0.15595686 0.2933099
0.70618469 -0.15826809 0.30091667
0.70875746 -0.15640442 0.29874697
0.70592165 -0.15885298 0.30466467
0.70472145 -0.15878223 0.30936092
0.70385945 -0.15677801 0.31378222
0.69939339 -0.16177922 0.32188582
0.70114201 -0.15950997 0.32061797
0.7037046 -0.15607524 0.31843317
0.70035768 -0.16280586 0.32506818
0.70217919 -0.16072442 0.32424527
0.69749105 -0.16568302 0.33169201
0.69851494 -0.16472171 0.33025676
0.69227326 -0.17438938 0.34301609
0.69315255 -0.17191057 0.34115803
0.69119656 -0.17661352 0.34901699
0.69215947 -0.17477833 0.34595883
0.68765354 -0.18466927 0.35501575
0.68908519 -0.18181156 0.35447621
0.69071925 -0.17726918 0.35304004
0.69363427 -0.17465349 0.350586
0.6858843 -0.18963806 0.36139673
0.68722689 -0.18518668 0.35910267
0.68992335 -0.18111476 0.35824138
0.69167215 -0.17727597 0.35710388
0.6833052 -0.19833012 0.36765826
0.68551385 -0.19476201 0.36607677
0.68711978 -0.19040479 0.36495173
0.68888527 -0.18547004 0.36271811
0.69007635 -0.18071584 0.36133957
0.68479055 -0.19823398 0.37037677
0.71981353 -0.15971051 0.26566377
0.71864486 -0.15827169 0.26994908
0.71874946 -0.15642068 0.27508241
0.71671528 -0.15665542 0.27952349
0.71355647 -0.15685658 0.28640014
0.71666777 -0.15602647 0.28484201
0.71488553 -0.15665032 0.28989831
0.7162509 -0.15522973 0.28962886
0.71744835 -0.1481221 0.29014045
0.71515965 -0.15606853 0.29375887
0.71705377 -0.14808784 0.2919091
0.71316147 -0.15636317 0.30080172
0.70938629 -0.15799086 0.30540466
0.71192527 -0.15522297 0.30514222
0.70892632 -0.15680707 0.30993086
0.71117526 -0.15417331 0.30959809
0.70756209 -0.15490076 0.3144387
0.70954144 -0.15325277 0.31394467
0.7063722 -0.15429984 0.32017767
0.70795143 -0.15199113 0.31853959
0.70566964 -0.15919426 0.32585329
0.70710003 -0.15594651 0.32416081
0.70350343 -0.16316889 0.33096558
0.70553946 -0.16028517 0.3304624
0.69938135 -0.1698899 0.33830857
0.7022438 -0.16752835 0.33679891
0.70360827 -0.16256632 0.33482486
0.70426655 -0.15916222 0.33469582
0.69723618 -0.17345321 0.34486708
0.70110273 -0.17102861 0.34280932
0.69751287 -0.17334454 0.34833181
0.70028746 -0.17192684 0.34643936
0.69657522 -0.17316164 0.35307646
0.69930708 -0.17015177 0.35221136
0.69386685 -0.17634153 0.35921472
0.69710577 -0.17331475 0.35809097
0.68944561 -0.18892099 0.36662537
0.69136715 -0.18510556 0.3658551
0.69241506 -0.18083206 0.36420599
0.69410074 -0.17635877 0.36348036
0.69483525 -0.17356408 0.36302885
0.68700629 -0.19759011 0.37338388
0.68832415 -0.19390209 0.37175483
0.6901201 -0.18954225 0.37092215
0.69188023 -0.18522651 0.37038797
0.69384718 -0.18018815 0.36811602
0.69486111 -0.17606519 0.36700413
0.69462901 -0.17297773 0.3659488
0.68934411 -0.19530326 0.37565917
0.69030368 -0.18892774 0.37570405
0.69071072 -0.18436339 0.37395275
0.72848248 -0.15675789 0.25280878
0.72956228 -0.15296106 0.25114051
0.73037106 -0.14889312 0.25088876
0.72835326 -0.15690739 0.25670418
0.72918862 -0.15305838 0.2555823
0.7250154 -0.1626863 0.26327097
0.72521651 -0.16039468 0.26252818
0.72765273 -0.15648809 0.26128536
0.72892129 -0.15126681 0.25994551
0.73020494 -0.14560401 0.25889909
0.73071373 -0.14260945 0.25909573
0.72429919 -0.1584578 0.26579198
0.72658694 -0.15590617 0.26580504
0.72809148 -0.15202756 0.26298612
0.73016524 -0.13837922 0.26496398
0.72247231 -0.15650678 0.27033442
0.72524929 -0.15382354 0.27048534
0.72661579 -0.15113741 0.27022162
0.72991693 -0.13807462 0.26630771
0.72160357 -0.15498106 0.27541083
0.72274888 -0.15231825 0.27482787
0.72539288 -0.14874808 0.27501073
0.72087872 -0.15469906 0.28037032
0.72301137 -0.15146834 0.28023469
0.72465855 -0.14649914 0.27902645
0.72604084 -0.14215516 0.27931428
0.71993738 -0.15400922 0.28539184
0.72138393 -0.15019511 0.2848779
0.72291273 -0.1455989 0.28385067
0.72498131 -0.14076252 0.28282562
0.7259835 -0.13772692 0.28394347
0.71860015 -0.15287623 0.29037604
0.71968478 -0.14902906 0.28872761
0.72105587 -0.14387701 0.28819269
0.72330195 -0.13946424 0.28746229
0.72537875 -0.13485 0.2871179
0.71658349 -0.15606043 0.29667696
0.71765453 -0.15283553 0.29458103
0.71867412 -0.14743763 0.29448354
0.7200439 -0.14300579 0.29282039
0.72264904 -0.13838902 0.29249552
0.72428685 -0.13379522 0.29170841
0.7163738 -0.15530328 0.30051693
0.7184065 -0.15199953 0.29972389
0.71982837 -0.14736871 0.29864037
0.72032726 -0.14231516 0.29810798
0.72266173 -0.13636948 0.29510781
0.72361898 -0.13214637 0.29432744
0.7161082 -0.15361869 0.30536056
0.71803319 -0.15057181 0.30478409
0.72008198 -0.14650451 0.30282271
0.72079813 -0.14220186 0.30317038
0.71520072 -0.15250549 0.31027153
0.71701771 -0.14959867 0.30968094
0.7142902 -0.15138863 0.31519845
0.71621054 -0.14825498 0.31426126
0.71726221 -0.14440121 0.31329894
0.71350682 -0.1504277 0.31943759
0.71520984 -0.14733066 0.31904587
0.7161144 -0.14465286 0.31723851
0.70999181 -0.15508932 0.3265475
0.70869404 -0.15815343 0.33108795
0.71074837 -0.15465268 0.33071536
0.70493424 -0.16691749 0.33921656
0.7078622 -0.16335709 0.33839491
0.70855379 -0.15765275 0.33447909
0.710329 -0.15497492 0.33434597
0.70336205 -0.17038633 0.3433243
0.70542419 -0.16705059 0.34295723
0.70828468 -0.1633047 0.34117001
0.70282316 -0.16993512 0.34811193
0.70549744 -0.16625844 0.34748322
0.70204383 -0.16892362 0.35262966
0.70485675 -0.16553377 0.35217702
0.69968224 -0.17126976 0.35883754
0.70195389 -0.16823232 0.35818672
0.70460778 -0.16572511 0.35541731
0.69857156 -0.17154665 0.36351141
0.70208633 -0.1680104 0.36263528
0.69451129 -0.18353136 0.37165338
0.69527453 -0.18026419 0.37094963
0.69641942 -0.17536347 0.36989403
0.70141578 -0.16672564 0.3663848
0.70265681 -0.16333187 0.36597505
0.69133121 -0.19341011 0.37762892
0.6942758 -0.18267004 0.37339422
0.69492126 -0.17982264 0.37286806
0.69603813 -0.17489569 0.3719576
0.73124176 -0.16127609 0.25993434
0.73190343 -0.15080896 0.25635549
0.73298818 -0.14770602 0.25493616
0.73392928 -0.14512734 0.25434795
0.73097569 -0.16094972 0.26137403
0.72977078 -0.15644227 0.26117149
0.73078364 -0.151674 0.26059034
0.73212832 -0.14697434 0.2598033
0.73467439 -0.14463322 0.25835887
0.72896981 -0.15435572 0.26640594
0.72985572 -0.15028167 0.26581877
0.73114514 -0.14562307 0.26469466
0.73179126 -0.14205389 0.26398763
0.72952431 -0.14881243 0.27052143
0.73090082 -0.14464542 0.26988912
0.73164105 -0.13985884 0.26919788
0.7318697 -0.13583274 0.268713
0.7285558 -0.14732195 0.27396613
0.72990954 -0.14363806 0.27406192
0.73195899 -0.13887547 0.27349997
0.73202682 -0.13453858 0.27275166
0.72869623 -0.14218263 0.27753642
0.7308917 -0.13770232 0.27839816
0.73228675 -0.13315248 0.27825159
0.72932118 -0.1362614 0.28294933
0.73237836 -0.13190502 0.28294879
0.73393083 -0.12908627 0.2835055
0.72853708 -0.13358466 0.28524756
0.73056334 -0.13072151 0.28681371
0.73334301 -0.12762925 0.28728622
0.72695851 -0.1316483 0.29378974
0.7301594 -0.12970449 0.29197842
0.73155522 -0.12656255 0.29052734
0.72635072 -0.13874812 0.29803741
0.72802573 -0.13334569 0.29780996
0.72861016 -0.12891078 0.29661497
0.7319532 -0.12666039 0.29420722
0.72131479 -0.14680551 0.30633068
0.72193342 -0.14351635 0.30628288
0.72728896 -0.13281366 0.30057469
0.72074866 -0.14574303 0.30969435
0.72153437 -0.14302681 0.30844241
0.71498173 -0.1549837 0.32760197
0.71742034 -0.15339902 0.32732868
0.7165426 -0.15502104 0.32987845
0.71688193 -0.15302467 0.33000955
0.70948488 -0.16443299 0.34414813
0.70811206 -0.16458903 0.35007697
0.71094567 -0.16322605 0.34788036
0.70746469 -0.1637949 0.35358021
0.71099579 -0.16120566 0.35275361
0.71325004 -0.1575689 0.35151887
0.70738941 -0.16456772 0.35838944
0.70987201 -0.16025469 0.35754639
0.70439363 -0.1666927 0.3647657
0.70735031 -0.16357265 0.36345872
0.70831156 -0.16055208 0.36168057
0.70686305 -0.16222219 0.36670917
0.73880202 -0.13570444 0.27960241
0.7293449 -0.13797836 0.30108345
0.72983444 -0.13581882 0.30068439
0.72907889 -0.13765201 0.30252314
0.72956842 -0.13549247 0.30212408
0.71852672 -0.16394843 0.34602168
0.71578628 -0.16203001 0.34864366
0.74110192 -0.13358161 0.28037971
0.72257864 -0.16356945 0.34684086
0.72357923 -0.1605911 0.34485477
0.72115284 -0.16269781 0.34924498
0.72352314 -0.15986408 0.35029089
0.72092748 -0.15798807 0.35224074
0.72508061 -0.16216655 0.35073599
0.7258901 -0.15915759 0.34961742
