# .PCD v0.7 - Point Cloud Data file format
VERSION 0.7
FIELDS x y z
SIZE 4 4 4
TYPE F F F
COUNT 1 1 1
WIDTH 1524
HEIGHT 1
VIEWPOINT 0 0 0 1 0 0 0
POINTS 1524
DATA ascii
7.8112602 30.677032 -46.916676
7.7927017 30.315012 -47.606579
-0.69467545 26.928879 -40.207684
13.2738 30.97946 -51.836735
16.782867 27.620628 -55.128822
4.6057777 31.390085 -44.544189
0.42068672 28.200251 -42.498123
-1.13587 26.508795 -40.64019
2.3825817 29.925245 -42.978939
3.4863129 31.921196 -44.332695
16.127476 27.706459 -55.409546
6.6906815 30.371626 -47.181919
13.575977 30.161751 -53.084808
7.8517685 30.012959 -48.041443
2.1693058 30.191545 -43.426933
-0.49962616 27.177284 -41.343262
2.6075974 32.098671 -44.361855
2.9812756 31.236637 -43.884361
7.0810146 26.452183 -50.860806
17.220121 27.533958 -55.926498
1.389719 29.901594 -43.537567
12.784346 30.789139 -52.451908
2.8486404 32.28582 -44.620995
12.69549 30.802919 -51.717339
3.5258636 31.362711 -44.925247
13.689798 29.518158 -54.029221
-2.2429771 25.448713 -39.979111
6.8674393 30.343319 -47.778996
-1.6167622 26.215994 -41.578335
7.6790352 28.97904 -48.803261
11.96608 29.754292 -52.458862
0.45437241 28.611191 -42.998009
1.882061 31.402004 -44.171669
13.076694 30.13121 -53.596687
8.9136982 24.244383 -54.904953
3.5880356 30.166594 -45.413776
7.1724186 30.338104 -48.208473
5.3359604 29.551308 -47.2789
16.46546 27.395203 -55.921669
14.786087 27.854395 -55.807007
-2.3218975 25.254818 -40.554665
7.2359924 29.968077 -48.586113
5.3092041 29.369738 -47.912811
2.9685364 31.7346 -45.039574
12.644623 30.531778 -53.485252
-2.8785839 24.527239 -40.816845
3.2419415 30.458591 -45.330246
-0.66031837 27.368052 -42.436066
2.9215374 32.068501 -44.871056
17.360689 26.991022 -57.280846
-2.5844116 25.137104 -41.648586
6.8007526 28.56702 -49.674389
2.4096375 30.330469 -45.581642
16.709635 26.703865 -57.315063
1.4800396 28.981089 -46.292297
6.2842445 30.015936 -48.516315
12.090342 30.580942 -52.946983
11.752043 30.005322 -53.215439
10.81793 27.658319 -54.208435
17.243824 26.333334 -57.788345
16.131922 27.048473 -56.663055
12.079521 30.856178 -53.374748
17.860418 24.867693 -58.842484
14.546257 27.112478 -56.969788
5.0194206 29.107349 -48.379257
1.4540005 29.725241 -45.961475
0.35170937 29.946474 -44.050049
11.729481 30.544067 -53.448597
11.498308 29.769562 -53.648201
13.673141 28.533331 -55.488647
12.638119 29.964911 -54.572762
17.173908 25.619759 -58.294632
1.9329262 31.336266 -45.195736
1.1078491 30.962702 -44.482754
16.001642 26.586357 -57.422081
-1.8451138 26.499689 -42.666885
6.5817719 29.807178 -49.280609
10.890106 30.079252 -54.679825
1.3496113 31.185612 -44.571842
6.207653 30.024317 -49.129074
5.7212315 29.682037 -48.766624
-0.6187973 29.114983 -44.063446
16.141884 26.109213 -57.901001
0.67438126 30.382799 -45.295139
2.0567799 30.834393 -45.502407
14.962379 26.538052 -57.628662
-1.5784454 27.374905 -43.264286
17.126072 24.768845 -58.873421
6.2821808 25.607208 -51.801521
4.9138641 29.06638 -49.117218
11.906527 31.004787 -54.198586
11.843845 30.131769 -55.453865
-0.49775505 29.149622 -45.80204
-0.88384438 29.066938 -44.36541
15.757042 25.102859 -58.823471
15.215206 25.608326 -58.5317
5.6855316 29.99601 -49.795357
6.1455803 26.61187 -51.182953
11.134132 30.735506 -54.269073
-1.6462879 28.225075 -43.984543
11.474298 31.229374 -53.949425
-0.5394516 29.337336 -45.203064
0.76346207 29.915747 -45.870674
5.7629642 29.519464 -50.36768
10.444441 26.722319 -54.476524
10.444942 27.650555 -55.18631
12.075529 29.291525 -56.278374
-1.6904011 28.451057 -44.454876
13.628122 27.418352 -57.273636
-2.1050358 27.86311 -43.820587
11.632385 30.686157 -54.854401
12.648733 28.301668 -57.162895
14.460991 26.384026 -58.114952
5.3046036 28.056839 -51.397171
5.3640518 29.691721 -50.046078
-0.44445038 28.530073 -46.48539
-2.5980244 26.863253 -43.419312
4.5467148 28.798031 -50.039467
9.6442585 25.234835 -54.971237
3.982975 28.180735 -50.636559
-1.4233341 28.647003 -44.780338
-2.4516811 28.203547 -44.096378
15.169197 25.036041 -59.132927
11.013666 30.401794 -54.931793
0.99107361 27.257732 -47.781826
5.7282276 25.64492 -52.066238
-2.2694626 28.604767 -44.530781
0.32927132 28.032871 -46.860641
9.7969322 26.120535 -55.660172
11.575855 29.501585 -56.252426
13.474392 27.28833 -57.908211
11.156618 30.101414 -55.512665
3.0578995 27.548931 -49.108421
14.005032 26.61133 -58.310684
-1.2837963 28.585381 -45.798111
14.069935 26.087946 -59.300346
5.1170044 27.640797 -51.845558
4.4867496 28.454334 -50.979778
10.293823 28.648119 -56.436897
10.115383 28.297998 -56.258728
10.280144 28.325821 -55.703415
12.18008 28.665625 -57.066956
11.14159 28.894493 -56.921204
-1.16119 28.449661 -46.226494
4.8208714 28.340384 -51.254303
2.9304409 27.366507 -49.499336
-0.21293449 26.854574 -47.851868
0.10113907 26.403465 -49.108948
13.40427 27.302389 -58.440834
12.709736 28.107288 -57.826935
-1.1172333 28.027676 -46.769753
12.116089 28.540426 -57.571411
13.123943 27.77121 -58.763039
10.543983 28.760227 -56.684006
-0.64642334 27.041172 -47.544533
9.398838 26.154148 -56.475014
10.003399 27.812979 -56.12854
2.0875664 27.032625 -50.131546
11.208763 28.883879 -57.340027
4.4514046 28.253529 -51.622772
4.801857 27.924881 -52.1716
12.147511 28.815535 -58.37326
13.742588 26.690121 -59.70002
5.0761909 25.294949 -52.763046
12.869633 28.559868 -59.142311
3.7352486 28.106413 -51.139511
10.223839 28.629869 -56.984711
-1.7945957 27.560253 -47.285843
2.1959076 27.057467 -49.528175
3.6872158 28.361279 -51.699409
9.7837601 28.008198 -56.695663
9.3945656 26.864128 -56.693619
12.95575 29.25819 -59.543488
13.957958 26.17322 -60.418236
13.855114 27.039478 -60.603966
14.149944 25.91135 -60.856941
2.8951149 27.665396 -50.894981
13.345284 28.140472 -59.797173
-2.1358509 25.96664 -48.495041
2.8942108 28.15645 -51.519226
1.5832157 27.093502 -50.886166
0.056821823 26.199421 -50.293091
0.34577942 26.38138 -50.764557
9.2258797 28.347126 -57.261436
0.7816925 26.976049 -51.361031
1.7463303 27.70508 -51.455742
1.6017303 28.170082 -51.724834
-0.31947708 26.924986 -52.062637
5.229435 21.204979 -33.968361
5.9805145 21.424725 -33.847664
5.6796932 21.091755 -34.391876
3.7583294 19.55792 -34.507366
5.0720768 20.720108 -34.605244
18.82263 20.341812 -53.461319
18.624699 20.722324 -53.666206
18.14715 21.629982 -53.35228
19.58939 19.351454 -54.931
19.621628 19.572521 -55.332657
20.752813 18.935577 -56.935287
8.7745209 24.825012 -53.507526
4.3936348 20.532898 -34.025757
6.3433132 24.398743 -52.870422
6.0737534 24.494221 -52.786938
8.851532 24.416325 -54.322838
8.3882847 23.644611 -55.190704
8.281971 23.887169 -57.761719
5.4562721 24.122034 -53.301491
8.8009205 24.029182 -56.365662
8.9459724 24.362896 -56.440216
8.3561478 23.453693 -55.723831
5.7636242 23.477196 -53.897049
6.1716022 23.259499 -54.237686
8.4673309 25.294706 -57.860367
7.7169838 22.689838 -57.848953
5.1527023 22.930256 -54.557617
4.8048992 23.716362 -53.965065
3.9292183 23.050816 -55.095581
4.1269588 23.894615 -54.405067
4.2557316 24.772795 -53.846291
4.4011955 26.753008 -53.152031
7.1008301 22.109602 -56.889015
5.7330322 21.991386 -55.957161
7.399868 22.260685 -57.860962
3.1116467 23.05374 -55.929413
2.995821 25.547318 -55.823212
5.1501427 21.937439 -55.844376
4.5854492 21.845741 -55.999931
7.1967239 22.071407 -57.410942
7.7749786 27.590347 -57.993645
6.5349693 26.826902 -59.073944
5.1684399 21.636946 -56.319435
6.7107105 21.522381 -58.403862
3.7824554 21.715755 -56.459457
5.6334953 20.82147 -58.299042
7.4283638 24.983953 -59.3228
8.8778419 26.829025 -57.349121
7.0409279 25.389477 -59.611282
7.7416344 26.675241 -58.461578
3.1548634 22.594326 -56.145309
6.0559959 27.069479 -58.998993
6.2520866 21.078943 -59.573891
6.0706863 25.421951 -60.318222
5.5329189 27.108046 -58.997169
3.1093845 26.51969 -56.560783
2.7868824 25.739857 -56.567047
2.4867172 21.068235 -57.913559
4.8868847 27.07877 -58.922562
5.2221909 20.194025 -59.606499
5.1310654 22.070251 -62.583832
2.1238766 19.910442 -59.330719
2.7441998 25.930885 -57.895264
5.1365395 23.067762 -62.306427
3.6786976 19.633341 -59.626266
2.7672119 19.616077 -59.489365
5.8011703 21.479847 -61.466553
2.2919388 21.858498 -57.548592
4.8948364 19.729359 -61.133171
0.76221466 22.127926 -60.122002
3.186348 22.866789 -63.624405
5.3558502 20.261307 -61.203735
4.4167213 23.133871 -62.811699
1.8875751 24.533943 -58.645271
5.7630959 20.918474 -61.1492
5.8278465 23.531088 -61.4814
2.0085526 18.460724 -61.224686
1.5364113 20.319353 -59.374054
1.5429993 18.643578 -61.03727
2.8207989 25.416256 -60.083725
3.1924858 25.408451 -60.514252
2.5709782 18.430687 -61.428474
2.2291679 25.054569 -59.505371
0.59560966 22.64291 -62.239616
3.8678169 18.710636 -62.389267
0.81897163 21.169933 -59.909508
3.1651363 18.428246 -61.843903
4.5304337 19.572353 -62.762215
1.0556488 18.757511 -61.144676
4.3602486 19.232567 -62.486443
3.2381248 18.204201 -62.510452
0.50977898 22.410837 -61.325012
0.51317024 20.038548 -60.747337
-0.12903786 20.247845 -61.766479
3.9090958 19.317131 -64.089371
3.4240646 18.20381 -63.857666
3.0429955 17.784842 -63.590416
3.9749451 19.692764 -64.131989
0.36705971 22.100142 -63.431549
0.68282127 17.587667 -62.496094
4.0142899 21.670876 -63.87159
2.5043545 17.450737 -63.326111
2.3858223 23.78817 -62.598244
1.1243439 17.171755 -62.936096
3.2599831 21.635773 -64.543106
0.45850372 18.384764 -61.890221
3.9372368 19.031893 -63.756851
1.6503925 23.071301 -63.340561
3.1361122 21.117231 -64.860222
2.3536606 22.842077 -63.776299
-0.029922485 21.392731 -61.956612
2.9103546 21.503666 -64.812027
2.4687614 22.104778 -64.555496
2.0162735 16.758171 -64.065689
0.38593292 19.155396 -61.388588
-0.23557281 21.338112 -63.207878
1.9080887 21.67082 -65.021454
-0.41210365 19.249067 -62.347473
-0.85196686 17.790802 -63.478058
2.7702827 17.679068 -65.504494
1.4421024 16.14201 -64.532967
0.93471527 19.771408 -66.667038
-0.7393322 19.67729 -63.050629
0.64925575 16.07847 -64.180794
1.5414276 15.753323 -65.278511
2.3458519 16.776421 -65.33992
0.18152046 16.407753 -63.763039
2.1835976 16.621147 -64.919098
-0.1110878 17.179203 -63.215096
2.7185173 18.551397 -65.893288
0.66205025 20.814915 -65.771423
-0.56074715 16.416485 -64.00563
0.97846603 15.349365 -65.12896
-1.0793037 19.374081 -63.85907
-0.69459724 17.260733 -63.575584
2.4555855 17.550869 -66.133331
-0.39572144 21.081104 -63.921661
1.7476997 17.735901 -67.086182
1.5709801 18.182674 -67.189011
-0.35782433 14.718233 -65.163116
-0.727911 15.257799 -64.828033
0.49747467 20.133129 -66.41951
1.8605919 16.007984 -66.412476
1.0709801 14.555063 -66.336029
1.5555153 18.534004 -67.09996
1.6304817 15.557395 -66.122635
-1.0572624 19.77774 -64.553619
-1.2009563 15.782504 -64.751511
-1.0091705 18.501432 -63.506348
1.4546509 15.211187 -66.926102
0.02731514 20.934769 -65.227631
-0.4685955 20.556084 -65.06945
-1.3037796 17.16749 -64.277252
0.64257431 14.324051 -65.931091
1.6508484 16.137951 -67.18335
-1.613472 17.624504 -64.71093
-0.61209488 19.446373 -66.511429
0.031513214 13.821749 -65.972122
-0.15296173 14.173061 -65.634277
0.20867157 12.871149 -66.941002
1.1917458 16.116646 -67.856804
1.1297836 17.832031 -67.613991
0.33117676 12.71703 -67.336479
-1.5522575 18.624901 -65.248985
-0.066028595 12.845488 -66.695908
-2.1054249 13.764932 -66.329468
-0.65937233 11.808768 -67.079987
-0.6510067 18.991985 -67.032066
-1.1001129 13.365798 -66.021957
1.1386147 14.990082 -67.772362
0.47314835 12.797925 -68.057281
0.13260651 18.571491 -67.526482
-1.3388538 18.956882 -65.985481
-1.7238235 15.740734 -65.279327
-1.8779297 16.723812 -65.314354
-1.0210724 9.5156345 -68.552567
0.94249725 14.909391 -68.12632
0.96059418 14.140491 -67.724358
0.51933289 13.649008 -68.557915
-1.4728813 11.132076 -67.229019
0.76610947 13.588522 -67.364258
0.57425308 17.438986 -68.001114
0.64440155 18.427744 -67.571594
-1.2004967 8.6556139 -69.192566
-1.8049526 13.990878 -65.992813
-1.4526711 18.068333 -67.148735
-1.6300793 13.389765 -66.140755
-2.2548695 14.256899 -66.36937
-1.9361439 17.607985 -65.979973
0.24887085 14.970362 -68.840256
-0.37919998 16.878712 -68.419479
-2.1589355 16.608986 -66.27533
-0.8633728 17.754972 -67.822868
-1.7917862 17.663649 -66.897247
-1.7448635 11.630592 -67.004448
-0.075641632 11.445044 -68.952057
-0.16150665 11.939395 -69.353081
-0.61027908 9.8648062 -69.340927
-1.5423679 9.6745577 -68.104202
0.070449829 15.433352 -68.84053
-0.24162674 16.30814 -68.653305
-2.0161858 16.126274 -67.91156
-0.78834915 13.885084 -69.526489
-2.40308 8.6197958 -68.623253
-2.5697975 14.621415 -67.071198
-1.9638004 14.588807 -69.013489
-0.19857025 12.450524 -69.418976
-1.1303024 16.186033 -68.657822
-1.4975376 16.244432 -68.439865
-2.3031311 16.058098 -67.225922
-2.5940228 9.760067 -68.138977
-2.5509281 14.929466 -67.224861
-1.0923042 14.397182 -69.385208
-1.8169136 7.4593058 -69.616608
-2.081295 7.695662 -69.238693
-2.4596577 7.9047909 -69.000961
-2.3900108 15.075766 -68.067062
-2.8180599 13.292089 -68.386856
-0.86228943 9.5877743 -70.027451
-2.6379147 11.078668 -67.702248
-2.6675453 11.918985 -67.511589
-1.0305328 13.85851 -69.570023
-2.5037651 13.510345 -69.02253
-0.87668228 12.281675 -69.93103
-3.2339287 9.1085167 -68.944176
-1.1010742 9.7169132 -70.387924
-2.8894272 11.956527 -67.859741
-2.8400288 13.066964 -67.797394
-2.3796234 13.315387 -69.32045
-0.86603928 10.8308 -70.126663
-2.2387314 10.92814 -70.459435
-2.8225136 5.8859348 -70.436089
-3.0880585 7.7621059 -69.268349
-2.5550041 10.805252 -70.384399
-3.0462856 11.224422 -69.620407
-3.2677422 10.556697 -69.352402
-1.800293 9.8926163 -70.788681
-3.1653099 8.4421968 -69.063751
-1.6796646 9.3901176 -70.865105
-1.5506592 7.4999208 -70.540146
-3.3397007 10.024908 -69.19017
-2.6776218 11.568576 -69.940681
-1.7500381 7.1422777 -70.208755
-2.5746536 5.6423721 -70.946976
-3.009367 6.8514137 -69.708511
-3.4290409 9.060173 -69.330841
-1.3599472 8.3559656 -70.606339
-2.1770897 10.45981 -70.647293
-2.1046982 9.7912169 -70.864349
-2.4747734 7.2039738 -71.756187
-2.3198242 5.9254332 -71.050911
-3.566185 7.4243507 -69.834686
-1.7792053 8.2747803 -71.117294
-2.6687469 9.3457422 -70.991028
-3.1875305 9.2845879 -70.687714
-3.6855316 8.1219482 -70.075127
-3.4095879 5.3895168 -70.822273
-3.5191669 8.8934803 -70.32534
-2.5944481 8.2860909 -71.426285
-2.2903061 6.1235762 -71.654259
-3.6513119 7.7111931 -71.233757
-3.7642117 5.756732 -70.700233
-3.8991928 7.2252779 -70.538353
-3.1870079 7.8099852 -71.553337
-4.220623 5.5429649 -71.316879
-3.7060127 7.096839 -71.684265
-4.2782497 5.9377422 -71.457413
-3.0247917 5.1183 -72.590134
-2.4752159 6.446619 -71.935463
-2.929554 4.9518528 -72.139122
-3.3025513 4.4692149 -72.296532
-3.0987167 7.1361699 -71.967278
-3.7376556 4.3001609 -72.088478
-4.1344337 6.4011431 -71.69915
-3.3369904 5.805337 -72.74144
-4.1383438 6.0073528 -72.422005
-4.3610764 4.7871752 -71.807007
-3.3983574 5.0523582 -73.082558
-4.0782089 4.4067931 -71.986755
-3.8603935 5.664887 -72.97612
-3.4465446 4.477838 -73.039444
-4.5860062 5.4307098 -72.420982
-4.6232643 5.185154 -73.507484
-4.3530579 3.7375398 -74.060699
-5.0523491 3.8051591 -73.434784
-3.9473305 5.1352091 -73.503868
-4.9101067 3.5975189 -73.711433
-4.1062202 4.3269219 -74.1278
-4.4385185 3.6547818 -73.624832
-5.1081009 4.7261491 -73.149521
-5.2070122 4.1106968 -73.375755
-5.1426086 3.36202 -74.725258
-4.8517151 4.7730961 -74.282104
-5.3998108 4.5864811 -74.470306
-4.6668205 3.7635002 -74.777351
-4.8571739 4.0413651 -75.111115
-5.6417542 4.247386 -74.21138
-4.8523407 4.4400721 -74.823448
-5.3756866 3.7027912 -75.857971
-6.1078758 4.2800121 -75.736847
-5.3701782 3.4248328 -75.605156
-5.7987823 4.197515 -76.093925
-5.8569908 3.2594471 -75.334999
-6.224514 3.8949561 -75.278458
-6.0785408 3.6191211 -75.046265
-6.2357292 3.2000051 -76.420837
-6.4303017 4.2108479 -76.499466
-6.5467529 3.5084291 -77.455818
-6.2906609 3.9785519 -77.078766
-6.813179 4.0748668 -76.596802
-6.5607758 3.3354449 -76.230515
-6.4729347 3.791173 -77.476189
-6.6986427 4.1785011 -77.315247
-7.4002876 3.7835379 -78.789673
-7.433773 3.4747968 -77.935532
-7.2652626 3.491539 -78.155937
-7.5856323 3.737391 -77.731766
-7.4233856 4.3263631 -78.561958
-7.5884705 4.3050032 -78.229675
-7.4936981 4.1525788 -79.039482
-7.9718781 4.1576252 -78.455421
-8.3025932 4.0428371 -79.011505
-8.102108 3.9758701 -79.654755
-8.3356133 3.9484401 -79.439362
-8.015873 4.2653751 -79.847198
-8.547348 4.8315711 -79.918549
-8.7563591 4.4408908 -79.706703
-8.5091667 4.6722002 -80.673805
-8.1978455 4.6664639 -79.936882
-9.1108284 5.0691738 -80.61528
-9.3990288 5.0167708 -80.846039
-8.8995247 4.4399781 -80.776299
-9.3344536 4.6872468 -80.910187
-9.5335922 5.0341449 -81.877869
-9.6422768 5.4681592 -82.412415
-9.3686371 5.5129089 -81.904945
-9.5944519 5.6431541 -81.655182
-10.06419 5.360652 -82.05304
-9.8957367 5.34866 -81.624565
-10.33083 6.4617767 -83.071045
-10.102367 6.1905422 -83.172791
-10.491417 6.22369 -82.747894
-10.492645 6.696867 -83.623718
-10.518642 6.2450867 -83.7164
-10.926525 6.4816103 -83.837746
-10.950222 6.6117249 -83.473145
-10.631561 5.9505181 -83.230995
8.4573936 27.464254 -57.619873
9.4367905 27.448631 -56.815109
-1.5150795 25.509552 -50.745079
-5.2962933 25.778553 -48.371815
-3.5333939 25.798983 -48.430397
-3.7820339 25.458416 -48.780891
-4.9787273 26.338957 -48.141396
-1.106678 25.668644 -51.051311
-0.64356995 26.142826 -51.538605
-5.9767075 26.376928 -48.213905
-2.4799232 25.174517 -51.104301
-2.1466846 25.84362 -52.137772
-1.3408642 26.547361 -52.328468
-4.7130413 25.037903 -49.295643
-7.5616684 25.008835 -48.775028
-3.0937386 25.199528 -51.781647
-6.9014835 25.782446 -48.395008
-7.586235 26.127296 -48.368866
-3.7004414 24.91328 -51.564278
-6.5290089 24.782553 -49.150234
-2.3754463 26.408735 -52.603638
-3.7255058 25.719799 -52.611912
-8.9225121 24.966038 -48.7356
-7.732893 27.120037 -48.556969
-8.1963902 24.235184 -49.722668
-6.0883217 24.353733 -51.573463
-3.7721386 26.791092 -52.905342
-4.8360939 24.950266 -52.202682
-8.3539066 24.571968 -49.100639
-9.6044388 28.0352 -49.698071
-9.0693417 25.42469 -48.553082
-10.566395 23.440342 -50.78828
-5.8823833 24.985275 -52.549461
-12.46138 25.710377 -48.864914
-5.6621342 26.165434 -53.060513
-10.822195 24.102238 -49.21666
-7.1357822 25.024475 -52.833073
-11.593056 24.332876 -48.967789
-6.131567 24.495693 -51.991768
-10.565462 23.860909 -49.566029
-11.305351 25.330013 -48.678513
-6.4594593 28.097548 -52.903442
-8.68223 23.888321 -51.838604
-11.445597 26.319422 -48.902145
-7.4630394 24.784824 -52.733757
-12.89332 23.369352 -49.54974
-8.4678688 27.956223 -52.722
-14.548893 24.324795 -49.004585
-9.8782043 23.539318 -51.367443
-11.329889 27.98127 -50.807888
-12.810417 24.225071 -48.960743
-14.190254 23.448759 -49.255684
-10.01111 24.847675 -53.083046
-11.73243 23.11862 -51.647442
-13.287003 25.78455 -49.071838
-9.4943504 23.885696 -52.211952
-12.814129 23.209536 -49.794617
-10.761518 27.90542 -51.993683
-9.9210415 27.94799 -52.320663
-9.1471024 27.098326 -53.073151
-10.70281 23.500473 -52.019608
-11.67605 27.877655 -51.131493
-13.790424 25.184406 -48.983433
-12.159052 22.993328 -51.068001
-11.091572 23.632673 -52.39571
-14.077999 25.874012 -49.355709
-13.6586 22.817682 -50.061096
-14.810837 25.256847 -49.263451
-13.358585 27.078491 -50.296307
-13.625381 26.467564 -49.665737
-11.522371 24.14032 -52.940987
-11.591198 23.673717 -52.595398
-12.879686 27.460457 -51.322189
-16.084526 24.441837 -49.432068
-10.780228 26.96443 -52.938713
-12.985956 22.746357 -51.64555
-15.987465 25.09539 -49.70945
-15.612034 22.619427 -49.566719
-14.564928 22.807011 -49.640205
-13.683781 22.518475 -50.883759
-10.458372 25.25342 -53.202942
-13.128977 27.376898 -50.979301
-15.318918 26.219179 -50.436222
-13.468397 23.048172 -52.596256
-15.165222 26.494865 -50.984291
-14.988228 21.941162 -50.821156
-12.706453 23.033087 -52.184196
-15.527752 22.266384 -49.842613
-14.245718 22.213682 -51.350361
-16.484653 24.601131 -49.694588
-15.208138 22.122116 -50.209751
-11.786751 25.517578 -53.223328
-16.351776 22.834702 -49.452126
-16.710396 23.224022 -49.467484
-12.69364 27.206837 -52.209778
-12.646894 26.716825 -52.72596
-16.608406 21.164701 -50.298893
-17.628853 22.692633 -49.754776
-14.356337 22.32309 -52.204159
-16.945271 23.753887 -49.580345
-17.29052 21.366158 -50.007065
-15.254951 21.562326 -51.786827
-15.926107 21.349936 -50.711941
-16.308151 25.756187 -50.732677
-13.315031 24.274551 -53.222076
-18.263626 19.7945 -50.634537
-14.65774 26.610733 -51.969727
-15.586586 26.307766 -51.440968
-13.74304 23.335739 -52.915447
-13.567575 25.136974 -53.231876
-14.932875 22.509052 -52.849823
-17.583693 22.146101 -49.794125
-13.891891 23.700275 -53.125294
-17.376026 20.146519 -50.583664
-13.96953 25.596874 -53.083969
-16.026958 20.765305 -51.666801
-16.757118 25.413591 -52.177723
-14.304266 25.921127 -52.864357
-17.512562 24.534893 -50.404671
-13.886913 24.444946 -53.281891
-18.08197 18.939247 -50.93988
-17.063351 25.337017 -51.258087
-17.78577 23.914469 -50.184906
-14.754089 26.087109 -52.616478
-15.064125 24.215555 -53.337955
-18.073914 24.146297 -50.805641
-15.263824 26.11249 -52.34264
-16.485048 19.972977 -51.667488
-16.903152 20.070875 -50.952736
-17.516909 19.085079 -51.032352
-18.659847 21.291965 -50.358463
-18.308392 23.048172 -50.192215
-14.960381 23.11091 -53.197227
-17.226147 18.354019 -51.488316
-17.822823 16.493097 -51.85453
-15.858765 21.090805 -52.416901
-17.524689 16.574944 -51.937683
-19.021095 19.669767 -50.939491
-16.647829 24.569492 -53.0522
-16.544247 19.029602 -52.26445
-15.56522 21.800022 -52.753399
-15.203007 23.65707 -53.349052
-16.401772 19.642467 -52.619324
-16.745173 17.942593 -52.317322
-16.262125 20.408314 -52.781715
-16.956781 24.879837 -52.710308
-17.682259 24.84585 -51.590336
-17.015694 17.142929 -52.175888
-15.815346 22.217815 -53.191132
-16.611202 17.931067 -52.719997
-19.087315 21.810749 -50.707687
-16.656065 16.370955 -52.935413
-19.409706 20.670162 -51.118813
-18.756283 23.44371 -51.217609
-16.31295 23.236277 -53.488064
-17.152355 14.677207 -52.691334
-17.050947 15.867105 -52.480087
-18.387741 23.921619 -52.4076
-16.966236 23.313244 -53.480049
-17.926277 14.82589 -52.41193
-16.53875 18.561806 -53.031429
-16.777313 15.448996 -52.880589
-16.042671 22.758389 -53.415112
-16.472069 15.271671 -53.604687
-16.714167 17.888363 -53.868294
-16.497101 20.954044 -53.363926
-16.625645 19.764629 -53.387329
-16.445576 14.462212 -53.617435
-16.788883 13.090894 -53.330101
-18.513412 16.306595 -51.941383
-16.437664 12.437321 -53.794006
-16.890614 19.738037 -53.750618
-17.822161 23.80035 -53.017345
-16.672173 21.785999 -53.571701
-19.612991 20.565708 -51.410851
-19.308887 18.573578 -51.488804
-18.352348 24.128626 -51.788952
-16.51482 16.127949 -53.752106
-17.48472 13.213037 -52.982269
-19.216486 22.829376 -52.039894
-16.332054 13.056424 -53.890644
-17.09399 11.657079 -53.571465
-16.848095 12.056567 -53.52351
-16.318487 14.256527 -54.116676
-16.190733 10.425316 -54.396973
-16.464977 9.7872429 -54.29763
-19.423668 17.349506 -52.099907
-15.941624 11.558363 -54.849579
-19.399326 22.27441 -51.350937
-17.529015 11.036848 -53.794971
-17.061722 22.188915 -53.666855
-16.636786 16.556099 -54.097076
-18.232315 13.660294 -52.890511
-18.603546 23.484085 -52.647087
-17.446356 22.729652 -53.614189
-18.942902 15.420504 -52.523743
-15.960518 10.823688 -54.648727
-16.236858 9.0225296 -54.640251
-16.506849 14.98863 -54.572937
-15.452787 7.8027411 -55.639961
-17.143826 17.890301 -54.385841
-19.755524 21.239712 -52.651146
-16.597898 8.9306612 -54.553673
-17.096191 10.123744 -54.093246
-16.84458 16.559412 -54.48233
-17.637627 20.16272 -54.153572
-19.752264 18.492458 -52.158199
-15.556585 8.9283905 -55.478004
-16.303329 13.097356 -55.157227
-17.133781 20.778099 -53.849487
-15.724134 10.266187 -55.437798
-15.458673 6.9062567 -55.770683
-16.032055 12.065487 -55.030655
-15.997416 6.2587929 -55.635139
-18.971485 14.387107 -53.107742
-17.76449 11.047809 -53.884972
-16.519526 7.400291 -55.151817
-19.57756 16.790573 -52.638325
-19.315582 15.261189 -53.113403
-18.280787 12.023792 -53.747593
-15.162354 6.625524 -56.371567
-19.817059 20.411758 -51.897442
-15.503126 5.8328609 -55.998352
-15.688704 9.6401806 -56.013527
-16.535461 13.939182 -55.126778
-18.437603 20.661335 -54.067451
-17.499813 18.960217 -54.359879
-16.896999 7.895052 -55.026878
-15.093676 4.989768 -56.692719
-15.352648 7.896225 -56.385704
-17.242102 17.047264 -54.699387
-19.492428 22.132265 -52.454273
-16.874989 14.197475 -55.356995
-16.142454 11.598627 -55.705719
-19.078449 21.609682 -53.471127
-19.33445 22.065598 -52.936398
-18.53616 22.266495 -53.551308
-17.42992 16.758467 -54.876289
-15.537514 4.7093892 -56.372803
-15.498793 8.1833401 -56.569145
-16.447479 11.845549 -55.928436
-17.698338 9.6099329 -54.613861
-19.938202 19.684031 -52.73999
-19.675926 16.551853 -53.460606
-18.457382 11.671604 -54.212997
-18.302114 16.452911 -55.064552
-17.840183 16.919086 -54.943115
-16.902428 13.1192 -55.733879
-15.989491 9.9060669 -56.337524
-19.890438 18.333645 -52.851048
-14.925766 4.2576461 -57.302063
-17.622025 8.8010082 -55.106964
-17.030111 6.9978418 -55.635735
-15.186478 3.433455 -57.183701
-15.421602 6.7241111 -57.247498
-19.861404 18.43145 -53.252697
-19.123203 13.922124 -54.44706
-15.88271 4.7544742 -56.290512
-18.841442 12.723883 -54.349701
-14.999014 5.2885461 -57.218719
-15.063025 4.7488308 -57.750145
-19.689022 19.629971 -53.544174
-17.38949 13.285982 -55.814293
-16.913282 6.0562553 -56.192978
-15.440292 2.6025791 -57.506752
-19.656017 16.492949 -53.731834
-15.698612 3.5558038 -56.868698
-17.610392 14.84833 -55.439316
-16.291368 10.170539 -56.461754
-19.33997 20.358107 -53.764866
-17.969772 9.5616798 -55.173744
-17.680626 8.5821075 -55.520416
-16.596457 10.643416 -56.426979
-15.754114 7.1159091 -57.33725
-15.927725 2.1856971 -57.738556
-19.545094 17.00242 -54.084297
-19.252556 18.257256 -54.28746
-16.436157 5.035542 -56.329811
-18.600407 11.78754 -54.954765
-18.875311 18.1542 -54.53521
-18.231812 15.009897 -55.348419
-16.839973 10.054372 -56.630569
-19.233719 14.861308 -54.481712
-15.074732 2.5908651 -58.009186
-18.779003 12.866065 -55.048248
-17.061613 6.243969 -56.487373
-15.486473 4.835928 -58.089363
-17.706667 13.391645 -55.789299
-19.15773 16.906887 -54.53891
-18.962784 17.366547 -54.638298
-16.381109 8.2605371 -57.111618
-19.145985 15.51544 -54.653534
-17.255512 10.436009 -56.481468
-17.743616 9.1435766 -56.137527
-18.384392 14.110415 -55.412918
-16.711355 8.1914873 -57.086838
-18.241611 11.747353 -55.707748
-15.036016 3.083168 -58.320267
-17.741327 12.292662 -55.996025
-17.605263 8.3199387 -56.147636
-17.596638 10.398423 -56.323349
-15.920097 5.406426 -57.949646
-16.246445 2.6820588 -57.59169
-16.598846 4.371913 -57.026642
-17.321678 9.0968199 -56.657372
-15.602402 1.8361731 -58.090775
-16.480949 3.1992412 -57.809166
-16.749411 5.0038838 -57.262276
-16.749235 7.2112741 -57.25367
-17.104961 7.1519613 -56.937675
-15.213146 3.289001 -58.530205
-16.249063 4.866581 -58.03315
-16.649424 5.1480398 -57.575661
-15.238302 2.0802379 -58.495003
-16.455309 3.9938779 -58.059914
-15.560091 3.0255871 -58.844887
-15.830423 3.349133 -58.729874
-16.123878 1.3727541 -58.488007
-16.676336 0.78368855 -59.27446
-16.289242 3.2760768 -58.551521
-15.333788 2.3656459 -58.935593
-16.605259 2.454493 -58.571495
-16.638145 1.7738256 -58.481186
-16.259203 2.5960979 -59.109344
-16.375891 1.6495018 -58.293808
-15.926512 1.2691383 -59.418892
-15.762512 1.3410769 -58.799019
-16.845037 1.8151484 -59.831558
-16.579464 0.78363323 -59.907333
-16.973125 1.8412008 -59.367706
-16.121103 1.4167957 -59.763206
-17.707066 0.67281246 -59.966866
-17.139923 0.55014515 -59.855911
-16.386652 1.7222967 -59.820671
-17.429985 1.2323227 -59.539597
-17.157721 0.93361855 -60.624001
-17.576962 1.4114885 -60.60939
-17.794249 1.3834801 -60.117119
-17.622038 0.51236057 -60.577644
-18.599859 1.2045565 -60.617722
-18.708227 1.1593781 -61.613686
-18.334621 1.4404087 -60.792397
-18.415873 1.398509 -61.226456
-18.473091 0.61707401 -60.782433
-18.378122 0.66096783 -61.216812
-18.928188 1.5820513 -61.376366
-19.434544 1.6357584 -61.372284
-19.321491 1.5151787 -61.924171
-19.721481 1.2926397 -61.380203
-19.532658 0.95820045 -61.637833
-19.421988 1.2658987 -61.979622
-21.481756 2.231638 -62.474167
-20.388697 2.1833692 -62.062088
-20.532257 1.9258404 -61.870163
-21.035488 2.3218079 -62.814362
-20.724457 1.7413855 -62.466866
-20.264103 2.1166272 -62.303261
-21.940071 2.6853919 -63.075111
-21.948427 3.2716818 -62.929787
-22.142845 3.229279 -63.295624
-21.790724 2.798059 -62.552086
-22.7827 3.4657092 -63.003036
-23.017223 3.9961691 -63.233864
-23.552292 4.0445871 -63.366852
-23.2729 3.7558088 -63.635323
-22.674171 3.1405802 -63.102859
-23.958786 4.9343848 -63.711067
-23.457607 4.458601 -63.808517
-24.37162 5.2891612 -64.168587
-24.356781 4.9184809 -64.16597
-24.874866 5.2547278 -64.267998
-24.424103 4.715106 -63.887535
-24.669395 5.340745 -63.821487
-25.526371 5.8368459 -64.176163
-25.42691 6.2677498 -64.587799
-25.763893 6.6667919 -64.399841
-26.082199 6.5694709 -64.759476
-26.093403 6.9906168 -64.667664
-26.30257 6.7780228 -64.432831
-2.7760658 25.510893 -42.730492
-3.0857487 25.967087 -43.313938
-4.7589006 23.753328 -39.29985
-3.5509281 23.617067 -40.436951
-3.6312084 23.327042 -41.497086
-3.2232933 24.110172 -40.366917
-4.8425922 21.962132 -40.395042
-4.4785175 21.936897 -40.913734
-7.3422356 18.094683 -41.734512
-3.184782 24.379116 -41.996143
-4.0604534 22.448753 -41.451233
-5.4088936 20.024448 -41.496101
-4.4094486 21.738289 -41.506744
-3.5730286 23.964878 -42.557919
-7.0152931 22.303238 -39.985546
-5.0340767 20.160057 -43.084938
-3.5369358 24.663797 -43.100418
-5.1834259 20.020332 -41.880993
-7.5968418 23.171638 -39.931984
-4.3165436 22.152414 -42.733337
-7.4630661 24.593517 -39.62854
-3.9763184 23.603865 -43.239315
-5.2484245 19.612185 -42.360291
-6.0401497 19.920052 -41.085781
-5.9443836 19.233685 -41.610764
-6.170536 17.468039 -42.895149
-4.0113029 24.956188 -43.626633
-6.5501328 17.852089 -42.144646
-8.3716316 19.936291 -41.260681
-6.4628105 16.352314 -43.653412
-4.5860806 22.046341 -43.571701
-7.6523056 18.900995 -41.399456
-5.0958862 20.402409 -43.859123
-8.5760803 23.168098 -40.775528
-4.5312538 22.925152 -43.785934
-4.8297176 24.456398 -44.050369
-7.1624794 17.259411 -42.192139
-4.517807 23.680962 -43.864067
-6.5941162 16.884132 -42.817337
-8.2757721 24.441092 -40.492214
-8.1521873 17.091604 -42.156853
-7.1572933 16.229052 -42.756107
-8.4562225 24.539642 -40.899197
-5.1272068 20.852011 -44.215721
-6.8325119 15.280275 -44.519302
-5.025135 23.304676 -44.252262
-5.4279442 25.206902 -44.025116
-8.6058502 17.633499 -42.084187
-7.756237 16.631985 -42.353931
-5.1739197 21.325523 -44.391907
-6.3908978 16.815525 -45.220234
-5.1865673 24.888905 -44.072075
-7.5197105 14.229115 -43.942436
-8.7725239 23.563118 -41.224754
-9.2477531 19.319014 -42.022041
-5.7840385 23.122513 -44.61898
-5.4096432 22.028648 -44.62561
-6.0901394 23.327713 -44.617867
-5.8797836 21.400925 -45.009762
-8.7535954 24.060486 -42.501595
-8.6226349 15.700191 -42.64624
-9.3438301 22.113363 -42.454357
-9.1931 21.427406 -41.734612
-9.6784077 18.358562 -42.623348
-8.4604721 24.135517 -43.100777
-7.1828499 21.839725 -45.124557
-7.7703609 14.804733 -43.219906
-5.8933563 20.106426 -45.171947
-6.2021427 18.038982 -45.37133
-9.0340309 22.790661 -43.248638
-9.4157562 21.401836 -42.248627
-6.4972782 16.717199 -45.498535
-9.1670437 17.634857 -42.338699
-9.2523842 16.376373 -42.648994
-9.724762 20.479208 -43.052898
-8.4997673 22.894983 -43.959972
-8.4160957 13.712119 -43.388889
-6.7535343 20.2868 -45.613876
-9.475378 21.646778 -42.90432
-8.4805756 21.770376 -44.649216
-9.5678864 17.018585 -42.721668
-7.5198479 14.014418 -44.243034
-9.2833672 12.119081 -43.536812
-8.5448227 14.71637 -42.972141
-8.1900101 13.127747 -43.986275
-9.464592 14.854977 -42.965633
-6.824358 15.672297 -45.369453
-9.6972198 12.338491 -43.248371
-9.4219589 20.450624 -44.489414
-9.8510017 15.55328 -43.048351
-6.4314346 18.338097 -45.698185
-9.5925407 20.865736 -43.654663
-7.861084 20.796255 -45.419182
-10.231857 17.980339 -43.555546
-6.623457 18.743153 -45.855762
-7.4501705 15.086565 -46.272301
-7.9975777 13.036069 -44.909126
-9.4469624 13.392745 -43.145973
-7.1311722 20.233112 -45.704685
-8.2240925 12.693621 -44.636162
-8.9841557 11.909506 -43.974327
-10.079681 17.338593 -43.208473
-6.8520679 16.909962 -46.045353
-9.1953011 11.408319 -44.188297
-7.0851593 18.877438 -46.043278
-7.8784313 13.732864 -45.964237
-7.708128 16.812956 -46.57972
-10.506187 9.7743893 -43.452259
-8.3630085 12.453243 -44.867477
-10.411268 12.108356 -43.063938
-10.165239 14.415022 -43.203529
-10.452795 11.040138 -43.071877
-10.79661 12.562687 -43.10743
-10.363148 16.186871 -43.443443
-10.134262 18.897085 -44.010845
-10.769211 14.725439 -43.60495
-9.7984428 18.360685 -45.407722
-8.6246986 20.163446 -45.375484
-11.444063 8.4985971 -42.961136
-11.476685 9.6928034 -42.61409
-10.324986 10.434869 -43.314529
-12.409859 8.9465322 -42.165077
-11.259558 13.432038 -43.496155
-12.179043 8.3943558 -42.251305
-10.280382 18.203138 -43.893818
-11.346962 12.585239 -43.211323
-10.983822 10.918076 -42.859665
-10.777466 9.0851164 -43.960968
-11.861496 10.94201 -42.769615
-13.604834 7.1073418 -41.427841
-12.653839 7.3921161 -42.049576
-14.050983 5.4132981 -41.359055
-9.7378082 10.884876 -45.597652
-14.002995 6.0062361 -41.180042
-10.623318 16.377565 -43.884163
-13.568769 8.1754456 -41.754196
-12.332829 10.21334 -42.530182
-10.707718 16.62595 -44.986294
-8.293539 13.234491 -46.228035
-7.8489475 15.531399 -46.654827
-10.613567 16.545221 -45.37355
-12.773586 9.8942566 -42.446716
-15.101139 5.284524 -40.547882
-14.916477 4.9465642 -40.662716
-14.335522 7.121644 -41.271259
-12.011992 7.5379667 -42.979534
-12.116186 11.948501 -43.302452
-7.9502296 17.682364 -46.479156
-13.810501 5.4594631 -41.870304
-9.1139278 11.794047 -45.792233
-8.1960201 16.097631 -46.776134
-15.092972 5.8839979 -40.716873
-12.486849 6.942739 -43.184696
-8.5576782 17.510479 -46.473877
-11.038919 15.400539 -44.27227
-10.796642 9.4297724 -45.115158
-10.644033 16.934227 -44.507111
-15.850945 3.6881361 -40.299644
-12.988592 10.775397 -43.117149
-8.6038513 13.613681 -46.694038
-15.355831 5.9724731 -40.752533
-14.985767 6.9685678 -41.31345
-16.123192 3.9167809 -40.017235
-8.8541908 16.220634 -46.780315
-16.371021 4.2222452 -39.958061
-13.651073 9.1184244 -42.282181
-9.1379223 12.297765 -46.341434
-14.077497 5.2124181 -42.371914
-9.2508087 17.172722 -46.40934
-12.877941 11.459772 -43.685493
-11.642017 13.713292 -44.013924
-15.519146 3.7030711 -40.889717
-13.952089 9.0644512 -42.44846
-16.794579 2.8297162 -39.902885
-12.339628 7.4045753 -44.009079
-11.770004 13.906816 -44.518658
-17.21384 3.2145109 -39.522877
-17.837637 2.370748 -39.347816
-10.291887 16.520361 -45.900177
-13.802132 5.8666048 -43.19249
-17.523121 3.6218591 -39.676384
-9.7373085 11.912766 -46.44186
-13.914404 9.4992523 -42.905506
-16.00955 5.8851342 -40.9226
-11.167713 15.326068 -45.190311
-10.323568 10.565345 -45.882599
-17.698605 2.0222301 -39.693233
-16.790136 4.7234859 -40.271984
-9.8126907 16.611591 -46.346275
-8.8228416 14.849335 -46.936192
-16.108265 3.2405639 -41.086514
-9.9633656 15.9145 -46.488472
-16.361086 5.6878481 -41.131325
-15.072468 7.6002221 -42.023232
-9.5399609 15.671682 -46.801449
-14.817394 4.6075988 -42.193504
-16.593382 2.7634759 -40.600445
-14.314653 5.7553358 -43.286064
-16.423899 3.133728 -41.200413
-10.723495 14.841196 -46.353127
-10.605034 10.788816 -46.140392
-11.483921 8.9635525 -45.215729
-9.535902 13.069105 -46.876572
-15.262096 4.3901262 -42.192299
-12.814575 11.866749 -44.413261
-15.381973 7.261107 -42.31633
-9.6411495 14.346397 -46.962311
-13.001404 7.1502481 -44.202534
-14.99474 7.8835993 -42.859798
-14.044102 9.5494833 -43.538857
-11.604794 14.330067 -45.154663
-19.127247 2.3262029 -39.215733
-18.061392 3.5693431 -39.891788
-17.940228 1.7640667 -40.031864
-16.499266 5.5993361 -41.52467
-12.644165 8.414197 -45.058975
-15.556587 4.689352 -42.487053
-10.245083 12.525088 -46.799294
-12.443287 12.483356 -45.174301
-11.36834 14.369788 -45.823704
-19.150341 1.3232183 -39.150894
-12.462223 11.939823 -45.568516
-13.454361 10.602778 -44.397385
-13.837076 6.9060898 -44.08427
-15.627808 6.8013382 -42.48904
-17.567959 2.7372561 -41.043877
-11.601799 9.7782679 -45.797737
-17.155499 4.6822 -41.196468
-17.93504 2.0186172 -40.529953
-11.16091 12.006305 -46.556892
-10.876457 13.917394 -46.558311
-11.435099 13.757298 -46.11824
-16.72179 3.3571959 -41.522949
-12.978512 11.243196 -45.080605
-12.704193 8.9528522 -45.307381
-18.401281 3.2260389 -40.454514
-18.999725 1.1309977 -39.581879
-11.000792 12.999271 -46.652596
-14.174248 9.1810942 -43.954498
-15.290939 7.076355 -43.087494
-13.5947 7.7135391 -44.542412
-18.765198 2.9732389 -39.840176
-15.331921 5.8814468 -43.09589
-18.609344 1.9143867 -40.523026
-17.006529 4.5643392 -41.571857
-20.025637 1.7742167 -39.126526
-11.519747 10.911784 -46.252144
-19.444242 0.88966942 -39.767284
-17.412333 3.47651 -41.339767
-18.784857 2.0538688 -39.099976
-17.940296 3.3795252 -40.966034
-15.806604 6.0232382 -42.66185
-14.272198 8.0712395 -44.214348
-16.524694 4.5525141 -42.053951
-13.768974 9.575738 -44.547626
-14.695419 6.456768 -43.610771
-11.82811 11.668142 -46.243305
-20.645924 0.83179092 -38.851814
-12.85915 10.495876 -45.473454
-11.800491 12.549651 -46.163162
-13.367094 8.7078953 -44.963612
-18.861425 2.5833411 -40.438648
-12.279722 10.312099 -45.866302
-20.00824 2.008337 -39.52327
-13.502081 9.5135117 -44.94442
-20.21917 0.54232407 -39.259247
-18.56048 2.3356628 -40.641579
-20.953533 0.46345901 -38.885906
-20.046772 1.6203766 -40.09771
-20.017473 1.268487 -40.147335
-19.808208 0.91091824 -40.003254
-21.70719 0.95443916 -39.454414
-19.891861 2.008728 -39.862568
-21.553997 1.0363207 -39.204456
-21.690954 0.17186832 -39.728397
-21.652809 0.11890697 -38.842712
-21.107769 0.082778931 -39.28109
-21.583723 -0.062904358 -39.470261
-22.620834 0.4373312 -38.956894
-22.056564 0.44993877 -38.808517
-23.059479 -0.55068111 -38.949097
-21.942295 0.50457668 -39.718056
-24.139816 -0.51950741 -38.74295
-22.529495 -0.23588753 -39.536747
-22.916969 0.3843317 -39.324417
-22.915287 -0.035399437 -39.601982
-24.641769 -0.2325182 -39.043762
-23.884693 -0.13648129 -38.829639
-24.491005 -0.59599018 -39.459801
-24.797401 -0.91841793 -39.341999
-24.350346 -0.78951359 -38.827377
-24.663864 -0.30534935 -39.319859
-25.565521 -0.56498337 -38.889755
-24.268955 -0.93426609 -39.14267
-25.775303 -0.5623951 -39.325611
-27.232944 -1.0820351 -38.91494
-25.881145 -1.1363192 -38.919315
-26.646263 -0.86761665 -39.472862
-26.205624 -1.2318144 -39.215652
-27.853981 -0.88392925 -39.113155
-27.398605 -1.306715 -39.38076
-28.25317 -0.85431957 -39.394695
-27.976776 -1.1462078 -39.521839
-28.074032 -1.4347067 -39.268848
-29.191063 -1.35882 -39.225178
-30.120842 -1.323493 -39.720051
-29.632866 -0.90249634 -39.474365
-29.936214 -1.0939159 -39.762905
-30.270466 -1.0551252 -39.342655
-31.644543 -0.86607075 -39.848572
-31.952728 -1.1787033 -40.041649
-30.934292 -1.4046497 -39.60294
-31.783581 -0.90014935 -39.668209
-31.651676 -1.1590014 -39.574936
22.409271 17.169037 -61.21785
22.093405 18.969507 -61.186668
21.36235 20.170059 -60.731018
21.991697 17.019535 -61.013809
21.288786 18.487186 -60.663689
23.573532 13.277378 -62.792076
23.453064 16.188955 -62.332184
23.451334 16.527214 -62.569199
23.07906 16.016121 -61.746811
22.848089 18.105371 -61.998596
22.515944 15.301487 -61.529068
22.660107 17.781155 -61.527023
23.643621 14.380459 -62.543121
21.253769 16.884766 -60.961525
21.905092 19.839901 -61.197861
22.570087 19.230333 -62.583115
21.408115 19.028242 -60.657349
20.978601 20.350677 -60.493614
21.969543 15.332716 -61.366432
23.456772 11.801401 -63.543976
23.207666 13.700983 -62.289139
22.105564 19.669544 -61.438995
19.99325 23.929478 -60.285965
22.531816 13.878231 -61.973396
23.836535 15.157312 -62.945663
23.596224 16.222067 -63.265945
21.255508 22.109192 -61.587257
20.052063 22.911688 -60.134766
19.660999 21.000767 -60.102234
21.600178 13.636102 -62.174271
19.251942 23.138397 -59.713043
19.510803 23.467157 -59.799713
24.069534 13.081842 -63.691551
23.948729 14.821624 -63.892593
19.314077 22.425716 -59.79776
20.694592 15.436333 -61.592575
22.622149 12.437395 -62.735458
23.577169 16.093071 -63.864029
23.120508 11.037988 -63.951965
22.667906 11.105732 -63.754028
18.454493 22.706581 -59.698082
18.653646 23.47673 -59.483047
23.761091 11.979452 -63.712051
23.881918 10.920182 -64.825706
22.506298 18.729689 -63.886078
18.482313 21.240326 -60.168732
24.158611 13.656252 -64.295761
20.616066 23.694387 -61.630249
17.832678 23.861971 -59.30954
24.044567 13.655842 -65.00473
21.601391 12.228713 -63.068909
23.69515 10.722494 -64.69281
18.895966 19.377449 -60.679916
23.484251 15.970646 -64.327934
20.849628 13.877412 -62.322151
19.954803 15.772169 -61.828751
21.65449 10.938905 -64.003693
21.182022 22.292549 -63.042282
17.355072 22.813808 -59.819916
23.073528 16.689266 -64.501335
18.927008 18.35059 -61.060402
15.779659 24.5667 -59.233109
20.632999 14.02816 -62.38736
21.466679 11.639591 -63.559731
20.863073 13.319745 -62.729691
16.045645 23.909588 -59.590004
24.1329 11.874179 -65.113846
22.189728 18.778126 -64.363594
18.126316 19.729656 -60.848236
24.067801 12.39922 -65.669167
23.61549 13.960281 -65.536369
17.564369 21.213509 -60.430923
20.471146 23.221397 -63.673927
23.46854 9.8887854 -65.19841
22.812504 16.40209 -64.967117
22.832764 9.766058 -64.820999
18.4606 18.689091 -61.200211
23.880707 10.278534 -65.96167
23.618534 9.4582033 -66.065231
19.44128 16.180092 -62.0812
22.671833 8.1284838 -66.335625
22.254875 17.839947 -64.762238
20.970041 11.835089 -63.867676
19.982147 14.424295 -63.221542
20.364056 23.921135 -63.102478
23.981615 10.920225 -66.158646
19.438923 15.796991 -62.572464
23.101284 14.904066 -65.483406
18.091003 18.836655 -61.527977
23.508774 11.866004 -66.768799
17.201212 21.141943 -60.669037
16.654985 22.562275 -60.145798
21.266933 19.860962 -64.648949
22.049984 17.451073 -65.015976
20.853291 21.724117 -64.186142
17.248745 20.502523 -61.094475
19.229816 16.152773 -62.65712
23.075436 8.5200634 -66.245468
22.707071 15.151147 -65.562973
18.056335 18.484543 -62.17421
23.254086 8.0939016 -67.251076
21.770981 16.692879 -65.291412
21.598076 18.162151 -64.98613
21.308762 10.075572 -64.880707
23.395891 13.159424 -66.224823
19.586178 15.345045 -63.191948
20.95562 11.290446 -64.364624
20.674255 11.943752 -64.522354
20.446728 13.01484 -63.851074
15.920856 23.240448 -60.162567
21.077431 18.013935 -65.113235
21.522163 9.6823874 -65.041542
14.792107 24.919222 -59.653015
22.843784 13.879311 -66.141998
19.96162 23.866386 -63.845139
15.356037 23.593975 -60.488907
20.146343 22.097757 -64.533249
16.874607 20.786869 -61.391441
16.399521 21.83831 -60.934937
20.567184 21.782108 -64.392395
18.209106 18.177366 -62.87027
21.997658 8.771946 -65.631119
19.486607 24.25334 -64.028519
21.786522 15.144686 -65.679062
23.200375 11.208652 -67.369858
19.065758 16.585428 -63.469727
20.548546 20.16827 -64.860764
22.297592 7.678957 -66.620842
20.414688 13.081284 -64.249374
22.153938 14.48683 -65.957947
20.088829 14.33597 -64.140274
23.624359 9.2286148 -67.221191
20.918476 15.698236 -65.290787
21.159336 8.4553709 -66.255005
19.598408 15.692242 -63.910355
21.158924 16.697554 -65.24556
16.670391 20.950058 -61.713333
20.526913 13.010519 -64.960999
20.415508 14.173843 -64.816238
14.631298 24.895477 -60.014725
23.191757 7.9245682 -68.264038
21.281479 14.363066 -65.661255
20.145447 15.629353 -64.677139
18.376747 18.107849 -63.36319
19.426224 17.329859 -64.403519
23.392181 8.9467831 -67.921463
18.381207 18.709911 -63.799408
16.021965 22.080141 -61.614349
20.763523 10.411967 -65.542664
22.664566 7.0163159 -67.681892
16.543308 21.128592 -62.049622
20.630947 11.664111 -65.382553
22.416832 12.626413 -66.865784
21.788914 6.8509493 -67.400024
20.449379 16.709677 -65.037186
20.177906 17.940395 -64.977127
19.914063 18.789371 -64.939278
19.443275 20.232685 -64.859787
19.700855 22.736301 -64.523842
23.146912 9.1128883 -68.325592
21.017994 13.922738 -65.60183
20.792507 13.195607 -65.544632
22.854557 11.83672 -67.203423
21.956127 12.681554 -66.774567
19.287312 19.336481 -64.748123
19.023045 18.43726 -64.370064
20.820381 12.137128 -66.05056
14.903713 24.16386 -61.200638
15.96674 22.249027 -62.182816
20.866661 8.8961134 -66.268311
18.627502 23.98069 -64.455566
22.057304 6.2975092 -68.051865
21.214016 7.4130287 -67.047684
21.466373 12.76664 -66.496338
17.759892 21.78261 -64.386597
22.435291 9.9063492 -68.468216
20.733463 10.676227 -66.684319
15.684238 22.968578 -62.387955
15.250973 23.682674 -61.945641
20.841518 7.504354 -67.28476
18.358662 22.036079 -64.694542
21.64492 11.270245 -67.511353
20.615368 9.866415 -66.508408
17.865738 23.487122 -64.526703
20.970215 10.703181 -67.266098
20.689793 8.7666149 -66.724487
22.748409 6.7910781 -68.298721
14.700829 25.624714 -62.107315
21.891594 10.333423 -68.203568
23.04583 9.9257469 -68.109985
21.993912 5.3440781 -69.277855
21.09127 9.1608791 -68.707146
17.499947 22.994446 -64.429565
17.533844 25.220814 -64.235329
20.661671 9.3347616 -67.774902
16.547649 23.71126 -63.945541
16.716526 25.030174 -64.12468
22.582848 8.8641853 -68.99144
20.419533 7.987699 -68.006386
16.949203 26.095098 -63.943855
15.811775 24.886187 -63.492157
20.8092 5.5830231 -68.867439
15.863552 25.43754 -63.592979
14.932335 26.507212 -62.695633
22.783329 6.7185621 -68.947205
21.495285 9.3535318 -68.795517
22.777035 7.0002451 -69.31945
21.194187 5.9723992 -68.345474
22.811043 7.9450531 -69.156662
22.06443 5.0614271 -71.010025
22.105598 5.09519 -70.084579
22.297913 6.9888659 -70.137283
20.509483 7.4485421 -67.877182
21.774265 8.6725683 -69.347839
20.211437 6.1216021 -69.35965
20.701351 8.6385107 -68.657593
20.30901 5.3561268 -69.56987
21.473942 5.297616 -69.035049
20.437893 8.0396738 -68.625648
22.481586 6.4276981 -70.030807
20.231659 6.8596268 -69.33091
22.148602 5.1312418 -70.524689
21.971127 7.2228379 -70.272949
20.390553 7.165463 -69.717789
21.431435 4.1812568 -70.452866
21.298195 6.7679672 -70.797363
20.535316 4.0694289 -70.550568
22.1633 6.0845242 -70.676079
20.15443 6.0674467 -70.483307
20.462589 6.5672922 -70.5457
21.627159 3.6607051 -71.952682
21.652012 3.847096 -72.251892
21.052151 3.2220721 -71.592957
20.944977 7.1458349 -70.395233
21.395607 3.3356309 -71.791458
21.699986 5.496819 -71.535614
21.005657 3.903708 -70.643059
20.901337 5.7667508 -71.6203
21.215435 5.696023 -71.662872
20.542717 3.0251212 -71.777382
19.976696 4.9149799 -70.672806
21.557915 4.204237 -72.424294
21.456253 3.0427198 -72.913673
20.373146 5.0724139 -72.078262
19.785912 3.5341649 -72.44754
21.134804 4.5670209 -72.635925
19.866413 4.235281 -71.631668
20.072788 3.5301242 -71.573158
21.111073 2.1946168 -73.278694
21.289711 2.133256 -74.028809
21.360256 3.1089969 -73.440628
19.969349 4.6520691 -71.862442
20.245937 1.7234516 -73.813721
20.257446 2.2615089 -72.966209
20.07851 4.722909 -72.072182
20.464169 3.7963691 -73.494835
21.027676 3.1935048 -73.949677
20.697044 1.6680498 -73.728653
21.347126 1.4160328 -75.257713
20.739769 0.86324501 -75.093277
20.064072 3.3642912 -73.643127
19.938347 2.3841381 -73.262199
21.264675 2.1741142 -74.717163
19.825302 2.8974652 -73.635063
21.106827 1.4301853 -74.493309
20.472866 3.0902262 -74.269592
21.007401 2.312386 -75.124588
20.355091 0.91317177 -75.404251
20.545422 2.0666618 -75.562744
20.207222 1.7631912 -75.527161
20.177067 2.4370809 -74.815353
21.563896 0.231143 -77.096321
21.590244 0.59219456 -76.975967
21.387383 1.2239799 -76.471725
20.028233 1.6302643 -75.119049
21.17226 0.44775963 -76.141724
21.057274 -0.13428402 -77.374741
20.938557 1.5367613 -76.384895
20.730587 1.1631212 -76.863358
20.520336 0.46561813 -76.611572
21.416935 -0.11417198 -77.376053
21.937672 -0.20026398 -78.516052
20.47575 0.79540253 -76.834755
21.588242 0.60539818 -77.70845
21.999619 -0.74409294 -79.393356
21.067642 0.5081892 -78.099121
20.932907 -0.091618538 -78.05024
21.600655 -0.60995674 -78.666214
21.417389 0.48183823 -78.322586
22.119465 -0.14678001 -79.4487
21.469925 -0.64008808 -79.47908
21.106079 -0.036460876 -78.697067
21.334068 -0.13836193 -79.246696
21.861801 -0.91815758 -80.076767
21.771446 -0.21832848 -80.00193
22.388031 -1.1483679 -80.904861
