# .PCD v0.7 - Point Cloud Data file format
VERSION 0.7
FIELDS x y z
SIZE 4 4 4
TYPE F F F
COUNT 1 1 1
WIDTH 1559
HEIGHT 1
VIEWPOINT 0 0 0 1 0 0 0
POINTS 1559
DATA ascii
15.145489 52.525089 -40.103718
12.601608 52.483356 -39.103035
13.808006 54.369789 -39.452091
4.5641174 41.323219 -35.020782
12.685347 51.939823 -39.488716
11.423904 50.602779 -38.614269
10.973189 46.90609 -38.410881
8.8306007 46.801338 -37.333485
6.5825195 42.737255 -36.439705
13.575777 49.778267 -39.487431
7.020422 44.682201 -36.48035
6.0949345 42.018616 -36.038307
14.19813 52.006306 -40.106606
14.473255 53.917393 -40.034355
13.819748 53.757298 -39.753868
7.5238543 43.357197 -36.683456
12.060369 51.243195 -39.151051
12.384037 48.95285 -39.299107
5.6250563 43.22604 -36.086113
4.8211489 41.130997 -35.398102
14.377562 52.999271 -40.157612
10.613919 49.181095 -38.372799
9.3108826 47.076355 -37.82436
11.325883 47.713539 -38.790684
5.1145372 42.97324 -35.586891
9.273469 45.881447 -37.843079
5.4418154 41.914387 -36.206139
7.2614708 44.564339 -36.80439
3.7123394 41.774216 -35.223782
13.772644 50.911785 -39.905121
4.4397621 40.889671 -35.69223
6.8094263 43.476509 -36.685238
4.9039717 42.053867 -34.877007
6.2027245 43.379524 -36.460892
8.7026234 46.023239 -37.546684
10.586561 48.071239 -38.649143
7.8516636 44.552513 -37.145355
11.158895 49.575737 -38.840824
10.021544 46.456768 -38.175674
13.472498 51.66814 -39.976391
3.0420876 40.831791 -35.118977
12.277344 50.495876 -39.499622
13.478436 52.549652 -39.89183
11.654746 48.707893 -39.138622
5.176486 42.58334 -36.18988
12.938704 50.312099 -39.729122
3.8318291 42.008339 -35.602505
11.519394 49.513512 -39.155018
3.5597496 40.542324 -35.402077
5.5196953 42.335663 -36.308002
2.7537842 40.463459 -35.231522
3.9432869 41.620377 -36.167351
3.9844284 41.268486 -36.207699
4.1492729 40.910919 -36.014366
2.1729469 40.954437 -35.975719
4.0320625 42.008728 -35.900124
2.2562294 41.03632 -35.694626
2.2595444 40.171867 -36.236164
2.0671558 40.118908 -35.370785
2.7070847 40.082779 -35.65316
2.2963104 39.937096 -35.959068
1.1616707 40.437332 -35.731621
1.6683083 40.44994 -35.442257
0.73595619 39.449318 -35.837616
2.0140915 40.504578 -36.291225
-0.36092758 39.480492 -35.918106
1.3999729 39.764114 -36.268074
0.9707489 40.384331 -36.163265
1.0442104 39.9646 -36.430943
-0.76792145 39.767483 -36.338585
-0.092060089 39.863518 -35.935814
-0.51461792 39.404011 -36.701427
-0.84106636 39.081581 -36.666943
-0.54243279 39.210487 -36.05415
-0.71780777 39.694649 -36.610992
-1.7000599 39.435017 -36.428913
-0.38220978 39.065735 -36.337631
-1.7898827 39.437607 -36.904209
-3.3041458 38.917965 -36.884804
-1.9972763 38.863682 -36.539154
-2.5930557 39.132385 -37.271862
-2.2340012 38.768185 -36.909374
-3.8527184 39.11607 -37.236996
-3.3436012 38.693283 -37.377621
-4.1654377 39.145679 -37.612259
-3.8655586 38.85379 -37.663532
-4.0249786 38.565292 -37.444336
-5.1152496 38.641182 -37.691261
-5.8852634 38.676506 -38.40992
-5.4775009 39.097504 -38.046307
-5.6958389 38.906082 -38.40353
-6.12747 38.944874 -38.084106
-7.323782 39.13393 -38.928421
-7.5714931 38.821297 -39.194683
-6.7013054 38.595352 -38.507332
-7.5047646 39.09985 -38.790195
-7.4014969 38.841 -38.665955
50.418968 57.169037 -45.579407
50.105797 58.969505 -45.631042
49.281723 60.170059 -45.380127
49.962814 57.019535 -45.490402
49.193237 58.487186 -45.334129
51.950996 53.277378 -46.79866
51.715603 56.188957 -46.385612
51.775276 56.527214 -46.615005
51.202843 56.016121 -45.916985
51.044907 58.10537 -46.219978
50.602554 55.301487 -45.852409
50.74128 57.781155 -45.813126
51.954269 54.380459 -46.540054
49.236496 56.884766 -45.630882
49.926796 59.839901 -45.690582
50.927666 59.230331 -46.856529
49.306862 59.028244 -45.297119
48.849602 60.350677 -45.25013
50.032677 55.332718 -45.836731
52.032822 51.801399 -47.555161
51.46743 53.700981 -46.407555
50.182846 59.669544 -45.871628
47.844082 63.929478 -45.304596
50.732887 53.878231 -46.277496
52.244789 55.15731 -46.878952
52.095566 56.222069 -47.250519
49.400131 62.109192 -46.234848
47.861759 62.91169 -45.143318
47.475594 61.000767 -45.213104
49.884983 53.636101 -46.712646
46.979752 63.138397 -44.943054
47.25222 63.467155 -44.95977
52.662903 53.081844 -47.539108
52.598248 54.821625 -47.764572
47.061699 62.425716 -45.008797
48.859703 55.436333 -46.385162
51.01738 52.437393 -46.990211
52.231956 56.093071 -47.833145
51.813614 51.037987 -48.036278
51.325203 51.105732 -47.962234
46.205601 62.706581 -45.134995
46.342316 63.47673 -44.87574
52.37027 51.97945 -47.638748
52.775219 50.920181 -48.683182
51.203278 58.729691 -48.131607
46.35429 61.240326 -45.582405
52.905323 53.65625 -48.099678
48.793602 63.694389 -46.441864
45.504417 63.861969 -44.920631
52.978661 53.655842 -48.814003
50.117706 52.228714 -47.576492
52.560417 50.722492 -48.603149
46.88615 59.377449 -45.969109
52.262268 55.970646 -48.30529
49.198284 53.877411 -47.049744
48.206245 55.772171 -46.804749
50.410934 50.938904 -48.465675
49.705738 62.292549 -47.659309
45.175171 62.813808 -45.537224
51.910423 56.689266 -48.579086
47.01461 58.35059 -46.328598
43.501568 64.566696 -45.378166
49.005917 54.02816 -47.1688
50.114616 51.639591 -48.085449
49.31675 53.319744 -47.439911
43.850861 63.909588 -45.654053
53.092224 51.87418 -48.896545
51.021084 58.778126 -48.674789
46.186287 59.729656 -46.330894
53.173073 52.39922 -49.449783
52.701797 53.960281 -49.438583
45.535484 61.213509 -46.07325
49.182564 63.221397 -48.453415
52.472389 49.888786 -49.150169
51.778839 56.402092 -49.096558
51.760597 49.76606 -48.95018
46.600277 58.689091 -46.584358
53.068058 50.278534 -49.780746
52.841621 49.458202 -49.948639
47.775558 56.180092 -47.181511
51.997162 48.128483 -50.454842
51.187187 57.839947 -49.042984
49.714603 51.835091 -48.511444
48.593143 54.424297 -48.143013
48.931221 63.921135 -47.929169
53.216507 50.920223 -49.944893
47.900436 55.796993 -47.656647
52.191406 54.904068 -49.520515
46.32811 58.836655 -46.996613
52.917698 51.866005 -50.656631
45.24633 61.141945 -46.39724
44.58329 62.562275 -46.033195
50.20359 59.860962 -49.189255
51.054955 57.451073 -49.34111
49.684258 61.724117 -48.849274
45.402351 60.502525 -46.795876
47.72036 56.152771 -47.792534
52.363674 48.520061 -50.26329
51.831223 55.151146 -49.699394
46.461884 58.484543 -47.629807
52.796509 48.093903 -51.1884
50.856747 56.692879 -49.679367
50.610714 58.162151 -49.42923
50.303978 50.075573 -49.402283
52.66787 53.159424 -50.160416
48.203003 55.345047 -48.216911
49.829296 51.290447 -48.995193
49.598343 51.943752 -49.220367
49.204826 53.014839 -48.630844
43.878513 63.240448 -46.23941
50.140709 58.013935 -49.68676
50.551731 49.682388 -49.502403
42.656345 64.91922 -46.03936
52.113136 53.879311 -50.223312
48.734711 63.866386 -48.750664
43.417404 63.593975 -46.700813
49.091236 62.097755 -49.367523
45.117821 60.786869 -47.179558
44.540771 61.83831 -46.861572
49.461281 61.782108 -49.122551
46.789597 58.177368 -48.262604
51.16362 48.771946 -49.948822
48.323345 64.253342 -49.050751
50.972088 55.144688 -50.049789
52.775368 51.208652 -51.317032
47.772209 56.585426 -48.619919
49.564503 60.16827 -49.579788
51.709488 47.678955 -50.827202
49.276962 53.081284 -49.023865
51.399162 54.486832 -50.224075
48.933975 54.335968 -49.002831
53.146431 49.228615 -51.063705
50.033127 55.698238 -49.899399
50.515335 48.455372 -50.768433
48.400749 55.692242 -48.907669
50.253677 56.697556 -49.793488
45.003876 60.950058 -47.543335
49.56955 53.010521 -49.682205
49.424469 54.173843 -49.571198
42.594627 64.895477 -46.430367
52.998478 47.924568 -52.182983
50.479641 54.363068 -50.1633
49.127609 55.629353 -49.506744
47.079109 58.107849 -48.695343
48.36208 57.329857 -49.428596
53.103405 48.946781 -51.800201
47.196312 58.709911 -49.11554
44.351925 62.080139 -47.615555
49.948643 50.411968 -50.182808
52.338581 47.016315 -51.757111
44.968163 61.128593 -47.901054
49.779144 51.664112 -50.062469
51.888065 52.626411 -51.032928
51.419815 46.850948 -51.711487
49.514374 56.709679 -49.775864
49.23661 57.940395 -49.788116
48.971958 58.789371 -49.819839
48.496635 60.232685 -49.864899
48.658489 62.736301 -49.47374
52.971092 49.112888 -52.254036
50.209755 53.922737 -50.174095
49.97715 53.195606 -50.1772
52.398262 51.83672 -51.245773
51.419449 52.681553 -51.064064
48.317085 59.336479 -49.797409
47.963978 58.43726 -49.500626
50.135017 52.137127 -50.658684
43.164703 64.163857 -47.505363
44.445709 62.249027 -48.17894
50.236076 48.896114 -50.85704
47.604042 63.98069 -49.685593
51.847763 46.297508 -52.271652
50.773315 47.413029 -51.519943
50.874371 52.76664 -50.922081
46.748146 61.782608 -49.843521
52.320633 49.906349 -52.575989
50.215092 50.676228 -51.293335
44.225929 62.968578 -48.450211
43.692951 63.682674 -48.135101
50.474869 47.504353 -51.84536
47.406212 62.036079 -49.986008
51.30954 51.270245 -51.856293
50.055489 49.866413 -51.153992
46.886642 63.487122 -49.951462
50.594353 50.703182 -51.794022
50.183304 48.766617 -51.343445
52.579216 46.791077 -52.331238
43.203392 65.62471 -48.433655
51.726967 50.333424 -52.461075
52.817657 49.925747 -52.071945
52.103848 45.344078 -53.472275
51.084251 49.160877 -53.154633
46.508179 62.994446 -49.952309
46.490646 65.22081 -49.75592
50.428005 49.334763 -52.365341
45.463058 63.711258 -49.731255
45.672539 65.030174 -49.86058
52.598583 48.864185 -53.043198
50.254036 47.987698 -52.651611
45.850494 66.0951 -49.625694
44.634911 64.886185 -49.48378
50.853279 45.583023 -53.382477
44.711021 65.437538 -49.567764
43.579277 66.50721 -48.942009
52.780785 46.718563 -52.948578
51.497372 49.353531 -53.135437
52.871052 47.000244 -53.309769
51.090054 45.972401 -52.778648
52.861767 47.945053 -53.143723
52.620277 45.061428 -55.127174
52.420525 45.095192 -54.22261
52.619926 46.988865 -54.22374
50.307472 47.448544 -52.503525
51.90979 48.672569 -53.596718
50.403278 46.121601 -54.012619
50.694794 48.638512 -53.207687
50.551933 45.356125 -54.19043
51.53875 45.297615 -53.37233
50.432045 48.039673 -53.245026
52.769775 46.427696 -54.073349
50.415375 46.859627 -53.97963
52.575966 45.131241 -54.636589
52.339378 47.222839 -54.439362
50.668983 47.165462 -54.312202
51.864651 44.181255 -54.752838
51.825111 46.767967 -55.120071
51.024353 44.069427 -55.07914
52.629349 46.084522 -54.779015
50.63903 46.067448 -55.11274
50.952843 46.567291 -55.093254
52.441883 43.660706 -56.150894
52.543327 43.847095 -56.433464
51.793365 43.222073 -55.95224
51.379852 47.145836 -54.823067
52.176495 43.335632 -56.055084
52.404285 45.496819 -55.729179
51.502602 43.903709 -55.046738
51.65477 45.76675 -56.017685
51.969181 45.696022 -55.977509
51.349022 43.02512 -56.26223
50.516403 44.914978 -55.341789
52.497063 44.204239 -56.624344
52.52552 43.042721 -57.123367
51.263107 45.072414 -56.596741
50.791451 43.534164 -57.105423
52.143143 44.56702 -56.938278
50.658051 44.235283 -56.296524
50.842247 43.530125 -56.186592
52.286579 42.194618 -57.565292
52.653275 42.133255 -58.243607
52.569183 43.108997 -57.657211
50.817207 44.652069 -56.49279
51.589401 41.72345 -58.306
51.381165 42.261509 -57.484383
50.976929 44.722908 -56.66713
51.717659 43.796368 -57.94149
52.379692 43.193504 -58.235001
52.00312 41.668049 -58.107071
53.026802 41.416031 -59.415779
52.397575 40.863243 -59.414139
51.369576 43.364292 -58.188278
51.149544 42.38414 -57.852875
52.807251 42.174114 -58.914978
51.136856 42.897465 -58.242294
52.59684 41.430183 -58.739609
51.926582 43.090225 -58.687599
52.664196 42.312386 -59.375114
52.106495 40.91317 -59.814079
52.331356 42.066662 -59.917908
51.995476 41.763191 -59.971077
51.782116 42.43708 -59.291321
53.712051 40.231144 -61.135628
53.706352 40.592194 -61.012566
53.379898 41.22398 -60.578011
51.716953 41.630264 -59.623192
53.086689 40.447762 -60.314926
53.294754 39.865715 -61.53569
52.923882 41.536762 -60.610298
52.84684 41.16312 -61.126274
52.578579 40.465618 -60.937485
53.642494 39.885826 -61.443878
54.44054 39.799736 -62.410248
52.593281 40.795403 -61.164612
53.893997 40.6054 -61.720596
54.727444 39.255905 -63.241623
53.492249 40.50819 -62.232704
53.349449 39.908382 -62.22036
54.153877 39.390045 -62.642517
53.887917 40.481838 -62.358032
54.857529 39.853218 -63.264061
54.237984 39.359913 -63.461525
53.684135 39.963539 -62.800323
54.046612 39.861637 -63.272217
54.771202 39.081841 -63.937424
54.664555 39.78167 -63.888512
55.493828 38.851631 -64.601097
56.551273 39.05024 -65.529388
54.851952 39.419022 -64.346786
55.574394 39.519859 -64.503662
55.791809 39.09726 -64.511559
56.812973 39.185776 -66.060516
56.160461 38.709263 -65.609131
55.104565 39.090557 -64.603477
56.225159 39.261307 -65.73259
55.480492 39.40036 -64.988365
57.297638 38.843029 -66.430763
56.577705 38.69334 -65.80143
57.50531 38.617249 -67.26506
56.121914 38.948059 -65.89978
57.848255 39.055008 -67.226692
57.459839 39.017651 -67.229469
57.542763 38.584625 -66.943695
58.567345 38.776173 -67.800568
58.592075 39.027725 -67.992096
58.859413 38.601234 -68.360458
57.602825 38.817738 -67.483337
58.365204 39.033947 -68.141098
59.899078 38.917053 -69.147514
59.249733 39.12661 -68.821091
59.744537 38.984856 -69.534897
59.698307 38.694088 -69.266563
58.945225 38.721554 -68.772171
42.089806 68.032219 -47.527061
45.260742 62.281281 -40.115788
46.367577 62.013824 -40.808617
48.563171 58.99707 -42.463043
49.045055 58.794346 -37.282303
52.332809 57.062256 -39.623131
48.809238 58.354504 -37.561516
53.189117 56.54731 -40.379974
50.737087 56.812584 -38.960403
51.81221 56.789268 -39.37709
53.004147 57.637669 -40.379189
50.397331 56.526451 -39.195053
52.239319 55.739597 -40.034256
52.897476 55.372288 -40.485001
49.527603 57.26263 -38.504906
52.902832 54.701454 -40.867008
48.448914 57.990845 -37.964104
53.011356 56.085602 -40.298515
50.964104 56.222069 -39.441673
54.550858 56.625389 -42.337193
50.064465 56.24041 -39.690777
54.747475 54.964775 -41.812447
54.80302 54.042572 -41.945816
51.911839 60.189407 -40.800438
54.177414 53.387287 -41.936409
54.502045 53.738132 -41.873894
51.466728 55.042244 -40.633976
51.822777 55.048744 -40.523026
47.745487 57.623981 -39.555023
53.232517 58.587021 -41.800522
55.495544 53.052921 -42.608391
55.227489 52.608593 -42.594975
54.137909 52.595482 -42.445038
53.08215 53.929684 -41.441299
51.259842 54.694973 -41.37112
56.278141 51.544403 -43.445301
56.432663 52.566223 -43.490238
55.89518 54.108814 -43.040703
55.48737 55.257481 -43.156906
55.475697 50.820961 -43.406662
52.344292 54.032127 -41.534275
53.78894 57.915348 -42.583542
52.496979 59.071671 -42.701485
55.739784 51.380745 -43.217072
54.712425 52.045841 -42.758759
52.947693 53.173634 -42.274269
56.749355 52.859474 -44.234818
56.780716 50.113354 -44.041092
56.829193 53.021545 -44.732933
54.758736 56.664684 -43.496231
53.636898 57.856537 -43.248451
55.001572 56.242645 -43.160095
50.432365 55.125412 -41.599426
56.996346 48.787739 -44.416771
57.301003 51.185017 -44.647812
51.586113 54.124958 -42.143181
56.672188 48.682995 -44.319656
53.659019 52.120441 -43.088219
55.275925 50.251663 -43.742538
54.273079 51.794842 -43.043945
49.032719 56.281361 -41.002239
56.166233 48.984074 -44.164268
52.823997 52.893719 -42.854591
57.740971 47.435505 -45.141251
57.613739 49.72139 -44.921448
48.342239 56.823124 -40.935875
54.551117 51.024044 -43.547977
53.726761 51.626102 -43.664726
55.598557 55.221111 -44.378311
56.086205 54.536255 -44.336334
58.422764 44.19891 -46.097382
57.452065 51.109314 -45.169884
57.741104 45.434547 -45.466583
56.576836 47.981888 -44.522377
57.57618 44.98513 -45.516663
55.83358 48.376907 -44.527771
51.604771 53.796143 -43.118855
46.732338 58.418449 -40.263451
55.244484 49.412262 -44.253693
51.90604 53.652973 -42.731873
56.405128 46.731857 -45.037781
52.532406 58.819317 -43.058685
58.427582 45.426109 -46.060181
53.191818 58.090214 -43.433571
57.838352 49.553776 -46.104515
57.274261 51.834244 -45.239227
50.408951 54.958294 -42.309731
52.954063 52.2267 -44.016594
54.519993 56.447399 -44.220161
58.11927 48.205734 -45.881477
58.561733 42.896572 -46.393349
55.360828 48.531403 -44.776634
48.560966 56.854931 -41.888332
48.66478 61.383141 -41.757362
56.833645 52.715446 -45.603348
47.31879 58.01157 -41.114719
52.597343 57.574501 -44.209625
56.257935 53.856239 -45.276321
58.563118 44.236118 -46.258171
54.040337 50.81052 -44.289505
55.869034 46.985271 -45.285454
55.565186 54.884903 -44.995827
57.477798 43.857616 -45.892006
58.258911 42.635933 -46.317886
57.528664 50.749153 -45.948608
48.997215 56.265736 -41.724365
48.332924 60.94857 -41.881649
59.05732 42.50021 -46.953003
54.168671 56.271957 -44.757217
50.900852 58.614193 -43.478333
55.596237 46.627571 -46.025558
54.824501 49.19669 -44.897011
56.880512 44.522179 -45.824516
58.677258 44.900791 -46.559814
58.733139 41.023453 -46.964767
47.754082 60.696457 -41.738922
58.344345 47.070396 -46.508347
57.973362 48.594387 -46.5513
48.690857 57.110542 -42.318348
57.370262 51.001804 -46.182541
50.021225 58.20435 -43.346989
51.050224 54.401333 -43.343948
54.025913 50.460869 -44.905167
59.104256 42.895958 -47.231316
56.185173 53.130692 -46.086288
52.444954 52.822971 -44.175964
58.797821 44.420387 -47.148628
58.016411 41.791237 -46.657265
57.601463 49.288624 -46.798904
57.45623 42.792789 -46.377144
54.574989 49.199078 -45.461609
56.637177 43.994621 -46.416847
59.414291 40.194607 -47.4702
51.094765 54.637878 -43.842861
53.936317 56.111969 -45.004341
53.26194 51.699432 -44.688843
55.108959 54.874435 -45.529167
57.642822 41.616074 -47.080376
59.464638 41.01202 -47.425255
56.967392 51.685635 -46.296524
59.101784 39.632156 -47.671524
53.810833 50.803661 -45.025345
58.454792 45.674438 -47.242233
60.055511 39.791599 -48.087692
59.684578 40.94075 -48.050339
57.078529 50.391582 -46.848267
50.421467 56.591576 -43.807526
55.651894 53.305946 -46.257401
52.908367 55.748497 -45.180054
55.334244 47.224888 -46.258247
50.085793 56.237186 -43.496269
56.612885 51.216782 -46.802505
58.61319 44.333218 -47.700127
51.745251 53.928902 -44.293312
53.160049 52.147816 -45.258987
57.778831 40.998798 -47.493721
56.694527 43.493996 -46.917831
54.662888 49.043552 -45.989159
52.572037 52.896194 -44.817337
54.069489 50.387966 -45.658211
58.390163 40.469772 -47.301064
59.880566 38.953609 -48.124886
60.204536 39.865623 -48.449783
51.362854 55.093029 -44.436981
59.248215 42.137802 -48.002617
51.90081 54.275558 -44.723785
53.23835 52.343742 -45.526871
55.29895 47.541431 -46.548973
54.798244 54.249542 -45.972969
61.09433 38.247017 -49.081482
56.683502 50.115047 -47.154747
55.804138 52.244076 -46.703796
61.017471 38.72036 -49.043175
58.724396 42.742638 -48.291351
52.67403 53.852646 -45.351669
56.418049 44.23975 -47.096092
52.955513 54.739296 -45.47245
54.349892 50.773373 -46.395119
58.56971 43.855736 -47.959908
56.021259 45.51963 -47.051613
57.606918 47.386307 -47.513832
57.329285 41.819225 -47.500259
59.754242 40.429398 -48.834663
59.84745 38.540974 -48.480118
55.418831 51.897419 -46.810974
53.472366 52.44762 -45.840652
59.311916 38.856846 -48.340118
59.405266 41.231133 -48.496872
54.844627 51.615944 -46.734512
57.109367 47.442974 -47.659897
61.02879 37.855629 -49.31105
60.81945 39.098808 -49.138229
60.643707 37.770599 -49.426544
54.054459 53.73877 -46.102425
55.464928 47.721378 -46.994995
53.382347 53.71249 -45.814697
62.202477 37.306454 -50.26149
56.951225 42.925938 -47.595398
54.937714 50.820766 -46.842026
57.844471 44.764828 -48.087952
58.186081 40.182854 -48.144104
55.988945 50.335987 -47.204628
61.922478 37.991371 -49.798668
57.671036 41.336494 -48.171257
54.955364 48.911156 -46.61602
58.803345 39.244362 -48.448578
57.198921 43.286972 -48.08651
56.835052 44.8493 -47.896088
57.041634 45.887127 -47.913101
56.682575 45.905544 -47.810188
60.982086 38.969345 -49.678238
56.049599 46.799252 -47.460991
58.194809 42.932529 -48.426804
58.182701 40.516346 -48.575256
60.141823 39.725807 -49.200729
55.234406 48.966274 -46.970718
59.669548 38.395493 -49.189476
55.680832 49.843624 -47.225128
56.549698 44.494877 -47.602959
61.892464 37.184982 -50.450417
59.00832 40.939651 -48.861206
58.523109 41.399551 -48.754738
63.81739 37.088478 -51.519806
62.5261 37.625847 -50.323631
62.905563 37.788849 -50.889961
58.363762 40.921013 -48.74968
57.479301 43.594055 -48.249306
63.758804 37.425323 -51.433922
60.722221 37.70451 -49.842461
61.786629 38.206329 -50.677841
62.898785 37.016094 -51.023026
61.047279 38.737442 -50.088356
61.993702 38.282158 -50.307358
59.867012 39.459393 -49.500999
59.082024 39.239388 -49.15612
60.797371 38.512909 -50.236069
60.548294 37.970589 -50.078415
59.679043 39.176147 -49.579788
60.99929 37.986919 -50.487823
62.579407 36.994381 -51.173889
64.215683 36.868549 -52.085861
64.128754 37.544075 -51.956772
61.647816 37.383644 -50.750786
62.211914 37.723618 -51.247246
66.322464 37.602924 -53.591011
63.558853 36.937191 -52.068069
65.207458 37.57082 -52.864563
62.297516 37.377407 -51.349213
63.289398 37.720764 -51.591461
64.574799 37.443924 -52.831535
65.199188 37.197998 -52.601196
64.687454 36.887432 -52.786461
66.728165 37.386307 -53.836693
64.072968 37.174683 -52.591972
65.555061 37.045574 -53.541992
66.117599 37.058701 -53.624512
65.99086 37.671806 -53.739449
67.853493 37.609276 -54.923004
66.930214 37.871887 -54.4561
66.516632 37.241592 -54.199554
68.052017 37.83131 -54.858597
68.863609 38.501678 -55.667717
66.13649 37.445248 -54.071808
69.011032 38.183495 -55.602295
68.201096 38.12936 -55.036392
68.256355 38.279274 -55.470444
68.37883 37.855816 -55.510086
67.290001 37.712967 -54.909073
68.533707 38.084595 -55.778122
70.284058 38.818932 -56.935013
69.02623 38.124874 -55.978622
70.321777 38.948673 -56.558899
70.292618 39.21151 -56.912697
69.387566 38.698425 -56.454712
44.283512 58.643356 -30.243145
43.66724 59.157818 -30.718704
76.091187 39.852718 -8.9551067
75.270081 39.369576 -9.3490868
75.815376 39.388462 -9.4417114
76.177689 39.837242 -9.4468765
75.96772 40.104084 -9.3899612
75.437653 39.858639 -9.3078842
74.793701 38.927444 -9.8256226
75.112206 39.667034 -9.8828716
74.905037 39.156296 -10.275137
73.648949 38.826363 -10.96698
73.789322 38.387169 -10.621895
74.546844 39.390213 -9.9121475
74.187439 38.970795 -9.9756699
73.268234 38.877312 -10.924179
72.703064 38.034145 -11.043394
73.489388 38.368938 -11.076063
72.875259 38.644291 -10.847738
72.317963 38.206924 -11.095922
72.693024 38.235844 -11.633358
72.178177 38.501495 -11.682098
72.726746 37.972786 -11.381681
70.956039 37.445007 -12.194057
71.44973 38.297951 -11.77162
70.810471 37.995392 -11.974373
71.038055 37.571415 -12.583073
70.935928 37.784454 -11.902729
71.324425 37.916973 -12.510948
70.995911 38.2416 -12.456203
70.397568 37.366047 -12.804771
69.099045 38.029972 -13.025356
69.893318 37.392937 -12.649239
69.573471 38.029434 -13.477928
69.567802 38.154892 -12.967926
69.135262 37.726799 -12.873222
68.911041 37.540874 -14.015903
69.300697 37.202915 -13.357864
68.597672 37.414146 -13.276115
69.5392 38.168766 -13.269402
68.692215 37.834625 -14.192589
67.461647 37.319061 -14.359547
67.614685 38.396591 -14.030029
66.821251 37.805069 -14.100292
67.758118 38.437637 -14.267948
67.380005 38.091633 -13.81461
67.736008 37.369194 -13.880898
67.779694 37.455212 -14.566704
66.182526 37.764549 -14.588749
66.800934 38.095711 -15.450371
67.853592 38.234951 -14.623703
66.805428 38.542667 -15.362286
66.673233 38.826382 -15.07692
65.884079 38.471119 -14.5299
66.376137 38.74366 -14.533554
66.42572 37.827045 -15.460091
66.162704 39.090427 -15.083366
66.227371 37.616051 -14.952168
65.192062 39.592953 -15.357826
64.312935 39.400269 -15.244362
65.14534 38.086159 -15.840504
64.621025 39.707481 -15.316444
65.199112 39.778843 -15.74324
64.858612 38.296402 -15.246269
64.331177 40.307365 -15.618557
64.508675 38.783714 -15.18856
64.990234 38.610973 -16.453827
65.410042 39.384457 -16.246674
63.593567 40.542847 -15.581894
65.344742 39.638 -15.988819
62.771755 41.449608 -15.800697
64.932167 39.27507 -16.723747
64.661827 40.442696 -16.186035
63.787628 38.967522 -15.767643
63.424221 41.812336 -16.014664
62.859238 42.084743 -15.918896
64.577332 40.46804 -16.682289
64.052765 38.645016 -16.028801
63.090164 40.243469 -15.715813
64.238968 41.003639 -16.195702
63.042233 39.821766 -15.922157
61.887985 42.238174 -16.063351
64.118134 38.768242 -16.524891
63.705486 41.763081 -16.220528
63.120304 42.868172 -16.313461
61.776276 43.508915 -16.086567
62.487682 43.603645 -16.202797
63.368992 39.249405 -16.54203
61.230728 43.885998 -16.219231
64.010056 39.284416 -16.988434
62.650169 44.799858 -16.938759
63.358856 42.953705 -16.736057
62.626503 40.022984 -16.489384
62.100101 45.188881 -16.518845
61.657104 44.668385 -16.212124
63.96331 40.828869 -17.395378
61.168278 45.404415 -16.273384
63.71949 40.191105 -17.455578
63.878464 41.706207 -17.188248
63.224514 39.638077 -17.035175
61.994801 46.229797 -16.931053
62.383236 40.37513 -16.983742
61.898739 41.206642 -16.418373
61.582478 45.770626 -16.43343
62.04837 41.383816 -16.127888
63.140537 40.362209 -17.574821
63.763416 42.112473 -16.85199
62.489502 45.539707 -17.256874
60.841377 46.787819 -16.447861
59.932178 46.565689 -16.520493
63.12888 43.787674 -17.487461
63.498791 42.030499 -17.693119
60.903015 43.58683 -16.421867
62.176208 46.575077 -17.846325
61.203938 47.450146 -16.789139
60.785275 42.93877 -16.851063
59.936951 48.191814 -16.607639
62.565567 40.697506 -17.612823
61.083107 48.880917 -17.482738
62.94622 44.012726 -17.895485
60.116859 45.423763 -16.549671
58.877701 47.687321 -16.892353
61.50127 41.588551 -17.14119
60.670769 43.034676 -17.645218
60.386547 43.488205 -17.473907
60.511543 49.435539 -17.208508
61.990677 46.908714 -18.454834
60.008755 49.014744 -16.816311
60.009533 44.83913 -16.795692
59.313339 49.530945 -16.850876
61.458363 48.575279 -18.064705
61.780937 41.953232 -18.03743
61.429691 41.895432 -17.609318
62.944195 42.016399 -18.107807
62.783886 42.86348 -18.294277
62.372032 42.08564 -18.261841
59.645943 44.915482 -17.357292
59.229809 46.390732 -16.970509
61.25584 48.848198 -17.719959
61.922344 46.37537 -18.843719
59.595612 50.835083 -17.396927
61.835815 47.536552 -18.320732
59.611633 45.16428 -17.155029
59.017632 50.405281 -17.054955
60.466888 50.514671 -18.074947
62.094582 44.666893 -18.80484
61.999027 43.629047 -18.714973
61.945946 42.121319 -18.234371
58.249783 49.06789 -17.05447
62.363956 44.470016 -18.59951
61.836731 47.070469 -18.765144
59.094337 51.075302 -17.306412
57.126568 49.905918 -17.554779
59.107117 45.758556 -18.180569
58.692436 46.637646 -17.598991
58.015335 48.038651 -17.526398
57.991619 48.46299 -17.341072
61.648796 45.501381 -19.136009
61.348419 43.668098 -18.772408
60.564018 50.57843 -18.430695
57.391769 51.048595 -17.378674
61.093079 47.828979 -19.558372
60.339275 50.149693 -19.933617
61.008045 43.194027 -18.360641
59.08239 51.989971 -17.888565
61.085663 45.006176 -19.205902
58.620064 46.558147 -18.069241
58.063835 51.985317 -17.514923
59.203411 45.793995 -18.575111
60.61982 44.705181 -19.045567
60.948433 49.762943 -18.795597
59.237942 45.890926 -18.772934
59.593113 52.060925 -18.693378
56.403858 52.19994 -17.825016
60.477116 50.376339 -19.55386
60.307446 50.976494 -19.156281
57.876724 47.796745 -17.966862
59.841698 51.844177 -18.87809
56.699284 49.982998 -17.855518
60.87289 46.45293 -19.591255
57.929783 52.944614 -18.087952
59.492832 45.915993 -19.10495
59.328976 52.488907 -19.40744
57.10844 53.057411 -17.989803
58.800308 52.922119 -18.847778
60.098579 48.766071 -20.244453
60.018429 47.356865 -20.012703
59.750256 46.367493 -19.580055
57.022984 49.052681 -18.136936
58.238918 53.24015 -18.645584
57.330513 53.888512 -18.860603
57.787498 47.796036 -18.556107
55.779289 53.365089 -18.27739
54.959423 51.673512 -18.500824
59.655518 51.42395 -20.296135
56.25444 50.163364 -18.198757
57.763863 48.004086 -19.169937
57.460575 54.084923 -19.299942
58.679222 47.694637 -19.916908
56.898674 48.917072 -18.813751
58.437485 53.52042 -19.747467
54.851692 52.538647 -18.454697
58.971752 48.058838 -20.255913
55.262062 51.11882 -18.517632
59.553879 48.580437 -20.430382
58.975327 48.640602 -20.533333
58.129578 47.993622 -19.699234
55.285645 54.175499 -18.779926
54.790924 53.240246 -18.554169
57.104259 54.548637 -20.029255
59.357922 51.432652 -20.671261
56.626877 49.225975 -19.404121
57.749786 54.068775 -20.407936
55.223785 50.555439 -19.107788
54.657089 51.166862 -19.043873
54.962677 53.802475 -18.653366
55.994087 49.887943 -18.921448
59.083809 52.209717 -20.625015
58.830109 52.900478 -20.34726
55.724117 54.575211 -19.078705
53.527767 52.88966 -19.104301
51.787792 54.991905 -20.083866
55.685013 50.077744 -20.205997
54.954502 50.495773 -19.918365
59.009178 50.479195 -21.019039
55.861546 49.890625 -19.42778
55.949718 54.879818 -19.544922
57.739788 49.257114 -20.737381
57.178078 49.10862 -20.209358
53.580757 55.326458 -19.747696
56.220711 55.148746 -20.510452
58.708527 52.109306 -21.123566
52.281654 54.043747 -19.732456
57.40744 54.102779 -21.249168
56.712143 54.759613 -21.286995
54.880489 55.176865 -19.624542
56.679256 54.874641 -20.592567
58.057507 49.995571 -21.232994
55.295765 55.441715 -20.101746
58.443962 50.725086 -21.335327
57.88945 51.651646 -21.756874
56.404793 50.034248 -21.000046
52.284218 52.092957 -20.414803
53.354168 54.925182 -19.568687
58.263405 52.933422 -21.191544
56.907619 49.984623 -21.15377
53.979057 51.274986 -19.68008
54.296658 50.859821 -20.98542
56.1558 54.83712 -22.135498
56.122429 49.935032 -20.477978
54.129322 56.309238 -21.761551
54.067711 50.937767 -20.585854
54.739399 55.850121 -20.73613
56.99752 50.620296 -21.690681
55.507195 50.595943 -21.485378
57.313286 50.996387 -21.855598
52.646786 56.007706 -20.444969
52.372681 55.735203 -20.237427
53.282509 51.353455 -20.574566
52.216644 51.890846 -20.817051
56.838383 51.851738 -22.361122
52.384956 52.482983 -19.973152
55.711494 53.005379 -23.163223
55.796196 51.662819 -22.671356
56.419525 54.113712 -22.429634
52.873901 56.809772 -23.61924
51.975563 56.869495 -21.510307
51.203026 57.16468 -25.398888
53.201988 51.315155 -21.311253
55.366257 50.973316 -22.050674
50.343334 53.937954 -20.77076
56.567238 53.655396 -22.496662
52.101151 51.777706 -21.36216
54.130623 51.143475 -21.970718
53.112427 55.561604 -24.656136
49.224586 56.684052 -21.562889
52.122852 51.737843 -21.933842
53.644016 51.502934 -22.657761
49.083549 53.727409 -21.657806
55.55724 51.430897 -22.551918
49.796455 52.954113 -21.739967
51.899494 52.005466 -23.135487
53.897213 51.714218 -23.066578
54.155632 52.021149 -23.389267
49.494068 52.701332 -22.637848
54.360744 52.308323 -23.568954
52.595207 52.057816 -23.594696
55.449429 52.370895 -23.185879
47.504807 54.459717 -22.388107
50.732727 53.153538 -25.350338
48.072262 58.006821 -22.659698
50.316811 58.076302 -23.273209
53.273636 52.934093 -24.366386
48.320297 58.563278 -23.258026
53.414993 53.525764 -24.55764
48.178192 56.375313 -21.813423
49.568092 52.623898 -23.401806
48.631485 52.915546 -23.737236
48.818836 53.205421 -25.267242
46.251289 54.206619 -23.632725
48.701832 54.696388 -27.22963
46.937267 57.794674 -22.680298
47.222355 58.461693 -23.06741
47.342148 54.214626 -22.633823
52.137589 55.448826 -25.44017
48.444221 58.874813 -23.814499
45.640759 58.512383 -23.299744
45.999428 56.556358 -22.86721
49.235958 58.74427 -25.540447
49.185429 58.771606 -24.389442
47.740582 59.297653 -24.223633
45.747555 59.16428 -23.634743
48.075142 59.364265 -24.728951
49.2174 58.81414 -25.035156
45.592167 57.819237 -23.100784
46.948723 53.563847 -24.258347
46.05183 59.628201 -24.007172
47.189739 59.226997 -23.861771
46.757408 60.081696 -24.858093
50.999329 55.322044 -26.201012
44.870605 59.248547 -23.729435
44.621689 58.946472 -23.66925
44.179062 56.099716 -24.029762
48.711624 55.768967 -27.594193
45.615276 60.480309 -24.589958
48.882561 58.551193 -26.684742
47.582787 59.900146 -25.873375
45.543678 54.271385 -24.537258
46.836845 60.347511 -25.509102
44.492825 60.183075 -24.142578
44.060333 58.650711 -23.785564
48.292969 59.396595 -25.797905
44.317123 55.370853 -24.402145
46.473118 53.757149 -25.000664
43.269608 59.6404 -24.148335
43.07098 58.402306 -24.2729
44.142025 55.28804 -24.708023
46.735748 60.59359 -25.959
48.294773 59.229084 -26.531677
50.658138 56.424511 -26.300812
49.499554 57.779572 -26.717453
46.586426 54.208965 -26.763054
47.659737 54.150696 -26.973003
43.223587 56.366577 -24.668716
47.250015 60.184547 -26.863728
44.459141 54.722664 -25.840332
43.999344 55.046936 -25.639282
48.274727 57.536942 -27.883812
46.148182 56.083611 -28.784206
48.023659 58.358227 -27.854679
45.765862 54.479771 -26.8937
41.613777 58.23893 -25.322884
41.427631 59.831745 -25.044376
47.574097 59.636581 -27.311764
42.659378 56.381588 -25.38163
43.595215 55.339996 -26.445129
47.172451 59.730141 -27.918839
47.176815 54.797897 -27.712524
41.438885 58.03429 -25.608925
47.433113 59.149178 -28.024776
42.556267 56.122585 -26.065865
46.192104 54.942165 -27.906551
45.545273 54.880192 -27.675205
44.008934 55.472275 -27.487484
47.159698 58.778461 -28.500965
46.813622 58.377071 -28.858002
46.182281 55.759914 -28.614151
42.813919 55.927834 -26.744492
41.936802 56.729958 -26.765953
44.471733 55.695389 -28.447937
44.728409 56.812397 -29.447678
44.820751 55.993942 -28.842056
43.501072 56.515762 -28.896942
44.2117 56.918453 -29.517616
36.299103 57.869926 -24.354446
33.112305 39.801338 14.608709
33.459896 39.978474 14.49615
33.19754 40.020451 14.349674
33.04184 39.302761 13.422003
33.405357 39.450977 14.174376
33.148033 39.435146 13.20566
33.489021 39.044823 13.074167
33.385105 39.101116 12.319683
33.105759 38.919231 12.812979
33.497047 38.668816 12.09711
33.262337 38.429127 11.867242
33.079971 38.869751 11.856295
33.349121 37.994667 10.574898
33.0242 38.278152 10.923359
33.43681 38.553841 10.707204
33.452408 38.1651 9.0117846
33.121101 38.503784 10.56661
33.544319 38.16465 10.325268
33.180054 38.192528 8.9127808
33.563156 37.755257 8.8766346
33.107368 37.782612 9.5598965
32.995647 37.932354 9.1634388
33.362904 37.523537 8.7172184
33.621876 37.754662 8.1151905
32.973175 37.592049 7.2109661
33.126633 37.394539 7.3648977
33.486237 37.371281 7.3234777
33.250214 38.088409 6.4049263
33.534878 38.000366 6.9464731
33.634842 38.115784 5.4829617
33.014046 37.895557 6.9875631
33.23822 37.30426 5.7121067
32.998104 37.507446 5.0930128
33.57235 37.392433 5.2493172
32.912319 37.846558 5.2965527
33.526756 38.404747 4.6582832
33.338219 37.495232 3.9767952
33.966759 38.321842 3.3083191
32.987766 38.099098 5.0993538
33.837708 37.792686 4.6209736
33.239281 38.473076 4.3436365
33.042465 37.70665 3.7025623
33.732254 37.743618 3.5602493
33.898121 38.714218 3.0699177
33.41909 39.11132 2.8485641
32.852867 38.113716 3.2871494
32.884388 38.356983 3.627512
33.707935 38.98225 2.8973618
34.011482 39.126778 2.1805649
33.955704 38.221729 2.6831341
34.178276 39.140617 0.98851395
33.182343 38.117538 2.1134911
32.988838 38.030811 2.8027668
33.018074 38.93808 2.7791061
32.819878 38.465755 2.8458214
33.780472 38.153683 2.1482773
34.190994 39.950111 1.004324
33.771229 39.916817 1.5172768
33.151772 39.855141 1.5526409
34.344017 40.012123 0.29652786
33.871056 40.855667 0.76370621
33.979385 38.830925 0.97928047
33.343529 41.573021 0.31013298
33.419365 40.358223 1.1711788
33.486572 38.362011 1.3906631
33.987713 39.772884 -0.31554413
32.910713 38.853085 1.0669861
32.964569 40.757786 0.61228561
32.757202 39.43116 1.2572975
34.117653 41.592033 0.18608475
33.695084 38.983479 0.44625664
34.47802 41.014664 -0.18545914
34.308281 40.957512 0.2591114
32.70417 40.590782 -0.28367996
34.313797 40.330456 -0.5032692
33.769913 42.121841 0.080608368
32.828373 39.863144 -0.0067520142
33.410343 39.363861 -0.07314682
33.313835 42.968266 -0.38322639
33.030712 40.110916 -0.55282211
32.936623 42.21566 -0.28884125
32.77634 41.694492 -0.26859283
34.599998 42.562744 -0.74523926
34.271309 42.789921 -0.44809341
33.707027 43.749218 -0.65088272
34.666389 42.124413 -1.3559265
34.106667 44.252525 -0.91838074
32.702805 40.905388 -0.1367836
34.654987 43.182777 -1.0115547
34.774796 44.423161 -1.5138588
34.501408 41.65263 -1.4435806
34.459419 43.90086 -0.98633957
34.405552 46.394958 -1.8121758
34.7938 43.422245 -1.3682251
33.492783 44.827679 -1.1217899
35.023285 44.486553 -2.1544151
35.293663 46.798565 -2.993454
33.808105 45.577847 -1.3859081
33.373188 40.315578 -0.93057251
34.767529 42.637718 -1.4003334
34.085701 41.235825 -1.5679092
32.791939 43.802475 -1.1754799
33.143852 43.988403 -0.91344452
32.907921 40.981514 -1.1246071
34.788784 46.568726 -2.1241112
34.567257 43.322132 -2.6388397
33.236916 47.309898 -2.2279148
32.700291 45.45924 -1.9950867
35.258495 47.773411 -3.0732765
32.654198 43.515579 -1.3479195
34.618061 47.791397 -2.4532127
33.678253 41.372623 -1.7696972
34.188293 47.692348 -2.2419586
33.35886 42.051224 -2.1845245
35.476982 47.577129 -3.7415962
32.593681 42.854969 -1.4076424
32.578762 44.012016 -1.8212318
33.391647 47.835777 -2.4085579
32.901199 42.581982 -2.1983299
35.218124 45.709061 -3.110939
34.934444 44.062557 -2.5343971
34.842674 49.433788 -3.3331299
35.137108 48.601757 -3.1762867
32.606255 43.666943 -2.3205757
32.536636 46.236744 -2.6743259
34.125 48.78727 -2.6940804
35.31237 50.892628 -4.5378819
34.064888 43.254234 -2.9551754
32.602551 44.56501 -2.8013287
34.186104 44.768497 -3.8294487
35.56979 48.946175 -4.0629616
35.183167 46.312538 -3.9614372
32.902912 44.65097 -3.4152355
32.861591 47.283978 -2.5203323
32.492378 45.68932 -2.7128429
33.930412 49.838905 -3.2858715
35.033516 45.844276 -3.8646336
34.599648 44.836208 -3.6405773
35.678314 48.920307 -4.6529198
33.225494 44.305637 -3.4650574
32.549393 44.338505 -2.428854
32.53207 48.375572 -3.6275368
35.61367 48.58683 -5.0184822
32.420197 48.424393 -4.0617714
34.550926 50.696205 -3.8728542
34.075348 51.850235 -4.646862
33.504433 50.936977 -4.064106
35.772884 50.97892 -5.3961716
33.263893 49.724819 -3.4360313
34.775791 51.845081 -4.766758
35.584801 52.062954 -5.7827682
34.588604 46.675972 -4.8980751
32.71587 49.675613 -3.9397354
32.569588 46.324715 -3.874918
33.491352 45.518738 -4.2684135
33.233089 45.890423 -4.4018898
35.124718 47.350533 -4.9887848
34.111137 46.350788 -4.8256721
35.887325 50.839684 -5.7341614
32.859661 46.188717 -4.2738247
34.493919 47.797729 -5.7964611
33.959145 52.277298 -4.9775734
35.794975 49.847858 -5.0513687
35.272598 48.48336 -5.800148
33.206726 51.829048 -4.9867516
32.492661 50.552387 -5.033989
35.976276 50.707817 -6.5375023
35.580322 48.792633 -5.467617
34.278065 53.537663 -6.3853836
33.71656 47.295036 -5.4590206
32.940163 47.83112 -5.4623375
32.90736 51.238728 -4.7672863
32.700706 51.145924 -5.0311203
32.354843 49.288136 -5.0779266
35.964214 52.818893 -7.3697453
35.542969 49.715195 -6.7617073
34.977016 52.82206 -5.7946434
32.689869 47.806168 -5.1129608
32.424057 48.880886 -5.2846527
35.362362 53.079235 -6.5193367
34.865021 48.331497 -6.0458412
34.775272 53.863705 -6.9847488
33.81913 53.624241 -6.5438042
33.189041 47.56575 -5.4578362
32.846935 52.704365 -6.3179436
36.233997 52.456333 -8.2497253
32.309601 51.244621 -6.2712746
33.304817 53.194138 -6.2988167
32.652557 49.080734 -6.0703011
35.977776 50.86895 -7.1771889
34.494804 48.657799 -6.5299911
35.729218 50.438694 -7.4282036
33.67498 48.952602 -6.7969818
33.164959 48.781948 -6.4044323
32.30751 50.570522 -6.3581581
33.120319 53.701466 -7.2488136
35.376244 49.925823 -7.3003483
32.900089 49.5327 -6.8909187
34.358475 54.498322 -7.7900105
35.080994 54.19202 -7.6722088
35.258266 54.78503 -8.8607445
34.849449 49.797668 -7.6501274
32.424168 50.347359 -6.8346062
36.442249 53.312164 -10.383099
34.172508 49.656288 -7.6036377
33.537994 49.88163 -7.7803535
32.650993 53.017799 -7.1840706
33.482536 54.33165 -7.8058624
35.819595 51.186356 -8.6704502
35.782677 54.200417 -8.8804893
33.151291 50.273914 -8.0561867
32.809227 50.637112 -8.1635914
34.634655 50.504166 -8.8602829
33.870651 50.450596 -8.7343636
36.13533 51.787209 -8.8160362
34.776264 55.102341 -9.0607014
32.552147 51.208019 -8.5152817
35.365513 50.748844 -8.7153473
36.269035 52.47464 -10.27911
36.113529 54.223454 -9.8476295
33.214775 54.292824 -8.0896931
35.633785 51.460632 -9.9563789
32.302521 53.17276 -8.8620186
34.313816 55.142822 -8.9089584
35.234783 51.137749 -9.8003235
34.781288 55.814739 -10.607605
32.227859 52.521252 -8.7731628
36.303841 53.790779 -9.9797306
32.272263 51.87537 -8.4192848
35.914406 51.870937 -10.365864
32.524071 54.229393 -9.6982632
34.877258 51.163574 -10.16209
35.894325 55.102898 -10.749983
36.395119 55.625778 -13.35408
33.440224 51.022049 -9.6723957
33.887062 51.116348 -10.133907
36.39537 53.01495 -11.710392
32.46283 51.740753 -9.2527924
35.540283 52.396965 -13.266964
35.664982 55.578403 -11.070839
35.207226 51.751621 -11.569565
32.873669 51.271202 -9.4671783
36.576164 53.720966 -13.067619
34.587437 51.559483 -11.297401
33.343433 55.645573 -10.691628
36.153305 52.602203 -11.858471
35.842831 52.378567 -12.374912
34.120434 56.684776 -12.52803
33.255531 55.344803 -10.10284
32.297867 52.667233 -10.63105
32.217014 54.263603 -11.605522
33.497433 51.658531 -11.3211
33.015072 55.502068 -10.983364
32.678158 51.935055 -10.547426
36.39566 53.343266 -13.7733
32.95504 51.899803 -11.131054
34.20911 51.852165 -12.157196
32.468258 52.450542 -11.104197
35.328522 52.80275 -15.036404
36.718475 54.419788 -14.571281
35.453278 57.144939 -14.232605
36.559994 53.802101 -14.418068
34.557571 56.979721 -13.180424
33.170834 52.33717 -12.903221
36.059322 53.06052 -14.45932
35.140106 57.975033 -15.803116
33.866241 57.359581 -14.388023
35.819538 57.117786 -14.730309
33.489532 56.871616 -13.550522
32.348423 53.592636 -14.061001
32.210014 54.057175 -14.188171
36.127968 57.369003 -15.889183
32.848915 57.033298 -15.330597
32.401138 55.847404 -14.392563
33.334061 58.074997 -16.703171
33.353172 53.724075 -17.509537
35.657803 57.805679 -15.955349
32.567051 53.117748 -13.646793
33.182014 56.562672 -13.312401
33.077042 53.607704 -16.7551
34.556686 58.151779 -16.008179
36.745491 57.031361 -17.21582
36.633801 54.402786 -17.153053
35.829372 53.900337 -18.096889
35.411808 53.81918 -18.319496
34.030346 58.213215 -16.280746
36.351002 57.829239 -17.221931
36.580322 57.477406 -17.24791
35.569027 58.437874 -17.084751
32.22538 54.862278 -17.15028
36.880054 55.242939 -17.298702
36.776794 54.874157 -17.82198
33.674397 58.219398 -16.569069
36.486107 54.257721 -17.519581
33.039177 57.595844 -16.168278
35.026138 58.692684 -17.181728
37.091869 56.900108 -19.870377
36.684334 54.880547 -18.590904
32.440189 54.115238 -16.343273
32.196781 56.025974 -16.576202
36.296734 58.834549 -18.684471
34.500778 58.842896 -17.410782
32.16153 55.708836 -18.612667
35.950298 58.408413 -17.51281
33.034966 58.643745 -18.328537
32.681496 53.943073 -16.795647
36.931152 57.562641 -18.830521
33.551544 58.955711 -18.143875
32.563671 57.111549 -16.56934
36.97348 58.784622 -20.062561
36.710087 58.129189 -18.560791
34.139389 58.748589 -17.347672
36.877857 55.630714 -19.544968
36.396912 55.112488 -20.268353
35.563705 59.346668 -18.609776
32.836132 58.084457 -17.692539
36.09684 59.412498 -19.1744
35.211395 54.124718 -19.086372
34.982193 59.382275 -18.375389
36.697235 59.250538 -19.84375
33.090984 54.273304 -18.643761
34.675201 59.734871 -18.85791
36.892521 55.975899 -20.700619
36.07505 54.595345 -19.615055
35.331062 60.025063 -19.340454
33.328018 59.637791 -19.385101
35.688789 54.509399 -19.84589
36.437206 60.031471 -20.212349
32.743202 58.698811 -19.04808
34.861691 60.4566 -19.676369
32.554947 57.990284 -18.387638
34.053825 59.73476 -18.997192
37.125027 56.802307 -21.144993
36.729282 59.90398 -20.480049
37.090893 59.762859 -21.075855
32.477127 58.369755 -19.332703
37.235851 58.989582 -21.218861
32.151005 56.85696 -19.09967
33.862209 54.50169 -19.869469
32.28981 57.845718 -19.520691
36.436501 55.585926 -21.220287
32.772804 54.761696 -19.366196
37.328777 58.596668 -21.7202
35.80648 55.202507 -21.305405
32.829048 60.005806 -20.528294
32.36726 55.555496 -19.757351
36.768085 56.411736 -22.016197
35.865486 55.98394 -22.480087
37.122105 57.695755 -22.953045
33.338032 54.745216 -20.105236
32.2743 56.091824 -20.431728
34.570217 55.370483 -21.611031
36.420723 56.147038 -22.201065
32.144314 57.455208 -21.208839
32.574135 59.444359 -20.474358
32.375992 56.123108 -20.863594
32.888771 55.492031 -20.991131
35.411629 56.347939 -23.06385
33.767601 55.947292 -22.395439
32.223976 58.791664 -21.23674
33.237324 55.869003 -22.033104
36.57164 57.4039 -23.699493
36.133034 56.764259 -23.341064
37.401882 59.397171 -24.472118
32.169506 59.008076 -21.633797
33.668015 56.443378 -23.053165
32.515343 56.808113 -22.304852
32.780914 56.459652 -22.343414
35.847698 57.091511 -23.850739
33.866383 57.312149 -23.983189
32.981606 57.038231 -23.288284
33.331463 56.746754 -23.276978
18.138222 30.452045 -19.547054
19.984509 31.943907 -20.451553
19.013462 30.774027 -19.836216
18.264233 30.100454 -19.647324
19.284939 30.557819 -20.231159
19.319855 31.690639 -20.119843
17.720922 30.708847 -19.825676
17.365559 29.61087 -19.814072
17.594097 30.338261 -19.47599
17.006321 29.913113 -19.333824
19.568697 30.907549 -20.912098
18.41918 31.218544 -20.134632
18.257435 29.895235 -19.965721
20.395969 32.794502 -21.156906
19.715853 32.883163 -20.673943
18.857086 31.877441 -20.493145
18.211649 30.982225 -20.468948
20.160339 33.132183 -20.933609
16.513741 30.277739 -19.470497
18.278084 30.130436 -20.451229
16.225431 30.042353 -19.276672
20.254297 31.803474 -21.011524
20.174873 32.260582 -21.799065
17.48204 30.535847 -20.170643
19.263857 32.833649 -20.837139
16.768303 30.375505 -19.803715
18.750286 31.007366 -20.957447
16.188469 29.538988 -19.441071
20.205563 34.158371 -21.637901
17.865055 30.289286 -20.442329
19.470287 34.861908 -21.662834
18.738264 31.63699 -20.940125
20.447767 33.484241 -21.750633
19.466839 31.26808 -21.296921
18.98201 32.750797 -21.273235
17.277794 29.883316 -20.149372
16.771873 30.134905 -20.064278
15.425493 29.601187 -19.721859
15.503494 30.248129 -19.677479
20.427032 32.759979 -21.790077
19.378805 32.177727 -21.790722
13.759192 30.151667 -19.177032
19.954609 33.583519 -22.734009
19.133148 32.267208 -21.571171
19.165304 33.969597 -21.338776
14.861631 29.812365 -19.199818
14.391302 30.328949 -19.446522
20.309116 33.94725 -22.423843
15.459435 29.939369 -19.873093
14.592364 29.616642 -19.401169
18.898468 33.470718 -21.510029
12.595177 30.530445 -19.286221
20.079721 35.135414 -22.534885
19.26252 33.314796 -22.600731
13.653155 30.118517 -19.747303
18.901291 36.083687 -22.274479
18.633984 34.540039 -21.95586
13.767599 29.814415 -19.628689
13.346886 29.852962 -19.337776
19.752186 32.486748 -22.105583
18.688808 35.555111 -22.111698
20.05122 34.794552 -23.021931
24.569763 58.494225 -25.530457
19.336174 36.785473 -22.99794
11.98367 30.710896 -19.608044
19.390936 36.2052 -22.489655
11.984422 30.325785 -19.242855
19.830256 34.834927 -23.347515
11.847034 30.241425 -19.660423
13.569244 30.359491 -19.619411
24.31963 59.862862 -23.919605
18.92531 33.556252 -22.504719
18.682785 33.911591 -22.222931
17.818573 35.946182 -23.000809
22.542068 58.60289 -24.38932
18.639042 37.302971 -22.914299
17.950029 35.458942 -23.132175
11.036087 30.860807 -19.323364
22.350349 58.016396 -24.681484
18.584869 37.828701 -23.265678
23.416061 58.140007 -24.875565
23.801805 57.840652 -25.665493
11.832286 30.534168 -19.756081
17.674393 38.660641 -23.554111
10.388414 31.200666 -19.598537
18.334927 35.646435 -22.348797
10.755322 30.52877 -19.60997
19.661404 36.303677 -23.313568
19.294815 36.79158 -24.212746
9.8710098 31.15262 -19.361374
18.661278 35.548683 -24.177658
11.055228 30.627468 -19.793995
17.951633 37.390965 -22.984776
17.574146 37.324722 -23.147167
19.543097 34.41687 -23.35313
24.031658 58.02578 -27.308811
22.702856 57.25211 -25.57222
19.073559 37.747639 -23.817799
10.238285 30.765461 -19.427227
18.790043 34.378788 -23.282238
18.032402 38.655148 -23.59798
21.816814 57.069275 -25.355492
10.060699 31.081856 -19.853584
20.809563 57.440849 -25.050587
18.025436 35.369446 -23.430141
18.863617 38.253349 -24.399822
8.9681654 31.529537 -19.892136
8.6549921 31.745224 -19.671921
8.9222927 31.138281 -19.732872
9.0889721 31.406073 -19.439713
18.599146 38.20562 -25.212639
18.46809 36.384941 -24.715508
21.106888 56.288475 -25.946407
20.038708 55.754253 -26.159054
16.939758 39.39917 -23.972633
17.114208 38.165806 -23.582619
18.593826 36.778938 -24.86496
18.405243 39.075043 -24.308334
18.221268 38.999363 -23.974533
