# .PCD v0.7 - Point Cloud Data file format
VERSION 0.7
FIELDS x y z
SIZE 4 4 4
TYPE F F F
COUNT 1 1 1
WIDTH 1558
HEIGHT 1
VIEWPOINT 0 0 0 1 0 0 0
POINTS 1558
DATA ascii
29.869507 47.950607 -22.040062
25.179949 43.236034 -21.979725
25.74966 43.846008 -22.108963
23.039804 45.72485 -22.057564
24.882252 47.369545 -21.913614
27.26228 49.085117 -22.038944
24.802414 46.754608 -22.200214
28.565235 47.794506 -22.099464
26.460567 48.527386 -22.125912
29.071304 46.877342 -22.094254
26.985075 47.696606 -22.436535
27.320248 48.430233 -22.13187
24.707207 45.90332 -22.156452
25.244987 45.092064 -22.261856
28.201229 49.359638 -22.190529
23.541492 45.052216 -22.218277
23.905058 44.048195 -22.307293
30.680283 48.780293 -22.441746
29.999153 48.368568 -22.183266
25.493359 45.745468 -22.504505
18.323107 59.070332 -22.980122
27.760437 47.271164 -22.362785
28.967936 45.934681 -22.383087
24.05183 43.043835 -22.375824
28.364418 50.150188 -22.459999
25.197575 47.631702 -22.598175
22.242115 45.42915 -22.561676
30.804398 49.357239 -22.919785
29.477287 49.66148 -22.642681
25.738142 47.806213 -22.685329
25.607553 46.955383 -22.841572
29.054073 50.543636 -22.987011
23.022995 43.651993 -22.928535
27.622616 45.759132 -23.1548
14.272293 53.092751 -19.343534
25.830643 47.163189 -22.90414
22.751402 44.329983 -22.832447
27.054974 45.216507 -23.339348
14.136009 52.486847 -20.141691
13.851719 52.803055 -23.114201
14.170691 55.306725 -23.698944
22.197544 44.028774 -23.581253
20.376616 59.971272 -23.541214
13.93248 54.171883 -23.213646
28.963953 51.257114 -23.49205
14.426521 55.7183 -23.710865
30.951286 49.772621 -23.465237
29.767403 50.602924 -23.481064
22.739025 42.458408 -24.105659
18.905706 59.624096 -23.920368
14.718176 56.090652 -23.850719
19.533062 59.869003 -23.752392
15.17964 56.627129 -24.174751
18.499001 59.562397 -24.42429
19.793388 60.066048 -24.131916
18.36908 60.71384 -26.567543
13.909428 54.796749 -24.11702
29.374283 51.523388 -24.224842
22.914383 59.581238 -22.615868
15.667282 57.136467 -24.77644
16.473211 57.778687 -24.760609
14.934357 56.544563 -24.455017
18.003775 59.025303 -24.262646
30.423492 50.801422 -24.48835
20.188425 60.130363 -24.293186
13.827518 54.194416 -24.374008
14.247156 55.869476 -24.359856
13.763168 56.680069 -26.176102
13.843178 55.341854 -24.613308
20.36729 45.490337 -24.149609
20.750168 44.655678 -24.580532
21.04031 45.29174 -23.77623
21.834494 43.433826 -24.839012
13.882706 52.314171 -24.561539
14.184303 57.402222 -26.81876
17.736513 58.919678 -24.802696
21.060875 60.008427 -24.484814
16.966679 47.323822 -25.250008
19.133232 45.61734 -24.712193
17.781139 46.619148 -24.855396
15.946415 48.938087 -24.028191
20.484011 44.245403 -24.853348
17.752264 59.892883 -25.906261
18.387589 45.766907 -24.91201
21.042503 43.879963 -24.882214
17.58473 45.96814 -25.304199
26.226227 55.858292 -24.879234
27.005146 55.093407 -25.343678
21.448435 59.966064 -24.985199
16.339218 48.312069 -25.202892
15.364929 56.972702 -24.840687
13.180752 54.638695 -25.964737
18.784538 44.494812 -25.184269
20.064743 42.471104 -25.21537
16.030092 48.794617 -25.056149
13.89901 52.533752 -25.58223
22.227921 59.722855 -25.831959
25.79698 56.64043 -24.491516
25.304235 57.494488 -24.984077
18.01325 44.787926 -25.416862
13.782078 53.398552 -25.116673
18.772091 43.476234 -25.398056
28.561909 52.77314 -24.960613
28.26967 53.759945 -25.822086
24.761944 58.236954 -24.795994
25.188877 57.544765 -25.803837
18.028351 44.005665 -25.630836
17.065079 58.391521 -25.596012
15.362024 49.543854 -25.788757
15.906475 57.383606 -25.265465
16.444202 47.236691 -26.031963
25.656469 57.302147 -26.5303
24.601927 58.146927 -26.300125
15.95644 48.534447 -25.82935
16.538603 57.958023 -26.363998
15.152704 49.845173 -26.319496
17.315884 44.614578 -26.11409
15.726978 48.55267 -26.587841
27.470669 55.192795 -26.163437
13.946201 52.51112 -26.427132
28.369284 54.351608 -26.450035
22.873608 59.414291 -26.026936
20.003405 60.914932 -26.208691
23.891993 59.091492 -24.081451
20.821203 60.555088 -25.844807
21.590755 60.183212 -26.199192
17.954067 41.604973 -26.148914
13.447298 53.634705 -26.050587
16.990833 45.806492 -26.02861
14.604221 57.596809 -26.72155
14.116114 51.982986 -26.34761
26.752537 55.806427 -25.906822
19.393608 61.124523 -26.807961
14.293568 50.771996 -24.033031
13.122227 55.365799 -26.208504
29.774979 52.330738 -26.546688
24.126425 58.509071 -27.264397
16.886106 44.901077 -26.673691
17.221865 42.921997 -26.756004
16.512848 46.351799 -26.592869
17.762495 60.503868 -26.974628
12.965626 55.533894 -26.946884
13.188038 55.962402 -26.536072
27.922983 55.325584 -26.683189
22.011812 59.973747 -26.761219
22.619045 59.45837 -26.85619
20.42568 60.155869 -26.707211
29.487434 53.928741 -26.821369
29.976179 52.616493 -26.818386
13.640339 53.029472 -26.682259
14.297834 51.840588 -27.156757
13.759926 54.635078 -27.126217
13.766733 54.175018 -26.787289
21.020164 59.815037 -27.014481
16.484238 46.091255 -27.012993
27.506571 56.023201 -27.044277
13.843487 57.18261 -27.033852
30.521318 53.220993 -27.003868
30.305981 54.156128 -27.115604
29.428114 54.658825 -27.027332
16.996992 59.485218 -26.903679
13.265423 56.464668 -27.215607
15.036322 57.833946 -27.013737
19.853077 60.695442 -26.894554
17.006344 42.316948 -27.490101
26.435928 57.165878 -28.135551
27.35428 56.542786 -27.793644
29.899799 55.04319 -27.435909
16.46397 45.809757 -27.613754
15.655869 48.407673 -27.662357
16.61533 58.499611 -27.334229
26.286451 56.969707 -26.966808
16.71188 44.494522 -27.488052
22.641235 59.151482 -28.440212
28.96944 55.640892 -27.589916
14.612215 51.327438 -27.755096
18.121733 60.775402 -27.532742
23.300173 58.908249 -27.775581
13.629145 52.913597 -27.479485
17.036394 59.692337 -27.55267
19.222721 61.152027 -27.622692
22.039209 60.022503 -27.881729
16.348951 58.083794 -27.224171
20.15012 60.204697 -27.357323
14.252289 52.108673 -27.571293
13.87059 53.769646 -27.29121
14.416847 57.641357 -27.981358
30.896557 55.367603 -28.143372
16.340862 46.471001 -28.143745
13.649998 57.048454 -27.816734
20.860212 59.914684 -27.751556
19.671724 61.144207 -27.891598
20.2901 60.269642 -27.863663
28.914289 55.950272 -28.047653
13.685427 54.442268 -27.837967
16.59346 45.164082 -27.992531
17.417711 60.195114 -27.814499
18.160545 60.705383 -28.195702
12.944965 55.207092 -28.154362
14.501596 52.074043 -28.411163
12.993849 55.830818 -28.091228
14.906265 57.823513 -27.930519
14.800333 50.872929 -28.20166
28.400854 56.226379 -28.290863
23.323313 58.911377 -28.423084
14.995661 50.185009 -28.309669
13.487129 53.222775 -28.232018
16.630695 45.870651 -28.831844
17.066999 59.188553 -28.612286
16.52319 58.038677 -28.127731
13.157347 54.256355 -28.656609
21.45969 60.372734 -28.59478
13.741901 56.861568 -28.57262
15.134819 57.575764 -28.804657
16.187771 57.802208 -28.630905
19.641636 61.032898 -28.503719
15.759611 48.140045 -28.95829
27.388584 56.756565 -28.917137
28.538967 56.40596 -29.082687
13.344616 53.672775 -28.652699
17.414221 59.908974 -28.637611
14.948019 50.065056 -29.02235
13.107187 55.062435 -28.795345
20.710382 60.7509 -28.725697
14.341513 57.082466 -29.069466
18.311907 60.283958 -29.157177
16.399721 57.239326 -29.763897
14.748514 50.748978 -29.227013
26.708218 57.096313 -29.099449
19.271507 60.815193 -28.881935
14.409725 52.833939 -29.401878
13.584408 54.228905 -29.33614
20.302244 60.653233 -29.110062
13.437086 55.835655 -29.000751
17.729229 59.428688 -29.418449
16.842209 57.774956 -29.185482
27.099789 56.855064 -30.387749
27.927696 56.586601 -29.497967
24.056633 58.762894 -29.310627
15.667881 47.951248 -29.797604
14.074368 55.888824 -29.669479
14.474289 52.455399 -29.639874
16.781357 45.927788 -29.476181
14.638329 56.939651 -29.429253
25.158295 58.224091 -29.590706
22.732235 59.357658 -30.509167
23.42556 59.15543 -30.237465
15.375637 48.764236 -29.414165
16.634066 46.394196 -29.732426
18.527407 59.83419 -29.66613
19.742235 60.096298 -29.860733
17.320961 57.874508 -29.859055
14.460962 53.368237 -29.93578
21.870796 59.44677 -29.489403
14.769012 49.239769 -30.358696
26.071377 57.722012 -30.289795
26.594915 57.215416 -29.875072
21.342627 59.477386 -29.906357
15.594728 47.550262 -30.302643
13.837507 55.07309 -29.732239
16.021425 56.512772 -30.397804
20.605984 59.383873 -30.292213
16.635849 57.090324 -30.289608
17.708292 58.016953 -30.202827
21.848412 59.44622 -30.701717
14.584805 54.008667 -30.371544
14.467876 49.686718 -30.965603
14.377413 50.579075 -31.672882
18.361456 58.532692 -30.3965
25.607204 58.601982 -31.641785
18.926819 58.939262 -30.410839
14.484083 54.46043 -30.259995
15.496395 55.920525 -30.522758
15.073029 55.258972 -30.569691
19.774359 59.152077 -30.505257
14.39123 50.365314 -31.213837
14.811382 54.63588 -30.611031
15.022705 48.060173 -30.638966
16.459047 55.818851 -32.539196
18.896229 58.657608 -30.924446
23.617905 59.142036 -32.246639
14.540255 48.734222 -31.040649
26.026779 58.028084 -31.027985
26.808161 57.486237 -31.192795
14.195898 48.159874 -31.759846
18.361481 58.090271 -31.461327
20.190432 58.646957 -32.822258
26.394131 58.149147 -31.610493
15.413197 54.525337 -32.51424
21.195599 59.33189 -31.444569
14.164293 48.732346 -31.961716
26.056442 58.624016 -32.065811
14.286755 47.158699 -31.638802
25.338184 58.831329 -32.009388
14.674894 52.986675 -31.871952
14.464703 50.945251 -32.084808
20.770441 59.044182 -32.280529
14.263193 49.633118 -31.998028
13.649902 47.463974 -33.180737
14.83712 53.221252 -32.187603
15.89415 55.113907 -32.732121
14.774214 50.826702 -33.126175
14.394018 50.013462 -32.666943
15.046959 52.626705 -32.874214
19.151161 58.063217 -32.803074
24.216288 59.057304 -32.683891
23.065004 59.025974 -32.789482
17.314493 56.428722 -32.630444
15.59271 54.209709 -33.0312
21.179535 58.676872 -33.166584
23.790987 58.952286 -33.206806
19.106619 57.697662 -33.177761
16.587563 55.411324 -33.188
13.368668 46.500641 -33.932343
24.774347 58.995129 -33.742016
19.835573 57.997917 -33.417988
17.460962 55.887962 -33.373295
14.569464 49.837112 -33.590431
15.181231 50.832993 -33.854122
22.781992 58.433578 -33.929546
19.655384 56.663559 -34.256184
18.290569 55.005894 -34.467175
20.387024 58.09137 -33.610172
13.98494 47.798828 -34.652283
23.593977 58.534637 -34.091187
17.540379 53.107681 -35.223431
22.301731 57.772903 -34.543339
23.274969 57.987152 -34.726585
15.834091 51.402691 -34.44278
25.744398 58.835976 -35.39159
15.362576 50.287468 -34.464195
27.968952 59.099365 -36.476532
22.241993 55.189449 -36.50037
24.293322 58.167053 -35.27129
17.277454 52.679939 -35.265705
24.685005 57.709534 -36.034252
18.546618 53.378784 -35.591782
17.122456 51.376686 -35.83667
18.954264 53.121849 -35.927174
28.746964 51.97086 -16.149975
14.885843 51.425774 -16.182192
28.728872 51.856247 -17.356337
25.717371 57.510292 -16.954836
14.398575 51.531059 -18.630669
28.6968 50.66927 -17.539022
15.608397 48.23827 -18.571075
25.231943 57.965965 -17.613697
25.423721 58.071457 -18.933468
17.06142 46.68132 -18.787283
28.32682 53.922157 -18.466791
27.822327 55.203926 -17.803461
18.69421 45.663677 -18.462509
20.230803 45.267387 -19.003302
26.61404 56.947525 -19.389532
24.757719 58.413788 -18.43681
28.703915 51.193283 -18.399006
27.912384 55.041264 -18.550219
14.791096 49.659897 -18.980209
27.391899 55.940834 -19.102001
16.157738 47.53405 -19.076675
28.218609 53.257889 -19.814495
17.683235 46.402073 -19.916546
21.309338 45.215065 -19.749689
18.678444 45.960884 -20.072416
28.153683 51.387222 -20.405758
15.507248 48.316513 -20.123814
16.214409 47.563858 -20.431829
27.578817 53.129204 -21.920691
27.578812 54.19883 -21.501499
17.895428 46.743973 -21.71361
26.523664 57.040161 -21.137991
26.044279 57.62075 -20.87318
27.320778 52.46125 -22.668194
22.386303 46.010567 -21.705231
15.267914 48.587547 -21.089758
24.978315 58.549538 -21.440233
14.675297 49.579746 -21.323284
21.160433 45.791458 -21.323471
26.826071 56.473206 -21.495914
19.967075 46.326252 -22.230007
24.497581 58.823185 -21.586792
15.528891 48.23452 -21.486044
16.3526 47.593273 -21.64266
14.31897 50.334095 -22.08997
27.733475 50.181595 -20.856792
27.231497 49.978199 -21.805605
27.376484 50.647316 -21.951605
14.534632 49.40118 -22.24733
21.844009 46.0867 -22.000023
27.402267 50.960182 -22.188293
27.441816 49.992046 -22.059986
21.302013 46.199547 -22.263531
16.941246 47.327766 -22.153286
27.387735 51.673393 -22.303196
22.177759 45.956642 -22.080845
17.675396 47.264328 -22.995392
21.322319 45.485828 -23.286644
27.976704 51.524845 -22.887939
23.733711 59.269119 -22.746037
14.146267 50.742714 -22.684395
26.978901 55.260269 -22.730022
20.582052 46.38282 -22.625362
26.935539 55.208809 -22.974163
19.229813 46.87838 -23.262066
27.087633 53.522194 -23.172676
13.956942 51.706242 -23.299683
18.178722 47.212627 -23.295956
27.676823 52.915344 -23.642704
19.90078 46.378315 -23.672318
14.021549 50.915684 -23.423336
19.054007 47.035461 -23.474731
23.525175 59.339176 -23.654999
24.167969 59.018707 -23.565052
14.512457 50.356426 -23.652763
14.058979 51.057945 -23.321655
24.011755 59.085506 -23.665241
26.789434 54.439331 -23.605091
19.17868 46.889198 -23.730793
18.868431 46.627647 -24.199703
26.787117 54.693855 -24.176052
18.223412 46.824463 -24.457436
27.175457 53.956398 -23.992435
17.295673 47.647045 -24.539001
24.281717 58.797394 -24.118694
29.488602 51.751316 -24.835659
26.017874 37.007526 -20.008356
25.960627 38.763618 -20.672245
27.381958 37.92527 -19.406477
34.569893 44.982685 -19.979303
33.38015 45.07338 -20.532019
27.148117 39.328613 -20.315626
26.356625 38.995113 -20.461624
35.176929 45.594246 -20.053793
33.694756 45.725204 -20.589746
35.48996 46.119019 -20.400728
36.720947 46.478046 -20.953257
33.779911 44.00074 -20.245047
32.924519 46.427582 -21.097954
27.643274 39.962551 -20.605949
26.987644 40.629753 -20.960148
34.400257 46.399624 -20.776903
25.596106 38.170139 -20.896458
32.718906 45.777412 -20.937984
27.032764 41.523636 -21.367046
32.072311 45.474602 -21.136314
32.113907 44.235184 -21.212481
32.854332 47.084858 -21.452896
25.750698 36.946701 -20.445236
28.08569 40.068901 -20.74785
25.987305 40.422886 -21.156984
26.425026 40.749798 -21.110989
26.150291 42.199276 -21.624224
35.001122 46.847603 -21.195908
37.078323 46.605492 -21.477106
28.575054 40.034416 -20.945248
27.943666 41.501888 -21.670034
25.632294 39.837189 -21.243021
25.231506 38.94738 -21.510998
25.229954 37.767487 -21.564072
31.830503 46.633366 -21.405781
25.597431 36.500099 -20.897949
25.515038 42.058228 -21.686794
30.728741 46.340813 -21.661095
33.093498 47.510796 -21.753275
27.286715 42.004665 -21.686794
30.507305 45.785107 -21.754395
30.777599 44.894852 -21.805977
34.829037 47.385853 -21.903374
24.822803 38.187817 -22.17675
29.529196 39.817738 -21.590143
26.30035 42.797451 -21.84136
29.513115 47.187801 -21.995739
32.184734 47.621826 -21.811377
32.243431 42.683529 -22.067436
33.911942 42.610664 -20.671686
31.217335 47.218391 -21.678785
24.318369 40.189743 -22.564098
30.076851 39.676117 -22.233734
29.630707 40.17305 -21.923298
25.29607 36.689762 -21.734467
24.714201 42.841408 -22.072838
26.448719 43.414444 -22.126656
29.31089 40.802475 -22.103752
24.780991 41.128983 -21.994808
24.988441 36.576904 -22.326103
31.249424 43.246422 -22.367817
25.873783 35.490795 -22.009521
24.880577 41.93652 -21.954771
32.409531 48.174686 -22.289974
26.311535 44.370888 -22.462048
35.188 47.426819 -22.183266
29.643553 41.28212 -22.469124
24.311932 41.134346 -22.417725
26.904957 43.696121 -22.473221
24.63216 36.993679 -22.733189
37.090336 46.720394 -22.278988
24.011356 42.160927 -22.524803
34.292374 47.896217 -22.635418
30.074533 41.578537 -22.65218
27.846352 43.405396 -22.881794
31.635439 42.374985 -22.50618
31.1026 42.039173 -22.710094
30.578039 41.118408 -22.653484
30.624878 41.573067 -22.685143
30.995533 41.785507 -22.708046
32.380585 49.245777 -23.939175
30.295635 40.116776 -22.649014
33.290852 48.311321 -22.702831
25.504801 35.663418 -23.334507
32.165466 48.968494 -23.098186
36.075859 47.193523 -23.335995
34.321594 48.097511 -23.49894
22.78273 41.822258 -24.292442
25.31378 35.908157 -22.631325
28.802807 44.721432 -23.167835
28.060154 45.068211 -23.36784
29.241858 43.741325 -23.155731
24.309313 36.688915 -23.189438
23.102222 42.156807 -23.654068
27.195154 44.793629 -23.29987
28.503395 44.22216 -23.297821
24.547092 36.275173 -23.087013
27.407516 44.800415 -23.379757
36.445541 46.77005 -24.304173
36.919182 46.670002 -23.541962
23.986214 36.318401 -23.504528
31.425713 50.108234 -24.608093
23.082462 36.435047 -24.133034
33.487198 48.741344 -24.664146
23.244717 35.908218 -24.074562
22.166672 39.720154 -25.05801
34.573296 48.048721 -24.343655
22.738163 36.180763 -24.531925
37.293232 45.841797 -24.730629
37.457497 45.97168 -24.221306
31.302765 50.345142 -25.245167
22.100845 42.957348 -25.010338
36.615868 46.393814 -25.004562
34.091995 48.290878 -25.184269
21.996592 37.409584 -25.204941
22.10923 41.643066 -25.113132
21.549086 43.187584 -25.115929
20.807041 42.28294 -25.224308
21.937557 42.9422 -25.14777
21.666462 41.232063 -25.308483
21.621704 42.519299 -25.26416
21.724707 39.185646 -25.317421
21.867031 35.943047 -25.452621
20.653662 41.033676 -25.343494
21.52762 37.255207 -25.557091
20.610146 40.141357 -25.444798
21.444012 39.269279 -25.404758
19.949348 39.475376 -25.689312
32.855572 49.119488 -25.893597
32.300438 49.616516 -25.322075
20.156242 37.640308 -25.977959
18.406521 41.185413 -25.918926
21.43219 36.664066 -25.709423
21.347015 35.646408 -25.920788
36.713104 46.026451 -25.727299
36.266842 46.428787 -25.935314
21.323719 35.334923 -26.026375
18.828312 37.131721 -26.706093
32.996582 48.705185 -26.654324
20.646818 34.038589 -26.956379
30.399027 51.449997 -26.610561
21.446898 34.993145 -26.170887
17.655617 41.422363 -26.481323
17.981031 39.919731 -26.505718
19.056496 33.632957 -27.923626
30.463554 51.219254 -26.282993
36.493671 46.214676 -26.600132
18.002039 37.368393 -27.168304
17.777611 37.976273 -27.22678
30.938007 50.85141 -26.902748
20.990309 33.912281 -26.985989
36.047283 46.653084 -27.234413
33.618114 48.263748 -27.108341
30.710087 51.618729 -27.011314
31.212221 50.422054 -26.515587
20.253014 32.563347 -27.820835
17.41827 39.309006 -27.472965
36.689598 53.208076 -28.442078
31.330997 50.372913 -27.225288
31.716171 53.677841 -27.330132
32.932503 50.177101 -27.739082
31.976067 49.459297 -27.112064
17.664371 36.56271 -28.121399
31.655497 50.492611 -27.439819
31.412159 54.424309 -27.533302
31.572647 54.903442 -27.918415
36.076199 46.82605 -27.680607
33.586662 48.484905 -27.715244
33.701664 48.652924 -27.888618
32.081818 49.72496 -27.521198
36.458958 46.358879 -27.430508
36.492825 46.691387 -28.496265
36.327141 46.882759 -28.122517
16.908646 42.348495 -28.194771
33.023582 49.557507 -27.853794
34.042084 54.248932 -28.230152
35.293701 47.625324 -28.121212
17.286871 38.398296 -28.197376
20.453236 31.637823 -28.260323
19.161659 32.684265 -28.3255
34.690659 54.560966 -28.777096
18.625164 33.428795 -28.327919
17.241753 38.295334 -29.311371
16.937708 42.476685 -28.681187
17.334732 37.37825 -29.049168
18.818604 32.868282 -28.456043
39.251518 50.014095 -28.663681
31.179865 55.748753 -29.170956
36.765831 48.010155 -28.756607
36.116463 47.769753 -28.491425
17.940559 33.399006 -29.494617
39.079494 52.28476 -28.756237
36.332848 53.751431 -28.628304
36.425087 49.16428 -28.525505
36.455891 47.23024 -28.526066
35.126537 54.854733 -29.536331
40.214966 52.082016 -29.103359
38.449921 49.546043 -28.674671
36.551537 54.038952 -28.946373
18.555229 32.754539 -28.77784
36.52319 48.549053 -28.694786
39.074593 52.853508 -28.977657
41.475006 50.42738 -29.050842
17.081329 42.247864 -29.205597
20.332081 30.884098 -28.747295
18.878311 28.844275 -31.09782
41.237186 49.480396 -29.126266
17.774452 34.353985 -29.565197
17.009815 44.870689 -29.482697
37.199226 48.157677 -28.97263
36.223343 54.476719 -29.364262
42.552937 52.112896 -29.815296
17.543652 36.03125 -29.215839
40.78178 52.379944 -29.452904
42.966064 49.900524 -29.37804
19.956146 28.773663 -30.362419
30.983049 55.863655 -29.895
33.570663 55.31514 -29.966507
39.780762 53.079536 -29.498901
45.967873 51.23288 -30.253109
17.533705 36.630066 -29.759987
28.747509 56.286068 -30.262421
17.758314 34.478958 -30.144352
17.157124 45.172005 -29.96558
38.131226 54.186661 -30.116791
43.358818 52.497051 -30.364098
41.225975 52.861092 -30.073399
17.851292 32.895252 -30.447712
17.36071 37.971043 -29.974331
33.599415 55.204102 -31.058716
40.517147 53.200298 -30.143791
17.320564 44.155888 -29.989971
45.09388 52.158585 -30.561123
17.297329 44.370735 -30.37825
37.289047 54.536446 -30.494827
17.824516 34.668919 -30.51289
18.196758 29.611902 -31.363003
16.195429 46.685173 -30.270798
17.676535 37.647095 -30.69651
17.781301 35.522346 -30.395195
17.418644 42.676765 -30.876587
41.746265 53.077736 -30.627415
16.647545 45.696144 -30.434116
39.143879 53.938202 -30.343426
14.244068 45.530098 -32.000633
17.036491 45.287376 -30.267262
44.79071 52.684151 -31.027431
17.859535 36.558128 -30.580307
43.280815 52.839157 -30.783848
35.676094 54.898582 -30.727234
29.605852 55.830681 -31.315891
27.847137 56.477192 -30.601906
40.056522 53.6632 -30.924633
16.940311 43.949371 -31.152386
41.346352 53.315033 -31.072681
38.573078 54.168823 -31.478279
43.280338 53.074974 -31.325016
17.646317 38.75621 -31.427254
17.885126 33.284573 -31.114769
18.199551 36.831421 -31.037109
18.537376 35.824188 -31.429485
17.885363 31.484018 -31.672695
18.18079 34.68383 -31.29615
38.167477 54.185181 -31.818508
42.269028 53.259842 -31.981831
18.549692 37.513603 -31.532654
17.423187 41.992847 -31.541218
27.725708 56.666531 -31.216259
18.60091 35.078362 -31.654259
16.36557 42.668041 -32.063766
28.976696 56.122726 -31.568592
17.488811 40.01498 -31.728004
17.970444 32.012459 -31.954449
17.257702 43.118591 -31.263748
44.597137 53.070129 -32.001751
18.214005 33.555206 -31.750908
40.391811 53.456566 -32.137695
29.823175 55.848946 -31.821114
40.814613 53.426662 -31.721481
32.244793 55.166241 -31.998402
17.566315 39.382881 -31.829308
40.698517 53.297329 -32.425411
30.313681 55.611458 -31.71273
17.886196 39.563995 -32.740505
43.432892 53.148987 -32.319637
38.908844 53.753017 -32.419636
17.009022 40.529991 -32.728397
17.415188 39.887177 -32.72654
37.918198 53.78289 -32.627651
28.959747 58.399223 -33.710545
13.66752 44.232666 -32.920399
32.312454 55.040695 -32.573833
17.396046 40.286911 -32.425785
36.014061 54.496391 -32.1133
42.895866 53.066734 -32.732307
13.692949 46.062897 -32.612568
18.455591 32.278793 -32.811455
13.529097 46.512253 -33.078873
40.411655 53.200851 -32.697487
31.438347 55.554565 -32.757637
18.737625 32.451996 -33.029339
37.29026 53.27243 -33.19545
13.664645 45.115372 -32.682404
42.15863 52.873402 -33.133995
33.943634 54.548492 -33.206066
32.124252 55.182999 -32.761921
36.732895 53.646957 -33.034737
31.755257 55.573502 -33.009228
36.312897 54.201679 -32.619827
39.922401 53.031544 -33.040695
40.752941 52.744877 -33.288002
15.838599 39.760109 -33.651886
42.256077 52.564899 -33.521343
16.658264 40.071335 -33.205879
13.814448 39.924515 -34.457306
39.070065 53.075035 -33.17403
35.177055 54.217125 -33.42432
13.249763 44.686783 -33.582798
13.288969 43.743397 -33.580376
16.691486 39.735077 -33.532513
38.502373 52.434837 -33.61166
36.558662 52.903465 -33.432888
35.8438 53.805244 -33.41724
34.390709 54.584393 -33.754124
13.166981 40.463493 -34.880219
40.118126 52.321423 -33.58168
40.61425 51.668457 -33.906826
39.550846 51.878315 -33.782803
14.073756 39.458748 -34.560101
15.773736 38.254997 -34.528259
13.17333 45.393513 -33.917442
35.272362 54.006207 -33.913345
13.275478 45.32972 -35.492523
16.338799 39.110977 -34.092117
12.986732 42.743961 -34.464752
13.068493 44.956696 -34.589149
12.911625 43.48851 -34.816162
16.442051 36.617199 -35.443733
35.010986 54.350727 -33.992863
32.657921 57.544952 -35.135906
15.407772 37.762894 -34.859734
16.147753 49.893211 -35.412636
35.010635 55.119743 -34.746887
13.107915 44.961575 -35.239075
12.870066 41.155148 -35.197922
30.593094 58.783997 -35.349319
13.598852 45.658192 -35.915997
30.856884 59.168709 -37.290707
15.031704 48.42289 -35.432747
35.47591 55.243767 -35.473713
12.763069 41.615257 -35.486568
16.602665 34.259312 -36.820862
12.977828 40.209728 -35.350624
13.518006 37.976025 -35.847652
12.885205 43.284748 -35.896076
35.170158 55.888592 -35.438892
15.730539 49.308052 -35.3536
16.291361 49.114243 -35.774841
35.299919 56.427521 -35.870747
17.040117 50.09259 -36.238537
15.888489 48.484474 -35.816368
13.967243 43.422066 -37.658871
15.185847 35.605659 -36.293659
21.646563 53.371017 -37.121799
18.418653 52.716904 -36.05101
23.693739 57.151733 -35.738903
15.567924 36.039154 -35.81786
35.581005 54.734077 -35.674839
13.80976 36.896797 -36.262936
17.84914 52.359604 -35.948586
36.0243 56.158737 -36.250832
19.937925 52.858398 -36.483238
13.068004 44.103497 -35.991234
15.954041 35.764126 -35.894398
19.942917 52.356457 -37.023476
24.601803 56.714729 -36.463684
34.488541 58.495403 -37.375439
16.081377 48.04369 -36.074474
17.47723 50.834229 -36.655869
26.851845 58.553631 -36.788086
12.776023 39.400314 -36.276901
14.582351 35.071579 -37.036137
36.640633 56.021893 -36.600742
15.585835 45.000957 -37.474323
13.151073 38.068268 -36.266659
16.744884 46.854019 -36.599628
16.937187 47.421844 -36.510429
25.999123 58.103336 -36.670765
12.688864 39.993511 -36.569645
13.539282 36.811226 -36.622723
17.076954 49.073799 -36.427185
17.224056 47.623177 -36.71397
19.54435 51.476749 -37.968193
20.42313 52.672134 -36.807453
15.952554 34.610809 -36.648232
13.976298 35.121994 -37.499836
36.1782 56.801292 -36.703541
26.035269 56.747276 -37.379906
17.509277 49.695702 -37.260353
24.231544 55.552715 -37.049171
37.370049 56.615372 -37.222736
37.837017 55.926754 -37.071331
12.82962 41.452797 -37.259048
35.332294 57.729736 -36.920868
18.222395 51.108215 -37.403931
17.782845 50.171028 -37.570042
17.044125 44.906288 -37.894817
20.463835 52.137196 -37.303741
12.736058 38.824184 -37.072639
12.69862 39.731857 -37.273388
17.432461 47.318893 -37.199085
39.096657 55.382496 -37.329441
38.062229 55.161201 -37.050663
24.122482 54.632477 -37.808411
21.001467 52.340115 -37.25346
25.05212 55.307762 -37.406536
25.096828 56.326424 -36.889763
15.699101 33.527164 -37.716976
33.932816 58.662853 -37.325531
33.115437 58.885452 -37.438938
17.690601 45.693062 -38.26857
40.791367 54.567734 -37.381958
38.492233 56.110924 -37.403557
18.153767 50.526268 -37.856644
36.911324 57.475533 -37.687923
25.75378 55.936638 -37.281952
39.804298 55.567928 -37.542667
12.947601 37.467983 -37.501698
38.38913 56.628387 -37.705242
18.83778 51.078835 -38.014004
13.319835 36.193474 -37.52758
26.551502 57.521515 -37.464828
17.120541 43.023918 -39.029484
21.576 52.277428 -37.549374
41.470692 55.107925 -37.606915
24.688969 54.601685 -37.974335
26.909054 56.365616 -37.977131
26.651199 55.575783 -37.73671
15.168577 33.337791 -38.299667
12.778701 38.716293 -37.831314
12.892169 37.754513 -38.00655
17.422024 46.016613 -37.515667
13.088778 40.426319 -38.323692
40.639942 56.112457 -38.135792
26.771618 55.312904 -37.736156
13.943062 34.576965 -38.216797
12.931297 40.129601 -38.139702
14.229856 40.957397 -39.122597
40.776951 55.861687 -37.974522
13.448464 35.749016 -37.770046
33.727741 58.899429 -38.50526
38.602959 57.253414 -38.424999
21.586735 51.159668 -38.255161
29.841496 58.755241 -38.293152
35.495461 58.36792 -37.953854
26.70483 54.86985 -37.93523
22.469788 51.650005 -38.347157
22.952042 51.442055 -38.795773
28.788368 58.347065 -38.300224
35.857529 58.437622 -38.510845
32.504471 58.933617 -38.8116
22.54582 50.956795 -38.612526
27.791504 55.054085 -38.401161
20.651173 50.191589 -39.739182
42.237808 56.013115 -38.704151
28.487272 57.200546 -38.851826
18.099949 48.131321 -39.622978
21.571304 50.717411 -38.75666
28.474129 56.106026 -38.936184
37.63179 58.008118 -39.095776
22.324566 50.101891 -39.087395
13.1391 39.396965 -38.738972
30.831635 58.204784 -39.469528
18.812197 50.003777 -39.138233
29.809055 57.669815 -39.363941
29.707285 54.825012 -39.738621
36.707283 58.378082 -39.410496
17.668343 44.326645 -38.556656
28.467823 55.491524 -38.836552
13.386917 35.554382 -38.881248
34.857407 58.676079 -39.418129
18.095942 43.620911 -40.343662
24.708088 52.368095 -40.062469
31.471283 58.621906 -39.239544
23.194145 50.853676 -39.106392
19.411381 49.978058 -39.607151
28.430876 54.159706 -39.160954
27.829906 54.157433 -38.930038
13.942359 34.317059 -39.103039
30.571766 55.751198 -40.1418
25.369919 52.99345 -39.926338
17.707277 43.498016 -39.030785
13.657209 39.633587 -39.293549
23.026642 49.9408 -39.165794
13.190387 37.156334 -39.182186
25.377087 50.775841 -41.431217
13.436832 35.551678 -39.497276
23.514175 49.954853 -39.455002
18.532993 48.329384 -40.383705
39.171978 57.658821 -39.798592
23.17345 49.447735 -39.607151
13.847902 34.66111 -39.793934
29.02037 53.772388 -39.741043
23.814051 49.485939 -39.722424
13.527673 37.326553 -39.833786
42.650379 56.334942 -39.932297
14.420329 39.070339 -39.976059
17.44894 41.914059 -39.789093
16.601555 41.233166 -39.789646
16.125553 40.456463 -39.898216
16.679771 39.755119 -39.867119
36.41637 58.382915 -39.946079
33.151947 58.526157 -39.898029
15.143709 40.311569 -39.753334
34.13187 58.519203 -40.059486
19.756744 46.791298 -43.358078
23.445229 47.710331 -41.448719
39.811241 57.481613 -40.339008
16.998913 39.061604 -39.880154
17.796337 41.873489 -40.038258
15.1081 38.789551 -40.29525
37.955956 57.961906 -40.608479
15.321596 39.120636 -40.164146
13.98593 36.492451 -40.501587
34.001232 57.929459 -40.776821
32.787647 58.227039 -40.174576
24.672293 47.844872 -41.091728
16.175568 38.875286 -40.198601
17.419024 38.440994 -39.963024
29.758831 53.090485 -40.782784
38.891857 57.786667 -40.450745
15.635541 37.109322 -41.104206
18.456352 47.327927 -41.121338
40.841145 57.054413 -40.6852
13.7739 36.194393 -40.313313
18.175911 42.236961 -40.625797
14.021271 34.776947 -40.366756
18.144035 41.757813 -40.31778
37.043579 58.045963 -40.734921
32.554913 57.453903 -40.663975
15.300367 33.185078 -41.662876
24.697376 50.057938 -40.823006
32.662292 57.697639 -40.593765
18.18972 46.437862 -41.024315
16.68017 37.572235 -40.809036
37.741867 57.580547 -41.461384
14.718078 35.107117 -41.308495
32.026505 54.976753 -41.041817
15.534541 35.189812 -41.879826
14.406354 36.106133 -40.934185
14.478345 34.713154 -41.055416
17.082638 36.392357 -41.461197
33.522285 56.741398 -41.221527
25.472275 48.020218 -41.585224
26.934319 51.127625 -42.410011
41.285263 56.514702 -41.534943
18.333046 42.735161 -41.525635
18.867138 46.229099 -43.006485
39.321442 57.432034 -41.257469
18.364727 46.608536 -41.518742
35.268311 57.330849 -41.517624
29.525141 52.401634 -41.596024
18.26339 43.664425 -42.366245
35.070488 56.338806 -41.809067
25.655945 47.829132 -41.700123
39.097633 57.166836 -41.6964
25.720545 48.572041 -42.103115
18.553822 42.072247 -41.386894
39.001648 56.7383 -42.134399
27.582703 51.702072 -42.134586
30.214067 52.026764 -42.113541
18.463223 42.639706 -42.7197
36.428265 56.336697 -42.147247
19.036808 41.770424 -41.822289
23.558149 46.798168 -42.291756
20.887211 47.547096 -42.851734
19.241581 46.944893 -42.769608
29.072783 51.11409 -43.177067
21.570122 47.061192 -43.192528
18.226608 44.547852 -42.223789
37.511681 56.758015 -42.201065
26.386343 47.329517 -42.609455
27.542543 47.927742 -44.602802
19.257328 41.440117 -42.40852
38.652191 56.040527 -42.532356
18.461052 45.218132 -43.099594
18.834171 41.9618 -42.652843
19.032257 40.895409 -43.11021
18.288097 43.093212 -43.402954
18.479488 42.216747 -43.239449
22.266411 46.560497 -43.327351
29.874784 51.123631 -43.157513
18.316982 44.615421 -42.999035
29.920113 50.408768 -44.097015
18.254145 41.695831 -44.004833
26.765648 47.557728 -43.451191
18.709129 39.752548 -44.224766
18.390896 44.132172 -44.030716
18.224255 43.238255 -43.8769
18.749874 45.062531 -44.005207
18.094421 42.178795 -44.312477
27.219051 49.851067 -43.526424
29.4629 50.419136 -44.097385
21.086245 46.504204 -43.955673
18.396191 40.722881 -44.15065
26.968054 47.864353 -43.834255
28.265652 49.660366 -44.435753
19.088428 45.330322 -44.273182
17.900532 40.760815 -44.942661
18.406334 43.720917 -44.875618
21.413862 45.160316 -45.150299
22.509033 45.011101 -44.515644
27.748293 48.555153 -44.664253
29.479744 49.853527 -44.846008
17.669115 40.951141 -45.423115
19.565048 45.039856 -45.110077
18.612808 43.927963 -45.176929
29.049297 49.568935 -44.99033
17.546642 41.193573 -45.873222
18.094193 42.857574 -45.37265
17.979733 42.431648 -44.942287
29.176003 48.971485 -45.665581
19.27425 43.936981 -46.192596
20.38484 45.054848 -45.467068
28.673607 48.714115 -45.476192
17.286798 39.413826 -46.255543
17.75069 38.142494 -46.069504
17.681131 41.738167 -45.826855
28.456017 47.767937 -45.76968
17.849163 42.193245 -46.357407
17.723389 41.953762 -46.084396
18.33559 42.954628 -46.364666
18.777403 43.077637 -46.882557
17.920734 42.097229 -47.077908
18.124117 42.063446 -47.643841
20.294727 43.412949 -47.152767
19.724514 42.938858 -47.60194
21.135883 43.44883 -46.887772
18.492348 42.115959 -48.017967
19.12718 42.609505 -47.792076
16.627811 39.756786 -48.243484
16.680645 39.849396 -49.015942
20.759212 42.520718 -47.807529
32.738411 42.066696 -22.45348
32.028824 42.03857 -22.681602
31.278704 41.437031 -23.077328
30.56971 40.751705 -22.755161
32.786285 41.775253 -23.009914
26.502506 35.318039 -23.395027
26.711363 35.431274 -23.814964
24.412163 35.902325 -23.57399
26.079102 35.5532 -23.528179
24.439764 35.814095 -23.897648
37.849037 45.477818 -24.284809
38.018013 45.089287 -24.385742
23.359659 35.601463 -24.497288
37.267456 45.143013 -25.41407
36.908546 45.452835 -26.000675
36.604919 45.671276 -26.930309
36.353054 46.300549 -28.539845
37.215752 47.826248 -29.311558
38.149208 49.193169 -28.796276
37.369141 48.563576 -28.914341
40.162766 48.907249 -29.335396
38.565113 48.669701 -29.407833
41.297901 48.59568 -29.857197
39.144009 48.574295 -29.705978
18.947601 36.850784 -31.595039
19.344158 36.358776 -31.803238
19.108307 35.340782 -31.919815
18.614281 33.664558 -32.246826
19.226952 34.515953 -32.290215
18.15332 38.737492 -31.94067
19.856121 35.041458 -32.274574
19.874077 33.81456 -32.829147
19.196682 33.430546 -32.810894
36.34922 52.062019 -33.601978
36.21677 52.367332 -33.579441
35.653404 53.241524 -33.685593
17.438145 39.790581 -33.504395
39.366108 51.57061 -33.842766
17.088558 39.344723 -34.229927
35.153687 53.646725 -34.232346
16.716051 38.377754 -34.618389
35.241425 54.110863 -34.554516
16.819492 35.924026 -35.940578
17.249722 36.223946 -36.043377
36.136753 55.137032 -36.253063
17.487743 34.610786 -36.873192
36.006863 54.312599 -36.553074
17.103336 34.501354 -36.758663
36.734402 55.188179 -36.599258
37.944378 54.484371 -37.160908
39.154148 54.607948 -37.296291
39.797504 53.942337 -37.481773
17.393761 39.431793 -39.541225
17.28227 41.134617 -39.938812
18.444874 41.45549 -40.102318
31.338974 53.808392 -41.064541
30.891529 53.223633 -41.177948
32.939873 55.098953 -41.294899
19.081532 41.684383 -41.013329
32.475727 54.299141 -41.21315
34.006271 55.222172 -41.494343
34.058998 55.809738 -41.550957
24.340908 47.284325 -41.610733
25.247906 47.176552 -41.309425
25.129051 47.632545 -41.331772
31.508728 53.068382 -41.196945
25.865662 47.259937 -41.488758
30.720047 52.73819 -41.455986
24.400736 46.629547 -41.83197
30.912489 52.021839 -41.667908
19.775326 40.868851 -42.360287
37.030487 55.698658 -42.398277
37.281189 55.124081 -42.372768
30.449104 51.44014 -42.515785
20.003006 40.494957 -42.561035
22.867924 46.115685 -43.268314
23.453613 45.580215 -43.021011
19.185432 39.75275 -43.78006
20.770222 40.889549 -41.825451
23.220623 44.38903 -44.246925
23.12035 43.788307 -44.91156
22.7775 43.38773 -45.535408
17.807047 37.301796 -40.501026
30.423868 50.614113 -43.561993
26.571201 46.799217 -42.328629
17.974665 27.739803 -33.446854
18.129232 31.350986 -32.817226
16.188744 48.598587 -23.10638
17.238796 47.903435 -23.781071
16.963474 48.148399 -24.198215
30.581846 40.393646 -23.247166
32.516777 41.770523 -23.552948
32.691994 41.695839 -24.106777
30.437403 39.518181 -23.644196
32.020882 41.747314 -23.34866
31.287018 41.681198 -23.609001
29.691853 42.55579 -24.206219
30.713305 41.097137 -23.653133
30.369143 40.729416 -23.897835
30.246851 39.643005 -24.204357
31.838873 42.010284 -23.962639
30.466576 42.722992 -24.175678
30.053055 40.639385 -24.333225
30.251108 42.407009 -24.018509
30.84211 42.629189 -24.411438
25.122463 35.938866 -24.150166
26.042191 36.049435 -24.27177
24.070892 35.872433 -24.468426
29.681416 41.635925 -24.365444
24.939632 36.366219 -24.449615
28.9757 43.459961 -24.704556
29.198841 42.807854 -24.524105
32.363289 41.937218 -24.744221
34.355049 41.028034 -23.39838
29.687857 40.771282 -25.006428
27.171108 35.574051 -24.285553
24.530197 37.463142 -24.842361
23.928146 36.748875 -24.849812
25.121506 37.64642 -24.932869
26.199144 36.350548 -24.57122
33.189877 41.657295 -24.662285
29.914705 39.562256 -24.847763
29.766155 43.243095 -25.187435
23.612122 36.070938 -24.89637
25.857433 37.269707 -25.07235
29.049114 42.751041 -25.00531
33.16264 41.862709 -25.112202
35.376152 41.028217 -23.985916
23.466478 36.649242 -25.095627
31.166363 42.599682 -25.407555
29.453747 43.459541 -24.598595
23.358904 35.644661 -24.931751
29.054188 42.285217 -25.687263
27.5065 36.612484 -25.351871
27.980534 36.497478 -25.224869
23.443684 39.221252 -25.39489
24.254604 39.801613 -25.688007
22.976782 37.862965 -25.679256
28.448097 36.824467 -25.277756
23.274586 38.081688 -25.288929
28.724224 37.132179 -25.275333
28.368519 37.653145 -25.766968
29.8251 39.043266 -24.902325
23.802303 39.832779 -25.528973
23.071871 35.691227 -25.670128
28.925102 43.393661 -25.508675
26.756683 37.49942 -25.839409
25.836119 38.688343 -26.234573
24.25354 40.037838 -25.860638
28.748615 39.443703 -26.003841
29.252323 43.509243 -25.70607
22.699541 35.256256 -25.51128
28.767 43.261944 -25.928982
22.873188 39.881443 -25.715942
23.176044 41.267189 -25.911289
31.063169 42.91214 -26.128242
22.719521 38.600655 -26.043137
30.113453 43.336487 -26.310555
22.839983 40.798843 -25.883541
27.733086 37.892128 -26.174984
22.808847 35.60836 -26.178707
28.76701 43.89872 -26.481323
35.417713 43.00581 -26.222843
36.566833 42.732033 -25.627113
35.764786 41.075531 -24.007149
23.400412 41.359047 -26.120792
22.61092 39.757401 -26.104778
37.091606 44.05061 -25.782234
27.966429 39.006401 -26.435513
22.63563 37.756744 -26.503853
27.352139 37.866356 -26.1964
22.527313 41.507538 -26.403111
22.83285 41.832932 -26.195469
28.872709 41.87513 -26.195469
34.289715 43.26918 -26.626205
36.348095 43.840996 -26.301617
22.543257 39.601341 -26.621922
36.200066 44.558022 -26.75079
31.240358 43.222164 -26.526016
24.384724 41.371208 -27.345215
26.864981 40.043545 -27.210949
22.647381 35.368538 -26.540726
22.555868 40.783119 -26.828632
34.986423 43.425354 -26.625275
23.587967 42.009014 -27.166813
28.522217 42.07613 -26.595104
30.155788 43.711617 -26.869785
25.713661 40.381355 -27.378551
22.666016 38.136265 -27.241676
28.288589 43.813263 -26.672947
28.030544 43.443436 -26.973515
36.673164 45.208969 -26.600319
27.272072 41.664024 -27.439632
22.633993 36.27507 -26.756748
32.353691 43.925369 -27.280598
22.585011 35.192268 -27.02491
23.250713 42.091961 -27.062714
35.322098 44.605412 -27.063831
29.092258 44.304634 -27.213184
33.959728 44.864468 -27.536842
32.553722 44.461678 -27.725487
36.216827 45.07489 -27.135715
22.801914 35.39209 -28.132202
22.830982 41.908741 -27.03664
27.91964 44.52877 -27.215977
27.452415 44.671005 -27.538704
26.238104 41.999886 -28.039276
30.747036 45.652954 -28.531654
35.545189 45.111336 -27.281342
34.973083 45.705654 -27.545036
33.920837 46.112839 -27.701836
24.730295 41.790558 -27.909473
27.312635 45.49147 -27.925861
22.628849 34.89579 -27.723808
27.067202 45.136749 -27.839085
33.80851 47.103386 -28.087505
23.084522 42.471672 -27.818783
33.575439 45.833786 -27.764595
26.822979 45.864685 -28.156036
32.968647 45.442116 -28.010036
25.605904 41.29287 -27.861801
32.487862 47.685589 -28.076332
22.916508 41.642262 -27.750256
36.294891 45.769291 -27.880238
35.024216 46.344368 -28.097565
32.902882 48.489475 -28.633701
23.4874 42.882408 -27.970558
24.001879 42.670242 -28.132572
31.746262 48.531441 -28.31358
22.956142 38.79147 -28.38081
22.444836 33.18502 -28.239651
23.029024 43.620758 -28.672436
29.751255 46.483616 -28.942646
31.422859 48.324684 -28.372803
30.935589 45.970009 -28.646736
24.183979 43.760986 -28.724205
26.156754 45.814438 -28.354927
31.722061 49.275578 -28.618431
35.928917 45.782753 -27.999607
31.506506 47.205196 -28.572994
25.208498 42.590714 -28.408558
25.846994 42.566231 -28.304081
23.13406 34.587475 -29.603928
26.157705 46.658691 -28.532207
23.358847 43.324455 -28.307251
24.658955 45.237995 -28.985664
22.97958 40.699402 -28.385277
22.962891 41.415764 -28.738731
31.049706 49.194687 -28.423454
24.905226 47.239319 -28.930729
25.761745 47.24791 -28.792923
34.369328 47.488426 -28.768528
22.845798 42.819618 -28.907078
30.980713 49.599648 -28.758659
24.075294 49.193428 -29.414726
30.067791 48.969631 -29.008198
30.420925 48.094505 -28.93129
23.027185 39.283043 -29.160713
34.612129 48.191628 -29.393311
23.157009 44.470352 -28.891994
30.114563 47.228622 -29.094234
31.496223 49.565002 -29.121052
22.744488 41.905499 -29.269283
22.927309 38.951569 -29.717899
22.795315 45.294834 -29.247311
24.132164 45.240593 -29.138741
29.524549 47.299622 -29.23148
35.966011 46.555252 -29.075611
22.424164 44.936966 -29.472824
28.751884 47.415627 -29.30299
23.124111 37.715778 -29.270588
28.875557 49.235966 -29.495361
33.160381 48.92601 -29.210625
22.654545 46.459785 -29.574322
22.562366 47.450375 -29.745087
23.384319 49.049259 -29.421429
30.353924 49.655663 -29.236694
34.601894 48.4776 -29.692757
33.074608 49.101242 -29.623295
36.665081 47.110725 -29.294613
22.221653 46.196945 -29.689781
23.194899 36.129253 -29.937458
25.032953 50.163277 -30.011761
22.315052 43.082172 -29.665756
35.078102 48.632633 -30.551811
26.441309 49.839272 -30.027401
29.344875 49.586063 -29.478973
22.80769 49.615356 -29.647133
37.05624 47.7136 -29.867439
23.412678 50.044235 -29.586613
27.956741 49.348553 -29.753281
27.507874 48.627293 -29.655514
38.025257 48.370926 -29.600578
29.461666 49.828148 -29.776371
22.049591 46.549461 -29.832798
36.450333 47.503975 -29.808403
21.840626 41.883217 -30.255901
27.776251 49.949837 -29.94751
22.056084 48.634617 -30.006359
21.93372 44.530056 -29.873581
22.468475 40.640724 -29.977123
30.639717 49.682133 -29.884384
23.026108 36.245815 -30.434864
23.233414 35.121498 -29.904125
22.65033 50.259766 -29.94733
22.754646 38.659611 -30.137093
21.31242 44.186672 -30.274334
30.960026 49.60257 -30.803215
26.074604 50.488651 -30.293144
23.51626 50.654053 -29.990532
28.697094 49.972748 -30.094818
27.25124 50.448631 -30.53896
24.450584 51.017239 -30.376759
23.095648 33.307812 -31.439541
38.356583 48.302574 -30.567265
22.700275 50.613083 -30.27322
23.153057 32.357796 -31.368774
22.637207 37.94202 -30.483093
20.379974 42.480164 -30.882175
29.449795 49.950066 -30.626301
26.353649 51.142868 -31.121284
21.787674 49.547821 -30.495945
22.101135 49.299126 -30.032616
24.318542 51.148811 -30.609539
20.372974 44.054989 -30.670807
37.555374 48.124641 -30.440453
20.977947 48.436157 -30.602093
36.262131 48.095333 -30.29538
22.01207 37.313202 -31.176777
19.859726 46.341194 -30.889248
25.936249 51.407669 -31.371571
20.451269 46.326321 -30.617737
38.122318 48.267128 -30.917927
19.699139 45.498299 -30.825375
22.255669 49.992783 -31.44606
22.727127 50.696396 -30.636173
28.47916 50.281715 -30.829098
41.483578 48.144657 -32.548508
18.483746 45.155735 -31.0481
22.659386 35.948723 -31.151825
18.702129 44.630104 -30.818668
19.722401 43.976814 -30.832634
32.004265 49.698025 -31.803425
18.851734 43.545006 -31.032269
20.658321 48.457245 -31.200802
27.776224 50.626354 -31.056103
24.314518 51.175339 -31.020725
20.482204 39.335754 -31.540661
19.330521 45.813026 -31.005638
37.825264 48.317825 -31.576233
36.950256 48.170471 -30.720161
36.650635 48.38501 -31.241589
23.647732 50.787949 -31.278088
18.59742 43.220276 -31.261883
20.842529 38.717438 -31.489822
18.333664 44.316551 -31.310677
20.750494 48.57859 -31.458351
27.905458 50.941673 -31.480698
20.663582 37.550793 -31.686287
19.004725 45.769623 -31.342335
19.593357 46.632565 -31.287025
22.766548 34.895374 -31.404716
18.484367 42.408516 -31.638054
32.768009 49.490959 -31.815899
19.356644 46.350311 -31.959663
26.57267 51.587009 -31.636196
21.434628 36.946815 -31.527439
30.205486 50.269157 -31.716461
19.952644 37.316559 -31.836201
25.425869 50.966282 -32.06414
18.870884 45.475723 -31.904915
25.582676 51.314217 -31.699696
18.385464 44.881462 -31.43079
20.563969 38.589352 -31.640106
20.946474 48.513062 -32.126892
20.425617 36.653812 -31.856495
32.221035 49.937122 -32.108643
24.218349 50.032303 -32.624302
21.977501 34.972672 -31.952591
30.402731 50.670593 -32.068047
27.256071 51.736732 -31.834335
37.958633 48.403679 -32.051846
18.915834 40.767326 -31.813854
21.380966 35.840324 -31.859665
22.555035 48.901596 -33.53717
19.134415 39.771252 -31.961716
20.151243 47.829983 -31.875862
19.245758 38.990181 -32.016464
18.189478 42.124611 -32.31126
18.874031 38.344444 -31.93285
18.374683 39.197968 -32.313305
26.497297 51.609337 -32.305111
27.659149 52.228348 -32.126152
20.437622 35.564087 -32.126709
30.82552 51.417717 -32.46843
36.168789 49.087299 -32.623558
20.404741 47.938404 -32.31163
23.081207 49.354286 -33.17012
21.552071 34.568237 -32.290028
25.279213 50.240341 -32.780357
33.184898 50.631886 -32.725792
26.057928 51.089699 -32.425037
30.45319 52.814011 -32.649628
18.184605 43.448326 -32.210506
20.271641 34.588554 -32.493759
18.628613 39.815186 -32.321129
18.154377 43.004585 -32.071213
29.8419 54.405579 -32.318146
28.144241 52.652649 -32.298225
27.072613 52.152374 -32.28537
27.331581 52.264412 -32.161907
18.638142 44.149532 -33.025238
18.112156 42.173012 -32.819279
20.905363 48.120239 -32.647949
28.813356 53.870468 -32.631191
27.806664 53.087986 -32.495804
20.57671 33.397858 -33.063229
30.844532 54.38316 -32.958202
36.569801 49.366127 -32.984642
30.280924 53.566006 -32.538452
28.878496 49.719769 -35.701469
26.683138 51.130299 -32.904194
29.432579 54.508934 -32.536213
29.533127 52.929535 -32.526535
29.111259 53.625248 -32.506794
31.049097 53.923241 -32.541988
31.081001 54.162479 -32.689293
27.670486 53.250851 -32.960247
27.099005 52.117146 -32.738083
32.905754 52.804523 -33.004196
33.226917 52.091217 -33.042934
18.450489 39.866962 -32.579418
28.99922 54.136551 -32.971237
38.441017 49.384563 -33.44648
27.782452 53.154213 -33.681126
27.353222 51.612831 -33.326553
27.158216 51.25132 -33.267143
18.048519 40.394978 -33.396389
33.94059 52.844543 -33.299545
28.043514 53.673988 -33.047775
19.441845 46.088272 -33.500298
27.655472 52.532295 -33.706261
32.946819 53.526512 -33.184647
35.755142 51.974754 -33.572742
20.876701 47.495007 -33.495827
21.496841 47.689129 -33.781124
30.278419 54.388008 -33.270126
17.866486 39.997143 -33.478325
28.280289 53.320831 -34.202736
20.316977 47.213257 -33.568459
35.13409 52.556129 -33.603653
31.277241 54.279739 -33.76902
17.999161 40.396149 -33.778332
19.828403 46.930435 -33.380741
19.113062 45.034721 -33.819675
29.459911 53.902733 -33.843327
35.221661 53.045677 -33.753006
34.695972 53.072754 -33.71278
32.193783 54.191887 -33.80254
18.801058 43.22414 -34.924538
34.678558 53.566025 -34.459351
19.201256 45.260178 -34.428253
21.524254 46.792244 -34.826218
17.593952 39.684273 -34.383003
31.903049 54.08844 -34.296406
25.650291 48.414146 -35.00555
20.984859 46.729324 -34.546135
23.259451 48.626751 -34.283558
33.349731 53.909401 -34.022842
24.922028 48.626434 -34.612614
17.944456 39.811516 -35.053783
19.556408 46.412674 -34.661407
20.554058 46.608261 -34.581703
30.090649 53.630241 -34.847446
28.436386 51.194881 -34.808334
23.162445 48.018074 -35.41431
17.161795 38.684391 -34.735149
28.210592 52.394241 -34.727146
30.414654 50.058704 -37.724609
18.155394 40.52951 -34.711685
25.045864 48.5084 -34.833664
34.758873 53.725258 -35.047077
19.89806 46.575375 -34.612247
19.287357 45.934578 -34.918026
18.963852 44.492607 -35.220451
21.387466 44.535282 -37.390522
21.628914 45.299198 -36.603168
29.004581 50.387367 -35.613014
25.001717 48.195679 -35.521576
19.323812 46.265152 -35.505005
