# .PCD v0.7 - Point Cloud Data file format
VERSION 0.7
FIELDS x y z
SIZE 4 4 4
TYPE F F F
COUNT 1 1 1
WIDTH 1559
HEIGHT 1
VIEWPOINT 0 0 0 1 0 0 0
POINTS 1559
DATA ascii
34.041916 55.670101 -16.792152
36.460228 57.029156 -15.858158
32.418602 56.708317 -16.462852
62.244827 56.910088 -16.702442
32.79496 56.713203 -16.287609
30.082418 56.045513 -17.288364
59.194473 58.946575 -15.213379
58.456097 59.331657 -14.10408
45.565842 57.824718 -16.565811
33.291435 56.170876 -16.787651
33.964821 55.152317 -17.334801
52.834171 58.199753 -15.847824
62.849125 56.245018 -17.054588
31.742609 55.98259 -18.127831
40.47187 60.601151 -14.274761
63.871685 55.00618 -18.400154
29.728407 55.853989 -17.203297
36.984634 57.433212 -16.286093
29.006788 54.934746 -18.044399
36.652222 56.969738 -16.272903
61.599937 57.489944 -16.380941
57.780849 59.307144 -14.763515
28.963398 54.203896 -20.349619
47.007591 58.938316 -15.2806
58.019775 59.352169 -14.634081
39.695496 60.147758 -14.528542
32.840401 55.550129 -18.105387
61.835693 57.339947 -17.455132
29.7528 55.390724 -18.891144
55.783779 58.356552 -16.054392
30.431402 55.404465 -19.625431
30.156162 55.889862 -17.983688
29.31592 55.114906 -18.79221
32.390297 55.07877 -19.352238
58.063908 58.771076 -15.94116
46.291374 57.850914 -17.188044
49.408768 59.484661 -16.893848
63.864979 55.016987 -19.500355
37.42524 58.226593 -16.795017
40.080238 60.965805 -16.429663
62.950249 56.343937 -18.024694
39.939262 60.479553 -14.895565
59.780334 58.447556 -16.599154
52.212372 58.433331 -16.713434
37.9692 59.346542 -16.952614
58.991119 58.150146 -17.229164
46.30925 57.722198 -17.446037
62.608337 56.580654 -18.399046
46.836266 58.38538 -17.415632
37.168251 57.63969 -17.106377
62.259354 56.657982 -18.90593
50.274708 59.325455 -16.667894
52.499157 58.206772 -17.579111
37.4636 58.874012 -17.810513
60.029881 57.697716 -18.050262
37.344231 57.504612 -17.78809
44.039551 58.53046 -17.540148
42.474895 60.645073 -16.496777
40.827183 61.04921 -16.050453
51.038227 58.916782 -18.371674
42.685703 60.242725 -17.279263
38.508881 59.7915 -16.393286
61.130646 57.446068 -18.331671
46.547619 57.653866 -18.690424
47.817852 58.716904 -20.400562
37.300842 57.579018 -18.490925
61.543137 56.676392 -19.409977
39.119324 60.632355 -16.831005
37.312016 58.250568 -18.246372
36.778297 57.821236 -19.203672
37.62096 59.665558 -18.03825
37.204189 58.951889 -18.423653
42.897251 59.692715 -17.916775
51.65873 58.514904 -18.683363
38.621544 60.284969 -16.991226
51.233948 58.676987 -19.773796
36.696732 59.249142 -19.173365
46.984875 58.142071 -19.379578
35.79615 58.026108 -20.486715
38.367535 60.628147 -18.050034
37.665283 60.086754 -18.303516
39.240555 60.980942 -17.720699
36.884819 59.808952 -19.105225
48.806332 59.312958 -18.495296
50.890366 58.908443 -19.580065
41.957008 60.644676 -17.9382
36.180145 58.701977 -19.822842
47.337021 58.468567 -19.605669
49.485493 59.27021 -19.718216
39.672035 61.143635 -17.934
35.824829 59.477394 -20.206085
38.115013 60.922302 -18.906147
41.344139 60.46262 -19.650438
42.087177 59.427837 -19.690235
48.378757 59.02327 -20.223707
50.539703 59.049442 -20.439011
35.769894 60.011864 -20.384802
39.850437 61.276436 -18.915054
38.406269 61.135811 -19.120323
50.027031 59.187157 -20.511847
35.831905 60.503757 -20.559628
37.320953 60.888855 -19.583038
36.959492 60.41864 -19.415798
49.740059 59.208214 -21.37566
38.918758 61.468266 -20.167221
40.488068 61.111034 -19.519861
49.189766 59.182827 -21.149734
34.488853 59.833057 -21.621492
34.02702 58.739006 -22.296658
36.284988 60.72731 -20.311512
48.41489 58.923378 -21.750557
36.706226 61.252655 -20.563286
36.45594 60.998566 -20.420101
37.56826 61.4646 -20.394917
37.985775 61.652126 -20.913622
36.699337 61.624195 -21.19207
36.83342 61.868004 -21.726271
39.363647 61.275448 -21.582428
38.622101 61.566738 -21.924358
40.031075 60.711983 -21.709305
37.149254 61.957981 -22.139153
37.952812 61.789814 -21.985382
34.204491 61.636627 -22.703194
34.304493 62.161488 -23.271156
39.14595 60.944027 -22.71526
48.030708 38.48172 -8.4660053
47.469055 38.961258 -8.3614216
46.507767 39.231987 -8.650835
45.524128 38.971848 -8.4485588
47.880051 38.644791 -9.0555477
38.915779 38.197247 -9.9338112
39.14856 38.430786 -10.286037
37.690048 39.684448 -8.9195213
38.742588 38.629318 -9.7450771
37.65448 39.827126 -9.2223053
54.138302 39.144119 -10.300821
54.018002 38.897789 -10.639273
36.690399 40.619637 -9.3400841
53.477577 39.959892 -11.09045
53.401787 40.695496 -11.238966
53.309605 41.570747 -11.718094
53.521156 43.098625 -12.537149
55.16272 44.065193 -12.733501
56.756428 44.076481 -12.051378
55.754169 44.167023 -12.129528
58.11512 43.263756 -13.437109
56.738552 43.957603 -12.949459
58.784409 42.85738 -14.459261
57.120686 43.808212 -13.464012
34.113613 48.087627 -12.339153
34.101135 47.737465 -12.904755
33.266106 47.33115 -13.397877
31.810207 46.800964 -14.269638
32.826805 47.026787 -14.136787
34.717911 49.808067 -11.346722
33.646564 47.015308 -14.126003
32.871685 46.642967 -15.162378
32.105934 46.739437 -15.057602
57.221619 49.735359 -13.576416
57.316406 49.965256 -13.354088
57.446762 50.823891 -12.772181
34.846966 51.783344 -11.730562
59.21682 48.116234 -15.249344
34.292576 52.160206 -12.361454
57.324413 51.659184 -12.785021
33.385666 52.025887 -12.981262
57.689968 52.095432 -12.839527
31.887676 51.384933 -15.245083
32.410034 51.415161 -15.353912
59.035439 53.348553 -14.005329
31.555452 50.884712 -16.882257
58.406006 53.121559 -14.587437
31.190639 50.936161 -16.689579
59.526142 53.306812 -14.492279
60.000641 52.659027 -15.769016
61.006809 52.222874 -16.311726
61.071804 51.634712 -17.047382
34.58234 55.475052 -16.513374
35.591492 56.784775 -15.933401
36.688351 56.505699 -16.381016
54.506096 58.024082 -16.363033
53.787457 57.974152 -16.552975
56.562012 58.141197 -16.565474
37.323189 56.912109 -17.229233
55.692345 57.847847 -16.70491
57.458122 57.816605 -17.098196
57.876194 58.171829 -16.874027
44.951675 57.992561 -17.102486
45.577202 57.289032 -17.29949
45.779259 57.629509 -17.042965
54.160465 57.591347 -16.898983
46.104031 57.149048 -17.651047
53.344055 57.952435 -16.934147
44.576622 57.721069 -17.619101
53.031013 57.573528 -17.528734
37.330452 56.957718 -18.949295
60.081089 57.188118 -18.805557
59.903805 56.711102 -19.172527
52.302132 58.005348 -18.273216
37.264526 56.755238 -19.381252
43.072117 59.097549 -18.339111
43.17659 58.335968 -18.655323
36.161148 57.50584 -20.342743
38.105888 56.136192 -18.94046
42.23243 58.539677 -20.084709
41.769478 58.66375 -20.848211
41.249352 58.998505 -21.381699
33.5298 54.638565 -18.468204
51.751839 58.205528 -19.470968
46.348358 57.071136 -18.812799
27.511873 44.410484 -17.84201
29.951504 46.04879 -15.645391
39.551548 50.883591 1.0880966
39.909096 50.392288 -0.20490074
39.855652 50.939747 -0.29007339
45.303268 39.072006 -9.0067806
47.670551 39.123779 -9.3625107
47.756771 39.34967 -9.895937
44.629879 38.884594 -9.6823254
47.275757 39.223026 -9.0125504
46.671085 39.712929 -8.9413261
46.011292 41.395512 -8.3090858
45.856167 39.681053 -9.0256844
45.356155 39.792023 -9.2520027
44.564144 39.411736 -9.9712372
47.305363 39.861626 -9.2781982
46.712242 41.092522 -8.5234547
45.056149 40.174698 -9.4992619
46.344074 40.912163 -8.4696236
46.939621 41.004105 -8.9054089
38.25766 39.726494 -9.6363811
39.033287 39.416668 -10.055103
37.409409 40.409882 -9.4784126
45.412022 40.963196 -8.8796921
38.392303 40.259789 -9.5798035
46.04388 42.59906 -7.9497185
45.795647 41.990524 -8.224781
47.660122 40.062912 -10.12958
48.601486 37.68354 -10.369238
44.861172 40.864651 -9.7991295
39.592514 38.590675 -10.766186
38.783745 41.357544 -9.1713676
37.863426 41.239635 -9.2800293
39.354523 41.232109 -9.3947678
39.347073 39.708565 -10.201075
48.113392 39.438965 -10.546173
44.257805 39.941475 -10.36664
46.510002 42.392963 -8.7530098
37.18557 41.027348 -9.51894
39.676132 40.738335 -9.9911766
45.644432 42.340221 -8.5595169
48.224567 39.862122 -10.778429
49.383816 37.558514 -11.241123
37.445724 41.566505 -9.326643
47.169048 41.467415 -9.8169823
46.409813 42.295315 -8.0662727
36.717587 40.924625 -9.6513195
45.348892 42.502716 -9.3133945
40.516933 39.720322 -11.210278
40.806137 39.337784 -11.365477
39.08152 43.279411 -8.2800064
40.075768 43.409088 -8.5538292
37.850761 42.895027 -8.9737568
41.374496 39.333431 -11.438168
38.219482 42.625839 -8.690094
41.783817 39.37648 -11.39888
41.846199 40.173363 -11.372
43.85556 39.716114 -10.626968
39.749317 43.547867 -8.2297745
36.527637 41.567905 -10.075426
45.962502 43.101944 -8.5774536
40.51265 40.923393 -10.837215
40.571686 42.328377 -10.174145
40.226799 43.659203 -8.569313
43.288322 41.189209 -10.828823
46.28746 43.135532 -8.8069496
35.962822 41.393887 -10.014084
45.756721 43.372669 -8.8989601
39.068855 44.154106 -7.9651527
40.191597 44.943737 -7.5575809
47.29084 42.164837 -10.172567
38.127865 43.688492 -8.7829704
46.836079 42.998684 -9.7108765
39.633114 44.81654 -7.628088
41.513046 40.888763 -11.304337
36.272881 41.9757 -10.397148
46.166042 44.101379 -9.0085258
50.686825 40.136417 -11.998106
51.391121 39.027 -12.151348
49.711941 37.408562 -11.394663
40.422516 45.021828 -7.765543
38.788216 44.460396 -8.2157364
52.640686 39.642082 -11.837727
42.408039 41.595215 -11.051653
37.521145 43.530716 -9.5167828
41.204659 41.074986 -11.176033
39.849133 45.720352 -7.5479507
40.292347 45.627384 -7.3549023
44.946274 42.678101 -9.8296471
49.99202 41.105679 -11.711349
51.936386 40.219036 -12.031612
38.63607 44.734547 -8.6607761
52.283882 41.001419 -11.961468
47.625854 42.515202 -10.397833
41.184364 45.331329 -9.1042099
42.230942 43.244629 -10.679888
35.995037 42.147175 -10.725847
39.405361 45.554707 -8.242424
50.626114 40.853661 -11.9216
40.983986 45.983257 -8.3242874
44.80698 43.225513 -9.8919983
47.109642 43.557442 -9.9720497
41.566124 44.117512 -10.166241
37.788376 44.21273 -9.9076653
45.744617 44.409981 -8.9997311
45.309227 44.513222 -9.3054619
53.06472 41.053734 -11.721146
43.584419 44.142109 -10.225336
36.56749 42.8246 -10.439417
48.930729 42.864685 -11.089619
35.833954 42.385674 -11.15778
40.778954 46.131084 -8.0643539
51.641785 41.662762 -11.815184
46.676113 44.649857 -9.5036774
50.764664 42.789661 -11.487072
49.428692 43.366875 -11.248989
52.62896 41.5439 -12.008759
36.128559 43.107887 -11.99724
40.339645 46.213486 -7.9611759
45.921906 45.36058 -8.9109535
45.655418 45.881557 -8.8950958
43.00824 45.233772 -10.092102
48.810429 45.473759 -10.533484
52.137882 41.989613 -11.824863
52.081642 42.789577 -11.497839
51.537308 43.647446 -10.982693
41.718636 45.769951 -9.4727497
46.075726 46.680714 -8.7299213
35.676964 42.639351 -11.857265
45.659702 46.537628 -8.7367039
52.087975 44.531937 -10.743973
40.895714 46.921734 -8.3879013
51.093349 43.694103 -11.025467
45.940525 47.288788 -8.5201569
50.376759 43.920815 -11.155632
42.069485 45.016098 -10.043076
51.450531 45.516697 -9.9030743
40.233871 46.473698 -8.6743927
53.135113 42.391521 -12.269424
52.531372 43.494373 -11.627722
52.285183 46.142349 -10.105684
41.468353 47.061947 -8.4683762
41.726089 46.788246 -8.9095306
51.426136 46.530724 -9.361908
38.431782 45.186581 -10.577539
34.43634 42.057617 -13.018785
41.59182 48.172092 -8.4530907
48.581558 46.715721 -10.027866
51.045494 46.606712 -9.3754578
49.158669 45.640945 -10.543427
42.566704 47.718952 -8.900898
45.397869 47.715199 -8.4219894
51.885921 47.175278 -9.2190208
52.863411 42.656357 -12.203026
50.38998 46.037262 -10.114614
42.599293 46.324837 -9.6586533
43.072674 45.928917 -9.8544846
35.865799 43.418175 -13.658077
45.941273 48.324112 -8.142477
41.654018 47.60107 -8.4555187
43.879959 48.519878 -8.5701523
39.676132 46.297531 -9.6511726
40.123814 46.953327 -9.5623016
51.318871 47.333546 -8.8316879
45.355038 49.537727 -7.6443634
46.016693 49.032436 -7.8884621
52.765083 44.919487 -11.307789
40.936497 47.943008 -8.9516182
51.526321 47.820629 -8.8605576
45.975349 51.404213 -6.7100105
50.422016 48.060844 -8.9847431
50.130013 47.323982 -9.5026493
38.802181 45.94138 -10.96228
53.403088 45.614193 -11.540459
42.23597 48.748764 -8.2558174
49.338745 47.071449 -9.9272575
51.898956 47.7794 -9.3682251
40.271301 47.689289 -9.6373405
38.512604 46.154194 -11.511065
42.488861 49.63908 -7.9725876
43.478085 48.879196 -8.4684792
48.932407 47.491859 -9.7536526
53.388378 43.783058 -12.662237
41.97451 49.75679 -8.1682053
48.415077 47.986366 -9.4320641
37.869011 45.044571 -11.858225
49.679909 49.11734 -8.7341843
52.763039 46.642559 -10.439075
43.129845 50.602219 -7.591301
43.695969 51.338673 -7.1962605
45.353363 51.664162 -6.500639
51.08218 48.46941 -8.940197
53.579071 45.97953 -11.624805
52.809967 47.052887 -10.633472
54.280952 43.905571 -12.845322
42.629276 50.735352 -7.6303139
36.903442 44.507359 -13.179537
47.332367 51.885559 -7.0854893
40.698689 48.846092 -9.1842251
54.043518 46.388206 -12.403299
48.202965 51.012001 -7.8389072
50.264465 49.081158 -8.7431526
45.27552 52.425373 -6.1565399
54.968117 44.434944 -13.148895
46.014645 52.340252 -6.1489639
49.048424 49.801628 -8.4966927
48.240955 49.536552 -8.5914879
56.13295 44.171997 -13.021172
50.509541 49.356873 -8.9000263
42.724064 51.118866 -7.4951973
54.369221 44.572338 -12.956543
39.564583 48.755463 -10.030651
49.296658 50.368195 -8.2748337
44.069347 52.450855 -6.6040955
41.33725 50.017105 -8.4729271
39.246887 47.537991 -10.688313
51.318123 48.76054 -9.5414085
36.84906 44.9786 -13.433435
36.285172 43.875595 -13.666138
45.569195 53.073978 -6.0041771
38.192669 46.337337 -11.904602
40.640587 50.379128 -8.6922989
51.512352 49.146744 -10.416796
48.339466 51.744453 -7.571209
46.485977 52.906738 -6.2009048
50.016792 50.022903 -8.7568645
49.215096 51.299595 -8.265377
47.435162 52.908058 -6.7039757
35.013821 43.866058 -15.67848
56.342827 44.590115 -13.932249
45.834564 53.466198 -6.1004829
34.447144 43.23481 -16.11578
37.641449 46.196472 -12.47448
38.829369 50.227562 -9.6129608
50.578815 49.980591 -9.4861717
48.973747 52.523277 -7.9987564
44.450733 53.433609 -6.4185753
44.530998 52.835495 -6.3156166
47.418587 53.199917 -6.7629528
39.836285 51.019287 -8.672699
55.614689 44.79871 -13.591677
43.115879 53.248199 -6.712719
54.605167 45.325054 -12.96064
36.758369 46.581177 -13.057213
40.912659 52.754021 -7.5022373
48.824211 53.045082 -7.8876381
41.356247 52.279491 -7.5459824
56.140583 44.910069 -14.121532
40.247841 52.297409 -7.802002
45.095253 54.075005 -7.1206684
45.908684 53.735168 -6.3485947
50.048447 50.783508 -9.0771732
58.636734 44.23122 -16.819725
39.0966 52.838013 -7.6391258
36.377171 45.445686 -13.977428
38.926018 52.274551 -7.8124237
39.287666 51.397778 -8.5663567
52.373642 49.331497 -11.567451
38.34314 51.701424 -8.5721722
42.884586 53.802803 -7.0289116
49.731495 51.477795 -8.7909336
47.432556 53.48177 -7.0632172
36.886494 48.755272 -11.707949
40.167763 52.779476 -7.6328163
55.94561 45.509243 -14.478123
55.180599 45.30336 -13.53336
55.088978 45.911953 -13.703363
46.67276 53.748199 -7.1756172
37.93959 51.78368 -8.8028908
36.765076 48.182323 -12.122341
38.442211 52.588242 -8.1914825
43.033195 53.994171 -7.2045383
50.033176 51.87212 -9.0143242
35.87809 47.712109 -12.773365
39.890289 53.130852 -7.7775002
40.895897 53.311852 -7.5534248
35.782181 44.937347 -14.734104
37.331196 51.604786 -9.4440556
52.825607 48.84193 -11.99453
40.533134 53.695141 -8.1098728
49.427017 53.007042 -8.2649994
36.080513 46.875908 -13.267658
51.362816 50.496475 -10.476395
35.182915 48.021088 -12.709803
48.149521 53.482552 -8.4246407
39.598846 53.38591 -8.2978821
48.49329 53.375252 -8.0389252
38.845009 52.971447 -8.0267296
36.469353 48.340923 -12.185444
43.141205 54.288948 -7.8299103
35.119225 47.412319 -13.247108
52.69339 49.561253 -11.773094
46.624157 53.889122 -8.8147297
35.227425 45.723404 -14.789724
51.771954 50.86092 -10.629553
50.046772 52.885754 -8.6254234
56.102966 45.799667 -14.855295
36.606781 50.542244 -10.565125
35.328167 46.466564 -14.04483
44.623177 54.631397 -9.3835487
36.133961 49.945137 -11.259178
42.092949 54.118317 -7.6453876
35.71719 49.467152 -11.731724
36.922806 52.016121 -9.9777164
35.017361 49.21751 -11.832047
35.183472 50.208809 -11.496899
49.383629 53.487228 -8.7352848
50.671555 53.163345 -8.7734375
34.427959 46.94062 -13.995651
52.576069 51.348526 -10.743061
55.171288 47.44965 -14.217113
42.356831 54.337227 -8.0305614
45.317234 54.402023 -9.0968704
34.64156 45.912453 -15.071583
47.570549 53.589142 -9.2701588
53.878334 49.891045 -12.301998
48.713036 53.475723 -8.9014854
53.18837 52.467712 -10.040489
37.769939 52.730541 -9.2467213
33.673752 46.685822 -14.688606
35.774734 50.451004 -11.303886
37.461555 52.395493 -9.3460274
53.743134 53.489616 -8.7502937
51.315891 53.284081 -8.8967552
50.173405 53.509918 -8.6904716
50.443802 53.36879 -8.6477261
38.568096 53.442402 -9.7129536
36.894684 52.409142 -10.311104
42.857212 54.413605 -8.4055023
52.611263 53.883278 -8.8286228
51.33712 53.832771 -8.6942654
33.142082 46.202919 -15.837193
54.496784 53.39418 -9.6659088
55.657707 47.647911 -14.522114
53.53978 52.922367 -9.5138645
49.993141 53.389011 -13.251329
49.218071 53.499695 -9.5068722
53.496014 53.891987 -8.6973305
52.557819 52.909428 -9.5091629
52.681843 53.51273 -8.9771614
54.357861 52.75602 -9.6580601
54.536079 52.975388 -9.6662827
51.33749 54.293938 -8.9135895
50.170979 53.76725 -9.0655193
55.061043 51.482407 -11.330118
54.848564 50.93058 -11.843727
35.671566 50.735119 -11.402657
52.924679 54.166481 -9.0348873
57.102993 47.034203 -15.639963
51.361141 54.64547 -9.5596638
50.041553 53.724388 -9.8696766
49.659794 53.57008 -9.9216061
35.703037 51.768044 -11.602409
55.879498 51.18618 -11.964231
51.895233 54.414825 -8.9264145
40.42997 54.489719 -9.4542999
50.864109 54.359196 -9.8326855
55.556587 52.001858 -11.12981
56.710434 49.957882 -13.351532
42.433365 54.60582 -9.3510399
43.033195 54.597763 -9.7302322
54.066235 53.876282 -9.6685638
35.307869 51.676884 -11.785862
51.849609 54.833389 -10.08289
41.823483 54.762779 -9.3141479
56.608383 50.624725 -12.832333
54.76178 53.641605 -10.516743
35.665977 52.038544 -11.874027
41.267418 54.716728 -9.1077461
39.500893 54.238655 -10.081882
53.127289 54.362991 -10.00843
56.990143 50.964882 -12.741871
56.604843 51.213768 -12.480522
55.407421 53.16029 -10.964371
38.098068 54.039986 -11.690882
56.908573 51.991692 -12.802345
39.713375 54.718719 -10.473507
42.477688 54.729725 -10.983776
34.897987 52.209 -12.520338
55.118214 53.560192 -11.273506
46.680954 53.765091 -12.027298
42.024048 54.778366 -10.577335
44.986126 54.603024 -10.381695
56.111351 52.566933 -11.74984
46.259529 53.995693 -11.320858
35.24828 52.542248 -13.11635
40.72625 55.370022 -10.231358
41.616215 54.942318 -10.486198
53.435307 54.537945 -11.172409
50.60265 53.898243 -11.658127
44.520565 55.020439 -11.507538
33.924225 52.061394 -13.103888
51.200615 54.661049 -10.912071
51.387772 54.131947 -15.268951
35.871384 52.63982 -12.5879
46.278522 54.007538 -11.599482
57.072453 52.42337 -13.207348
41.092552 55.265667 -10.254749
40.21283 55.386894 -10.552189
39.038128 54.894402 -11.360233
40.922157 55.120941 -14.002966
41.598152 54.944237 -13.123421
50.518852 53.661827 -12.906937
46.043694 54.287949 -12.262199
40.453247 55.940235 -10.85413
56.35828 53.102524 -12.926275
44.908661 54.769852 -11.186882
45.337906 54.839905 -11.833574
34.080276 52.109512 -13.847507
52.255764 55.167191 -11.189919
57.059975 52.76535 -13.552933
40.928116 55.47229 -10.914701
36.406967 53.750423 -13.825161
34.020317 52.182968 -14.588581
38.218925 54.497993 -12.032463
39.934608 56.237537 -11.000427
56.738365 53.240124 -13.985214
44.220745 55.129501 -12.090622
53.289494 55.030495 -12.299139
45.662682 54.798244 -12.253834
38.343513 55.010704 -12.229202
34.959633 52.778374 -14.258175
39.28022 56.750916 -11.336143
39.259544 55.701042 -11.426044
46.884499 53.777252 -16.576651
57.907669 52.911072 -13.861431
37.817429 55.165173 -12.864374
52.276245 55.526543 -11.914265
39.631439 56.922287 -11.249222
51.736008 55.212105 -11.518095
40.345795 56.085152 -11.687664
53.983738 54.955475 -13.210991
32.747288 51.502811 -15.427197
44.739941 55.328785 -12.372162
34.254959 52.619308 -15.56411
46.020046 54.452709 -13.450533
51.653885 55.075314 -12.986448
36.754089 54.297447 -13.837769
38.602177 56.423363 -12.029602
53.236046 55.465439 -12.865
50.887943 53.320114 -19.466576
40.707439 55.383736 -12.71258
45.249634 55.410259 -12.477367
43.245304 55.108589 -13.341892
57.326462 53.114212 -14.319389
55.966282 54.103386 -14.783865
33.056793 51.670292 -15.92844
45.541077 55.286484 -12.905521
43.632278 55.292694 -13.843773
39.99234 56.656601 -11.790138
52.833431 55.895943 -12.754887
32.798874 51.472042 -16.824085
40.388626 55.709286 -12.64629
35.538975 53.529007 -14.855965
39.848015 56.848824 -11.499762
58.885906 53.103966 -14.935972
33.558853 52.227234 -16.775307
45.907192 54.928913 -14.659042
39.912636 56.078812 -13.285999
58.409168 53.169842 -15.461212
39.657326 55.779144 -15.028131
44.767128 55.682018 -13.302444
52.062832 55.897575 -12.680342
51.976242 55.728588 -13.374458
51.898956 54.805588 -15.925755
59.122597 52.898327 -15.714085
57.547508 53.351471 -15.14156
52.32951 56.323524 -12.759773
60.27253 52.039886 -16.971163
56.529984 54.206696 -16.061203
43.710117 55.441105 -14.428844
39.424728 56.19706 -14.368486
37.351681 55.880779 -13.647381
52.108829 56.265427 -13.176094
52.060043 55.865917 -13.904898
54.909084 54.926567 -14.708656
53.527489 55.999878 -13.760637
59.394478 52.629887 -16.504288
39.2994 56.856243 -12.647758
38.209057 56.559902 -12.875759
57.935604 53.425049 -15.948164
34.779739 53.466988 -16.132982
45.486324 55.775509 -13.738632
52.257252 56.862427 -14.610699
38.451523 56.674637 -12.66571
45.102329 56.021809 -13.694349
44.496731 55.782112 -13.941187
36.61684 55.651405 -14.667599
58.35088 53.237411 -16.466858
38.399193 56.694794 -13.938683
39.5914 56.571617 -13.089333
57.27227 53.919159 -16.612179
35.368019 54.321423 -15.789665
59.72987 52.28281 -17.41445
46.877235 53.923237 -18.06517
44.103611 55.816711 -14.940212
52.72654 56.914501 -13.23288
53.485401 56.889732 -14.561537
37.82711 56.48402 -15.60598
36.607903 55.872803 -15.006189
58.649025 53.079735 -17.844553
58.046406 53.54715 -17.615231
45.130638 56.54393 -14.36063
46.374989 54.444706 -17.123661
52.180157 57.062061 -13.827663
35.779018 55.355377 -15.699257
52.235279 57.142445 -13.155136
37.410156 56.350105 -15.154358
38.837379 56.583599 -14.532772
45.557838 56.428696 -14.964674
51.785175 54.374901 -16.868637
52.241798 55.435265 -16.688251
54.192867 56.556335 -15.471397
36.047554 55.778313 -15.851723
56.021961 54.969978 -16.494987
35.322212 55.186909 -16.0616
52.938087 57.106613 -13.957529
55.200523 55.996769 -16.344475
57.200764 54.247784 -17.243439
45.868458 56.00457 -16.734657
45.045532 56.567116 -14.861652
38.307198 56.323879 -16.378975
34.686626 54.427078 -16.711567
44.415165 56.216957 -15.834686
51.490192 53.809631 -18.509094
44.367119 56.271015 -16.859449
36.461342 55.978333 -15.785255
35.23394 55.726727 -16.175303
58.397621 53.423809 -18.358557
52.513866 57.182526 -14.490391
40.240204 55.394455 -17.250744
46.623039 54.311352 -18.469042
35.652756 56.172691 -16.082596
39.141106 55.808094 -16.537796
52.049984 54.764271 -18.268883
53.793415 56.910927 -15.567188
56.312096 55.246361 -17.026649
52.99675 57.179379 -14.953945
42.676205 55.416786 -16.824329
56.977295 54.70668 -17.436708
37.222443 56.374626 -16.353409
57.663155 54.766239 -18.32193
46.012966 55.984161 -17.357588
44.973652 56.441463 -16.636932
52.929893 56.87767 -16.855316
52.678677 56.595459 -17.063679
52.447945 56.275261 -16.638798
54.779846 56.42197 -16.284996
53.890629 56.954605 -16.563709
37.591724 56.430939 -16.631662
45.406063 56.351295 -16.706757
42.829838 55.52219 -17.233749
39.3629 55.617577 -18.143848
40.41153 55.76123 -19.016851
56.600742 55.548367 -17.364697
55.674091 56.149635 -16.829056
37.974602 56.357021 -17.200062
55.055084 56.600899 -16.693008
56.593109 56.181984 -17.390451
53.280369 56.981873 -16.80508
38.833282 55.788292 -18.057007
52.268799 55.355736 -18.921471
52.509212 56.206081 -17.354187
42.590538 55.925983 -18.234394
54.211304 57.12495 -16.783232
45.359882 56.618851 -17.160738
45.981125 56.492538 -17.52149
55.594578 57.193497 -16.971245
57.6693 55.559589 -18.330585
46.571453 54.655777 -19.423969
56.64209 57.077965 -17.231304
44.500641 56.564091 -17.324348
53.228413 57.162354 -17.222973
37.787445 56.532948 -18.136906
42.28569 55.603142 -17.811005
44.823742 57.054874 -17.512741
52.705494 56.725624 -17.669651
52.406044 56.009018 -18.595491
56.965931 57.774868 -16.975449
58.295944 55.428284 -18.978258
58.336544 56.225822 -18.581072
58.725006 55.364376 -19.309494
43.699879 56.452969 -17.878019
57.427395 56.882618 -17.650963
38.303284 56.04858 -20.038883
44.100445 57.136894 -17.929142
42.68924 56.552578 -18.886436
41.138733 56.20631 -19.864714
41.663143 56.458462 -19.882137
52.641808 57.494354 -18.05851
42.380478 57.027603 -19.635269
43.180313 57.234142 -18.747244
43.242512 57.7826 -18.677456
41.987915 57.788933 -20.622032
34.607853 42.204784 -10.948318
35.105629 42.003361 -10.366405
35.224998 42.140556 -11.047916
33.827385 41.816299 -13.047705
34.89669 42.211971 -11.711208
57.550674 45.525589 -16.248747
57.53075 45.999744 -16.221851
56.963139 46.737785 -15.689352
59.082741 45.173798 -17.370224
59.36562 45.527607 -17.447954
61.26231 45.361443 -18.240837
49.88308 53.134308 -18.341845
34.004486 42.063538 -11.825554
47.611145 53.498573 -19.439114
47.350986 53.641979 -19.461483
50.466148 53.19088 -19.045069
50.669128 53.218452 -20.278505
52.240307 54.714169 -21.683674
47.208714 53.865364 -20.306721
51.740479 53.92112 -20.517616
51.899513 54.153534 -20.275438
50.987202 53.347996 -20.729902
47.826977 53.537651 -20.919363
48.358463 53.370049 -21.0583
52.445713 55.764397 -20.745543
51.863575 54.073357 -22.782696
47.783588 53.696358 -21.959387
47.136272 54.150478 -21.277622
47.192142 54.55912 -22.800026
46.899769 54.783798 -21.755066
46.63924 55.12817 -20.799274
46.304409 56.243145 -19.047384
50.774536 53.41077 -22.895748
49.127758 53.426506 -23.098412
51.628372 53.881546 -23.221748
47.101822 55.309742 -23.690037
46.944836 57.2155 -22.081913
48.608746 53.57048 -23.35392
48.27615 53.810146 -23.7822
51.183483 53.598888 -23.179363
52.001007 57.874645 -19.68906
51.745506 58.334099 -21.424324
48.92812 53.566647 -23.816837
51.449413 53.868038 -24.354252
47.956402 54.268623 -24.530815
50.556839 53.724571 -25.273701
52.589848 56.675728 -22.315071
52.431557 56.518398 -19.257153
52.478489 57.288506 -22.414474
52.276245 57.417824 -20.568295
47.273708 55.046265 -24.090759
51.330414 58.680916 -21.460266
51.850166 54.293961 -25.551716
52.189651 58.062363 -23.286198
50.928543 58.925686 -21.691973
47.505928 58.276638 -21.833786
47.262905 57.81559 -22.497536
47.898487 55.023968 -26.438358
50.385696 59.13345 -21.985119
51.08218 54.057663 -26.64679
52.92617 56.998638 -27.232815
48.531467 54.984779 -28.192867
48.083969 58.633579 -23.175186
52.752048 57.623917 -26.426147
49.912502 54.27562 -27.778816
49.126266 54.571587 -28.15839
52.721325 55.719337 -26.626709
47.514679 55.530106 -25.812126
51.812737 54.588699 -28.002552
47.997002 57.635708 -27.902321
52.105293 58.924709 -28.289032
52.211254 54.840466 -27.475025
52.525417 58.220764 -27.034599
47.909847 58.286697 -24.935051
52.488171 55.148769 -26.820076
52.751305 57.286964 -25.303776
49.660542 54.854473 -30.292931
48.109295 55.562084 -28.24472
49.183437 55.09462 -30.294659
49.549366 59.285309 -24.75251
50.110828 59.337749 -24.827148
50.222378 54.699432 -30.154892
48.724392 58.967907 -24.936924
49.230549 59.141766 -28.896
51.833405 54.851166 -29.900188
47.903889 56.773754 -28.365463
50.944557 54.656624 -30.107674
52.580723 55.421139 -29.238869
48.879147 55.436146 -30.524426
52.273083 55.095367 -29.37925
51.428925 54.783054 -30.606895
48.576904 58.549095 -28.550728
48.208179 56.445965 -29.734943
48.371311 57.37347 -30.514694
52.957829 56.135845 -30.487679
52.437332 55.369301 -31.306164
51.973633 55.074207 -31.606285
53.035667 56.417374 -30.238811
49.821629 59.407322 -30.056881
49.462215 55.359482 -32.25301
52.898422 57.788219 -28.79512
51.391121 54.910679 -31.931175
50.832451 59.456001 -27.488785
50.083271 55.075104 -32.56115
52.752235 58.403648 -29.583176
48.900932 55.764442 -31.495564
52.765644 55.741978 -30.46204
50.746231 59.576229 -28.747318
52.861179 58.213749 -30.16357
51.565056 59.324619 -28.80407
48.56945 58.303177 -29.841541
52.657261 58.579323 -29.998055
52.154087 59.09594 -29.678577
51.492619 54.945976 -33.050686
48.522896 56.137756 -30.741573
49.216213 58.962433 -30.712185
52.024097 59.224602 -30.507027
48.527924 57.011402 -31.637012
48.917694 56.632751 -33.454414
52.995071 56.048359 -32.931789
51.353134 54.941288 -34.003677
52.336208 58.982033 -33.172905
48.729233 57.820881 -31.935516
50.519409 55.046791 -34.228256
51.908455 54.969612 -34.642113
52.564148 55.451218 -33.624413
49.892574 55.286587 -34.001762
52.169353 55.192093 -33.557171
49.316212 55.728642 -33.328419
53.205322 56.929432 -32.62471
51.551647 59.453064 -32.110847
49.479904 55.719421 -34.504005
51.381069 54.819122 -35.091217
48.988457 58.127155 -32.772232
49.100937 56.209694 -33.774879
53.158207 56.38982 -33.53817
49.552345 59.183193 -31.375114
53.228413 57.293228 -34.32695
53.159138 57.759129 -34.187138
50.379368 54.904591 -36.174942
49.880474 55.305832 -35.813713
51.842159 59.317905 -33.010441
52.881847 55.59119 -34.986702
52.227829 54.766792 -36.264568
53.090046 57.990799 -33.916656
52.519268 55.19838 -35.219559
49.451786 58.769264 -32.909492
49.468914 55.865555 -35.664459
48.815456 57.256008 -33.091644
52.901028 55.401443 -36.000168
50.715874 59.539371 -32.027245
50.234299 59.376286 -32.42202
49.085297 56.73547 -34.546532
51.639359 54.56744 -36.386379
53.216679 56.15699 -35.458805
49.126823 57.427067 -34.65976
51.051262 59.295525 -34.052177
51.197636 54.455338 -37.034222
50.839153 54.634319 -36.700981
51.956127 54.131016 -38.126583
53.297874 56.661972 -36.093761
53.094334 57.882072 -34.879158
52.30418 54.157074 -38.397408
49.519569 58.43306 -34.302315
51.58815 54.104172 -38.134514
49.79034 55.470699 -38.332676
51.380508 53.744278 -39.318459
51.356113 59.219887 -34.668934
50.362793 54.598156 -37.913761
53.202896 55.779346 -36.794518
52.876259 54.515305 -38.698479
52.2742 58.817451 -34.843502
50.15646 58.961857 -34.416035
49.407646 56.309486 -36.258507
49.312115 57.143494 -35.723034
52.049984 52.862186 -41.834705
53.280182 55.972855 -37.150661
53.035667 55.178436 -37.400108
53.23344 55.394707 -38.422459
50.853123 53.63541 -40.241459
52.655212 54.658646 -37.639359
52.917606 58.001133 -35.632519
52.695251 58.518085 -34.710365
52.323921 52.592644 -42.851433
49.804119 55.353867 -37.841927
50.816994 58.901005 -35.725857
50.033176 54.893982 -38.229031
49.701511 55.928967 -38.113453
49.695366 58.172615 -35.573963
53.207741 56.657696 -37.871971
52.456142 58.17189 -36.707649
49.71455 57.644821 -36.499138
51.701748 58.74942 -36.032703
50.395569 58.607285 -36.005383
50.500416 54.019089 -39.923157
53.031013 54.146278 -40.3634
53.223011 54.757919 -40.323246
52.871418 53.348125 -41.870613
51.362446 52.978539 -41.726128
53.071239 57.086224 -37.66238
52.711826 57.793098 -37.143879
50.875656 58.021751 -37.699306
52.854286 56.592785 -39.483002
51.036739 52.78175 -43.132523
49.911385 56.683903 -38.446064
51.624088 57.364929 -39.308411
53.236977 55.197224 -40.05162
52.033966 58.068966 -37.662605
51.612545 58.158108 -37.67799
50.215118 57.750469 -37.482071
50.579185 53.495682 -42.209408
50.024612 56.987747 -38.328938
52.530632 57.041092 -39.220592
52.124287 52.139706 -44.172768
51.678841 52.243916 -43.929256
51.236187 52.443386 -43.841625
50.689243 57.44804 -38.649887
50.566895 56.415993 -40.194843
53.119656 53.578079 -42.575645
50.264839 54.30888 -41.127155
50.119587 54.87096 -40.489716
52.696743 56.693928 -39.644882
51.216259 56.766331 -40.272823
53.046658 55.600197 -40.794544
50.60656 53.657444 -43.415813
53.168449 53.953167 -42.821751
50.173405 55.162827 -40.779144
50.171165 55.962357 -40.004459
51.502857 56.712391 -40.511837
53.180553 54.580692 -41.836712
52.342915 55.38628 -42.64534
51.880707 51.753437 -46.16016
50.926678 52.725388 -44.399681
52.052402 55.385872 -42.836029
51.184975 55.533768 -42.360168
50.843063 54.9818 -42.741154
52.890411 54.573994 -43.28828
50.735985 53.177536 -43.880501
53.031944 54.176849 -43.596729
52.921886 52.51556 -44.55751
50.683655 54.524269 -43.023209
51.673256 55.802788 -42.14537
52.556141 52.160793 -44.691105
52.398968 51.716011 -46.494473
51.26989 52.211979 -45.204609
50.705635 53.891418 -43.769871
53.110531 53.125126 -43.952187
52.510891 55.094555 -43.026264
52.705868 54.659351 -43.547756
52.995632 53.269459 -45.916382
52.660988 51.878738 -46.248039
50.924446 52.943069 -45.184555
53.117798 53.487759 -44.510662
52.355206 54.613525 -44.186176
51.762829 54.631676 -44.302948
50.987576 53.645164 -44.936012
51.679214 51.805885 -46.994953
51.275848 54.290657 -44.504993
52.691898 53.985409 -45.086143
53.071423 52.315418 -46.460201
51.758541 53.886883 -45.863102
51.329113 52.173618 -46.861916
51.121655 53.274647 -45.88942
52.319637 53.928082 -45.758514
51.375854 52.502079 -47.585922
52.006222 53.660694 -46.549305
51.422039 52.897503 -47.443005
53.110344 52.309631 -48.017239
53.110531 52.777748 -46.508621
52.893394 51.920696 -47.812668
52.708843 51.782597 -48.398937
52.653351 53.579258 -46.391071
52.241798 51.730423 -48.599758
51.687595 53.312099 -47.216183
52.968445 53.039429 -47.818134
52.149242 53.367992 -47.89542
51.583305 52.222481 -48.428513
53.140701 52.655937 -48.532536
51.915531 51.902725 -48.639214
52.718342 53.263653 -48.303856
53.076077 52.214512 -48.900253
51.805656 53.110718 -48.485909
52.475506 53.473003 -49.299683
53.038094 52.52483 -50.42178
52.100079 52.557358 -50.355347
52.990978 53.153683 -48.996826
52.386868 52.475746 -50.581116
53.270313 52.907375 -49.960762
52.692459 52.28212 -50.261276
51.874004 53.145443 -49.623398
51.943653 52.826248 -50.200466
52.860432 52.890617 -51.441914
52.79842 53.633167 -50.131607
52.499527 53.809341 -50.631882
53.258392 53.027237 -50.980137
53.327114 53.483089 -51.091122
52.147755 53.522049 -50.817036
53.145912 53.644875 -50.663647
53.409981 53.805721 -52.002346
52.771233 54.490776 -51.920769
53.25169 53.466026 -52.029942
53.237537 54.475697 -52.031143
52.70512 53.407448 -52.217422
52.387234 54.018284 -51.956715
52.349804 53.632339 -51.925884
53.112953 54.05307 -53.079323
53.014442 54.946526 -52.57151
53.539967 54.927471 -53.641571
53.493782 54.996132 -52.99202
52.783707 55.048485 -52.904564
52.741619 54.197407 -53.040627
53.609612 55.123596 -53.435429
53.333256 55.434315 -53.203156
53.743507 56.147675 -54.667755
53.168823 55.504414 -54.381462
53.439587 55.556145 -54.417068
52.921516 55.667984 -54.167877
53.579441 56.460915 -54.196579
53.239395 56.349148 -54.096603
53.832523 56.591972 -54.623131
53.09079 56.505821 -54.512604
53.194893 56.82835 -55.075562
53.761944 57.010952 -55.397354
53.444614 56.980354 -55.403564
53.951706 57.291855 -55.281731
53.590431 57.980309 -55.221359
53.294151 57.663078 -55.451088
54.105152 58.21434 -55.748199
53.869953 57.718452 -55.166153
53.606636 58.738216 -55.754951
53.534191 58.930779 -56.065964
53.872005 58.248207 -56.149834
53.624886 58.68325 -56.283623
54.094357 59.507763 -56.726555
54.354694 60.148354 -56.814774
54.238121 59.819695 -56.353477
53.904594 59.889786 -56.234383
53.800491 60.063366 -56.880745
53.654118 59.773598 -56.55407
54.250595 61.518314 -56.901634
54.491013 61.266247 -57.023193
53.919861 61.24316 -56.944122
54.481888 62.037403 -57.154526
54.521553 61.7477 -57.512115
54.287094 62.157162 -57.632126
54.034576 62.087093 -57.346207
54.123035 61.329685 -57.472214
52.283512 57.31205 -19.21475
52.516479 56.499149 -18.270279
40.225121 56.549873 -21.347401
35.80304 57.149643 -21.643684
37.191154 56.465748 -20.796873
37.225979 56.480179 -21.343895
35.898201 57.334267 -20.991875
40.734818 56.65379 -21.223743
41.402802 57.065636 -20.976864
35.180305 57.811398 -21.501431
39.716915 56.868755 -22.24865
40.63649 57.752514 -22.260937
41.376358 58.052563 -21.523695
36.843658 56.796181 -22.374695
34.326839 57.694542 -23.490547
39.682091 57.475052 -22.932297
34.588299 57.827267 -22.445194
34.046944 58.361488 -22.545364
39.077606 57.399418 -23.287483
35.359081 57.279285 -23.347691
40.760704 58.509331 -22.283707
39.731812 58.543461 -23.396179
33.259033 58.204613 -24.165001
34.055511 59.275192 -22.08984
34.449749 57.830765 -24.856472
37.254288 57.961914 -24.828342
39.884705 59.52787 -22.902718
38.618004 58.211327 -24.19754
33.929253 57.847553 -24.352535
33.355309 61.311409 -23.092766
33.029228 58.526752 -23.835381
33.319183 58.725822 -27.159714
38.039406 58.841202 -24.89373
30.631222 60.300659 -25.504986
38.536625 59.905899 -24.326584
32.113007 58.564682 -25.93795
37.261551 59.528755 -25.652142
31.362524 58.937317 -26.023232
37.490044 58.29451 -25.00386
32.534248 58.44577 -26.171677
31.396975 59.439857 -25.070862
37.824875 61.638077 -23.385082
35.437668 58.807686 -26.560349
31.433289 60.365852 -24.635174
36.947014 59.431484 -25.909046
30.740534 59.02301 -27.624329
36.169716 62.270298 -24.358395
29.121874 60.170528 -27.505486
34.218643 58.802483 -27.097092
32.746914 62.529488 -24.628319
30.425442 59.354252 -26.687824
29.55801 59.474907 -28.039345
35.219597 60.704422 -27.3283
32.978203 59.384201 -28.444855
30.131769 60.800499 -25.985275
35.055534 59.325066 -27.181015
30.958603 58.988441 -27.831764
33.944523 62.820435 -25.09306
34.798546 62.66679 -24.843719
35.875107 62.066666 -25.450363
34.006165 59.434559 -27.910809
32.689743 62.75248 -25.055271
29.689301 60.505234 -26.567047
32.278931 59.179169 -28.395432
33.950108 59.881653 -28.237965
29.708296 61.335629 -26.483845
30.482988 59.168396 -28.655838
29.087608 61.120216 -27.187263
30.864002 62.424221 -25.907341
30.254303 61.755966 -26.061378
33.970592 60.717026 -28.443764
33.695728 60.217854 -28.574783
31.890284 63.024101 -26.028019
28.220289 61.105164 -28.437256
34.537647 62.572662 -26.261692
32.016731 59.616028 -29.30027
28.472939 61.702297 -28.132145
28.668791 59.5802 -29.455044
29.518158 59.327446 -28.861992
30.992496 59.354675 -29.343323
34.954044 61.259079 -27.358086
31.478914 62.894257 -26.003265
29.452236 62.644806 -27.50708
32.258263 60.514694 -29.901718
29.922266 63.062363 -27.575809
29.952991 59.420567 -30.319992
32.57708 59.985424 -29.294426
28.910696 59.410782 -29.802376
30.861954 59.583126 -30.089752
28.08252 61.521782 -28.685944
29.391527 59.348988 -29.953171
33.949551 62.020325 -27.854347
28.028458 59.994328 -29.61367
27.763611 60.448299 -29.549019
32.603336 63.190002 -26.620293
32.97094 63.049488 -27.215157
28.376158 59.238018 -31.310394
27.244698 60.56218 -30.511429
31.326025 60.133053 -30.574928
27.656233 61.006817 -29.390312
27.666048 59.530479 -31.345524
30.36939 59.716064 -31.261517
29.164333 59.301392 -31.097748
28.884996 62.844837 -28.465755
32.778015 61.698944 -29.405144
27.323935 59.037552 -33.203144
30.944448 63.426678 -27.829723
29.893028 63.318005 -28.171547
32.253048 61.00563 -30.039417
32.590858 62.468773 -28.980896
31.299395 60.831646 -31.118172
27.304586 60.144226 -30.86359
32.273903 61.449711 -30.001537
27.971176 58.915428 -32.50996
32.187866 62.914322 -28.79641
29.700846 59.365383 -32.083538
29.469927 63.479443 -29.755032
31.790281 63.192879 -28.623932
27.751524 62.245392 -29.65136
32.378376 62.095215 -29.612312
27.659361 58.457684 -33.842625
28.644209 63.094479 -29.415375
27.400976 61.774796 -30.055725
31.28636 63.383827 -28.593277
31.512619 62.433495 -30.37233
27.579248 62.37709 -30.412857
30.719864 63.479046 -28.667263
29.35037 58.948036 -32.818802
28.57065 58.843834 -32.542316
28.151665 58.381462 -33.524914
26.842955 60.212444 -32.273685
27.005323 61.330704 -30.874203
31.501633 61.475128 -30.948715
28.667486 57.925819 -34.119228
28.445805 56.927132 -35.824112
30.311846 59.914589 -32.231667
28.727638 56.907593 -35.673496
26.939699 59.405128 -33.835255
30.115751 63.218266 -30.756958
29.68874 58.543774 -33.804657
30.753012 60.502289 -31.828712
31.413363 62.068516 -30.806213
30.025993 59.129131 -33.548805
29.568811 57.820129 -34.633335
30.237356 59.738071 -33.083061
29.659319 63.41531 -30.508972
28.383663 63.137543 -30.230816
29.270668 57.249683 -35.197559
30.842772 61.141224 -31.940193
29.930273 57.954227 -34.811073
26.739973 60.958435 -32.355637
30.034372 56.88372 -35.962399
26.757273 60.420341 -33.4888
27.321327 62.323669 -31.442223
30.652451 62.27322 -31.704811
29.497301 55.671101 -37.15226
29.439199 56.436699 -36.213512
28.368559 63.123451 -31.651875
30.146852 62.598156 -31.972317
28.724844 55.967186 -37.273811
30.185959 58.560814 -34.552723
29.90625 56.200558 -36.58255
30.812603 61.759544 -31.836094
30.605522 56.295147 -36.971149
30.589508 58.52948 -35.563072
30.431589 60.53989 -33.189632
30.348162 59.693382 -34.031204
30.634014 55.670399 -37.485893
30.186331 54.620274 -38.36779
27.97261 57.112362 -36.335014
30.753569 54.202915 -38.887188
30.378702 59.961372 -34.391956
29.193758 63.097115 -31.809143
30.43103 61.351849 -32.862995
26.789267 60.568119 -33.827412
27.072329 58.954792 -35.003933
27.998011 62.96278 -31.138351
30.667534 57.041351 -36.528305
29.429703 54.830067 -38.427795
27.497347 62.448105 -32.546253
30.896591 54.681129 -38.493946
30.107746 53.766815 -39.581303
30.265289 53.947628 -39.175301
31.052275 55.706154 -37.848495
31.330307 52.856506 -40.412727
31.05637 52.43211 -40.899616
27.377213 58.365433 -36.205879
31.812069 53.844414 -39.827354
26.914429 61.759274 -32.588711
29.918167 53.58149 -40.325348
30.193781 61.868305 -32.851662
30.795843 57.589588 -36.515587
28.798031 55.43639 -38.454578
28.357182 62.995369 -32.179916
29.86528 62.415524 -32.662567
28.017937 56.897789 -37.457802
31.668489 53.190525 -40.191032
31.451353 51.920761 -41.479897
31.201254 56.569466 -37.7384
32.694588 51.154652 -42.464535
30.593044 58.963337 -36.077103
27.477327 61.754051 -34.192192
31.119127 51.956928 -41.665916
30.44146 52.850052 -40.874191
30.884298 57.867683 -36.84185
30.065472 60.793766 -34.723267
27.162964 59.405457 -35.667213
32.510971 51.980087 -41.697048
31.732738 55.324284 -39.196747
30.25598 60.907265 -33.901169
32.356773 53.054329 -40.896042
32.774101 50.534702 -43.120392
31.859184 54.359417 -39.652168
32.274277 50.194569 -43.722309
28.371428 56.405533 -38.47884
29.795633 53.731495 -40.487064
31.563644 51.046741 -42.962036
27.605413 58.265972 -36.95689
28.111477 57.220081 -38.089745
29.311823 54.624817 -40.033325
33.387337 50.493095 -43.507549
26.945715 60.774097 -34.312401
32.886398 49.842907 -43.965847
32.75399 52.843632 -41.618835
31.535341 56.050079 -38.752068
29.397299 61.463852 -34.746136
30.303654 59.917236 -35.549431
31.194176 51.520195 -42.756561
33.646378 49.369789 -44.713634
33.250652 51.552097 -42.792755
30.719305 58.512527 -36.851379
27.55232 62.23214 -33.37339
31.423233 56.501591 -38.888325
32.208542 54.379803 -40.402771
28.523069 62.161476 -34.102169
27.983244 62.353195 -33.621376
28.990026 62.480042 -33.460003
30.689137 58.456001 -37.233311
33.100739 49.180862 -44.924667
33.256607 51.922745 -42.787811
32.118034 54.804649 -40.524944
30.314827 52.96159 -41.806469
27.394495 60.681557 -35.334251
28.058609 58.528633 -37.641308
29.475698 54.657154 -40.619774
30.14201 58.675003 -37.969669
30.417809 58.78146 -37.371296
31.644468 55.872498 -39.816101
32.731831 53.331127 -41.786163
27.502468 59.682049 -36.243916
34.166687 49.039623 -45.459129
30.690254 52.5532 -42.578228
31.48357 51.187695 -43.756111
33.890892 48.457695 -46.047829
33.751778 51.107044 -44.08585
27.782885 59.942749 -36.402447
29.116102 56.771507 -39.638374
32.783413 49.317509 -45.017372
29.269363 55.689247 -40.212719
34.056999 49.818562 -44.783642
34.34956 49.693241 -45.473934
28.102297 60.933174 -35.718216
31.323044 56.241096 -39.995918
31.931253 50.692513 -44.630829
33.904114 48.085152 -46.896458
28.248203 58.608841 -37.828529
33.296089 48.60791 -46.036514
30.912792 57.344555 -38.880386
32.580429 53.719624 -41.837711
28.511543 61.455402 -35.207813
30.466785 53.312466 -42.299694
30.911118 52.613304 -42.99041
32.324371 54.190804 -41.663574
33.554756 51.58876 -44.050407
33.67971 48.081333 -47.540466
28.559736 59.126842 -37.653259
28.914421 60.067268 -36.821838
32.384708 49.780846 -45.132294
29.842936 55.170311 -41.050964
29.362661 59.954449 -36.847717
30.37833 57.680321 -39.029182
32.268692 53.940434 -42.281578
29.053715 57.553688 -39.109428
34.507103 48.172535 -47.018826
29.766211 56.116333 -40.500504
32.006859 51.042561 -44.755966
34.243225 50.101952 -45.82552
31.064007 56.440784 -40.069511
29.148691 59.117462 -37.790703
29.361916 59.437973 -37.457577
32.929413 52.613556 -43.490982
29.231373 58.103142 -38.74659
31.854528 54.331055 -42.153385
31.259541 53.37331 -43.022659
30.302908 57.086082 -39.720337
32.660507 52.684906 -43.683441
30.601799 55.362057 -41.341995
34.736717 48.686844 -46.865868
31.17034 55.715027 -40.914303
31.372021 52.690178 -43.489887
31.491575 54.365349 -42.252731
33.821243 50.649345 -45.590343
33.341156 48.520939 -47.292168
32.707993 49.682816 -46.047886
31.916914 53.419132 -43.150005
34.155327 47.852604 -47.811638
33.301304 49.121101 -47.20282
32.744118 50.345169 -45.85408
32.738724 52.031818 -44.430058
32.263103 51.977764 -44.457916
34.735977 49.02108 -46.943974
33.622913 50.412838 -46.148331
33.022156 50.5686 -45.896084
34.694077 48.088169 -47.712681
33.482124 49.842705 -46.826557
34.67247 49.117592 -47.468792
34.39146 49.420506 -47.326439
34.011192 47.908665 -48.5994
34.093502 48.072926 -49.711582
33.925339 49.46629 -47.494663
34.904137 48.563206 -47.834789
33.696098 48.977329 -48.190098
33.612854 48.425026 -48.59082
34.306915 49.207661 -48.244301
33.693306 48.129166 -48.431637
34.760742 48.206112 -49.115086
34.487923 47.888229 -48.624332
34.322372 49.207096 -49.458565
34.574516 48.34449 -50.035309
33.926086 49.051567 -49.232685
34.833 48.569168 -49.318043
33.748985 48.754807 -50.696709
34.112125 48.371872 -50.431183
34.666515 48.941212 -49.286148
33.6866 48.858543 -49.949894
34.592209 49.051193 -50.644192
34.261662 49.58329 -50.534882
33.778786 49.409218 -50.371002
34.206726 48.897514 -51.116398
33.483429 49.851509 -51.176464
34.040611 50.352097 -51.843323
33.798897 50.008606 -50.996761
34.015659 50.223812 -51.318417
33.686417 49.430199 -51.588326
34.038376 49.638474 -51.768253
33.719563 50.649902 -51.540676
33.329052 50.898254 -51.753094
33.770401 51.030922 -52.098789
33.114334 50.757866 -52.119583
33.424583 50.550507 -52.392761
33.729061 50.908794 -52.341049
32.46907 52.743149 -53.024734
33.041523 52.051643 -52.275719
32.808182 51.819172 -52.399311
33.029602 52.795353 -52.946663
33.044502 52.051102 -52.962677
33.291992 52.067791 -52.398792
32.504265 53.576023 -53.311394
32.404449 53.957039 -52.853363
32.490669 54.185024 -53.191036
32.282471 53.343082 -52.858509
31.812443 54.486443 -53.182434
31.781157 55.103355 -53.092392
31.456753 55.42701 -53.402782
31.843353 55.222549 -53.608376
31.959743 54.241692 -53.396557
31.366621 56.446079 -53.232983
31.813185 55.92252 -53.349216
31.344461 57.113712 -53.476704
31.354143 56.822334 -53.706131
31.022852 57.344215 -53.804974
31.1236 56.557251 -53.706612
30.893238 57.10535 -53.386486
30.464737 58.014111 -53.697708
30.805527 58.505798 -53.613312
30.426561 58.858162 -53.412445
30.413897 59.092213 -53.842777
30.346296 59.374249 -53.523708
30.035118 59.182182 -53.625549
34.107468 53.125492 -17.264299
34.245274 53.890202 -17.465933
30.383358 50.909119 -17.357212
32.039635 50.865547 -17.517267
32.659576 51.198555 -18.365332
32.245598 51.073429 -16.997879
31.023224 50.11084 -19.192467
31.635529 50.196487 -19.333794
29.969379 48.840553 -23.695282
33.32235 52.065781 -17.762112
32.301281 50.680523 -19.114342
31.297159 49.402637 -21.362961
32.069618 50.307808 -19.77544
33.386036 52.18549 -18.549213
29.095617 51.068211 -19.802752
32.605568 50.134003 -22.023602
33.762398 52.973106 -18.400537
31.717279 49.495846 -21.48045
28.615698 51.947353 -19.499481
32.92923 51.190639 -20.183296
28.523127 52.831886 -18.341572
33.515091 52.411087 -19.379711
31.975574 49.446053 -22.056072
30.549841 49.381439 -21.500113
30.960653 49.074589 -22.202217
31.612995 48.447899 -24.202221
33.737255 53.652199 -18.754971
30.839792 48.529388 -23.701859
28.876244 50.443314 -22.740341
