# .PCD v0.7 - Point Cloud Data file format
VERSION 0.7
FIELDS x y z
SIZE 4 4 4
TYPE F F F
COUNT 1 1 1
WIDTH 1550
HEIGHT 1
VIEWPOINT 0 0 0 1 0 0 0
POINTS 1550
DATA ascii
30.123814 15.733487 -38.738731
41.318871 16.494381 -38.423454
35.355038 18.946079 -38.930729
36.016693 18.4021 -38.792923
42.765083 13.053497 -38.768528
30.936497 16.884167 -38.907078
41.526321 16.848951 -38.758659
35.975349 20.976482 -39.414726
40.422016 16.953144 -39.008198
40.130013 16.055767 -38.93129
28.802181 14.058401 -39.160713
43.403088 13.436114 -39.393311
32.23597 17.948662 -38.891994
39.338745 15.589387 -39.094234
41.898956 16.491047 -39.121052
30.271303 16.249031 -39.269283
28.512602 13.868675 -39.717899
32.488861 18.812742 -39.247311
33.478085 17.911882 -39.138741
38.932407 16.023029 -39.23148
43.388378 11.312319 -39.075611
31.97451 18.777172 -39.472824
38.415077 16.608555 -39.30299
27.869011 12.795503 -39.270588
39.679909 17.923521 -39.495361
42.763039 14.931848 -39.210625
33.129845 19.795633 -39.574322
33.695969 20.613718 -39.745087
35.353363 21.310194 -39.421429
41.08218 17.294754 -39.236694
43.579071 13.661762 -39.692757
42.809967 15.12122 -39.623295
44.280952 11.288484 -39.294613
32.629276 19.872543 -39.689781
26.90344 11.534653 -39.937458
37.332367 21.103859 -40.011761
30.698689 17.426453 -39.665756
44.043518 13.474421 -40.551811
38.202965 19.950386 -40.027401
40.264465 17.890038 -39.478973
35.27552 22.114498 -39.647133
44.968117 11.498878 -39.867439
36.014645 22.054161 -39.586613
39.048424 18.600372 -39.753281
38.240955 18.33638 -39.655514
46.13295 11.379547 -39.600578
40.509541 18.000414 -39.776371
32.724064 20.253185 -39.832798
44.369221 11.727767 -39.808403
29.564583 16.812954 -40.255901
39.296658 19.176996 -39.94751
34.069347 21.846334 -40.006359
31.337252 18.780712 -39.873581
29.246885 15.457578 -39.977123
41.318123 17.131323 -39.884384
26.849062 11.732442 -40.434864
26.285173 10.737911 -39.904125
35.569195 22.709297 -39.94733
28.192669 13.75601 -40.137093
30.640585 18.917028 -40.274334
41.512352 16.864483 -40.803215
38.339466 20.683552 -40.293144
36.485977 22.454729 -39.990532
40.016792 18.602644 -40.094818
39.215096 19.896568 -40.53896
37.435162 22.132374 -40.376759
25.013821 9.4370995 -41.439541
46.342827 11.114214 -40.567265
35.834564 22.947851 -40.27322
24.447142 8.6724424 -41.368774
27.641447 13.281791 -40.483093
28.829369 18.209133 -40.882175
40.578815 18.10144 -40.626301
38.973747 21.005344 -41.121284
34.450733 22.718422 -40.495945
34.530998 22.32642 -40.032616
37.418587 22.318039 -40.609539
29.836285 19.420017 -40.670807
45.614689 11.492921 -40.440453
33.115879 22.387316 -40.602093
44.605167 12.301748 -40.29538
26.758369 13.201919 -41.176777
30.912659 21.501261 -40.889248
38.824211 21.476494 -41.371571
31.356247 21.109632 -40.617737
46.140583 11.237644 -40.917927
30.247839 20.95879 -40.825375
35.095253 22.758459 -41.44606
35.908684 22.994408 -40.636173
40.048447 18.979412 -40.829098
48.636734 8.9832506 -42.548508
29.0966 21.47761 -41.0481
26.377171 11.74058 -41.151825
28.92602 20.934582 -40.818668
29.287666 19.778313 -40.832634
42.373642 16.266386 -41.803425
28.343138 20.007183 -41.032269
32.884586 22.608921 -41.200802
39.731495 19.695257 -41.056103
37.432556 22.340946 -41.020725
26.886494 15.734661 -41.540661
30.167763 21.436827 -41.005638
45.94561 11.467426 -41.576233
45.180599 11.91699 -40.720161
45.088978 12.273926 -41.241589
36.67276 22.472792 -41.278088
27.939589 19.921894 -41.261883
26.765074 15.029392 -41.489822
28.442211 20.931229 -41.310677
33.033195 22.64263 -41.458351
40.033176 19.853735 -41.480698
25.878088 14.250714 -41.686287
29.890287 21.612995 -41.342335
30.895899 21.895683 -41.287025
25.782183 10.864785 -41.404716
27.331196 19.372719 -41.638054
42.825607 15.616837 -41.815899
30.533134 21.831621 -41.959663
39.427017 21.204792 -41.636196
26.080513 13.292423 -41.527439
41.362816 17.86013 -41.716461
25.182915 14.528263 -41.836201
38.149521 21.466436 -42.06414
29.598848 21.473886 -41.904915
38.49329 21.632175 -41.699696
28.845011 21.330681 -41.43079
26.469351 15.110326 -41.640106
33.141205 22.466461 -42.126892
25.119225 13.716548 -41.856495
42.69339 16.310205 -42.108643
36.624157 21.527145 -42.624302
25.227423 11.431188 -41.952591
41.771954 18.040861 -42.068047
40.046772 20.880203 -41.834335
46.102966 11.447462 -42.051846
26.606783 17.838156 -41.813854
25.328167 12.479294 -41.859665
34.623177 21.730131 -43.53717
26.133961 16.934614 -41.961716
32.092949 22.454357 -41.875862
25.71719 16.264709 -42.016464
26.922806 19.344786 -42.31126
25.017361 16.008987 -41.93285
25.183472 16.983797 -42.313305
39.383629 21.270342 -42.305111
40.671555 20.997711 -42.126152
24.427959 12.874052 -42.126709
42.576069 18.341427 -42.46843
45.171288 13.121636 -42.623558
32.356831 22.374466 -42.31163
35.317234 21.738695 -43.17012
24.64156 11.394835 -42.290028
37.570549 21.004602 -42.780357
43.878334 16.222866 -42.725792
38.713036 21.154697 -42.425037
43.18837 19.650377 -42.649628
27.769939 20.361942 -42.210506
23.673752 12.23344 -42.493759
25.774733 17.293394 -42.321129
27.461554 20.041449 -42.071213
43.743134 21.262522 -42.318146
41.315891 21.010933 -42.298225
40.173405 21.316526 -42.28537
40.443802 21.235891 -42.161907
28.568096 20.607571 -43.025238
26.894686 19.431564 -42.819279
32.857212 22.191967 -42.647949
42.611263 21.513739 -42.631191
41.33712 21.561411 -42.495804
23.142082 11.12522 -43.063229
44.496784 20.600866 -42.958202
45.657707 13.077464 -42.984642
43.53978 20.337172 -42.538452
39.993141 18.292246 -45.701469
39.218071 20.783924 -42.904194
43.496014 21.604801 -42.536213
42.557819 20.330282 -42.526535
42.681843 21.134399 -42.506794
44.357861 20.117056 -42.541988
44.536079 20.279816 -42.689293
41.33749 21.773706 -42.960247
40.170979 21.272579 -42.738083
45.061043 18.066635 -43.004196
44.848564 17.313766 -43.042934
25.671566 17.447552 -42.579418
42.924679 21.598099 -42.971237
47.102993 11.888796 -43.44648
41.361141 21.627707 -43.681126
40.041553 20.722845 -43.326553
39.659794 20.571257 -43.267143
25.703037 18.110416 -43.396389
45.879498 17.432112 -43.299545
41.895233 21.858067 -43.047775
30.429968 21.576122 -43.500298
40.864109 21.232912 -43.706261
45.556587 18.593313 -43.184647
46.710434 15.599442 -43.572742
32.433365 21.731434 -43.495827
33.033195 21.481522 -43.781124
44.066235 20.968473 -43.270126
25.307869 17.922665 -43.478325
41.849609 21.435339 -44.202736
31.823483 21.875385 -43.568459
46.608383 16.444006 -43.603653
44.76178 20.243504 -43.76902
25.665979 18.143042 -43.778332
31.267418 21.97278 -43.380741
29.500895 20.980392 -43.819675
43.127289 21.122854 -43.843327
46.990143 16.76273 -43.753006
46.604843 17.12138 -43.71278
45.407421 19.587063 -43.80254
28.098066 19.793959 -44.924538
46.908573 17.510439 -44.459351
29.713375 21.096409 -44.428253
32.477688 20.776848 -44.826218
24.897989 17.858175 -44.383003
45.118214 19.694698 -44.296406
36.680954 19.36713 -45.00555
32.024048 21.075365 -44.546135
34.986126 21.066799 -44.283558
46.111351 18.627636 -44.022842
36.259529 19.997873 -44.612614
25.24828 17.73035 -45.053783
30.726248 21.750988 -44.661407
31.616215 21.259541 -44.581703
43.435307 20.508686 -44.847446
40.60265 19.70643 -44.808334
34.520565 20.662878 -45.41431
23.924223 17.370007 -44.735149
41.200615 20.77033 -44.727146
41.387772 17.564463 -47.724609
25.871384 18.144775 -44.711685
36.278522 19.82785 -44.833664
47.072453 17.580793 -45.047077
31.092552 21.656013 -44.612247
30.21283 21.557686 -44.918026
29.038128 20.661016 -45.220451
30.922157 19.135839 -47.390522
31.598152 19.565834 -46.603168
40.518852 18.722609 -45.613014
36.043694 19.616673 -45.521576
30.453245 21.787487 -45.505005
46.35828 18.281723 -45.268314
34.908661 20.677032 -45.007599
35.337906 20.315012 -45.548023
24.080278 16.928879 -45.335724
42.255764 20.97946 -45.265331
47.059975 17.620628 -45.531631
30.928118 21.390085 -45.250618
26.406965 18.200251 -46.373363
24.020315 16.508795 -45.950638
28.218925 19.925245 -45.480606
29.934608 21.921196 -45.808178
46.738365 17.706459 -46.167957
34.220745 20.371626 -45.931084
43.289494 20.161751 -46.027176
35.662682 20.012959 -45.843185
28.343512 20.191545 -45.96088
24.959631 17.177284 -46.08025
29.28022 22.098669 -46.395344
29.259546 21.236637 -45.789368
36.884499 16.452183 -48.498371
47.907669 17.533958 -45.861622
27.817427 19.901594 -46.546741
42.276245 20.789139 -46.051197
29.631437 22.285822 -46.438915
41.736008 20.802919 -45.545601
30.345795 21.362711 -46.236679
43.983738 19.518158 -46.677471
22.747288 15.448713 -46.155857
34.739941 20.343319 -46.274853
24.254957 16.215994 -46.978409
36.020046 18.97904 -46.537804
41.653885 19.754292 -46.582493
26.754087 18.611191 -46.734642
28.602177 21.402004 -46.716019
43.236046 20.13121 -46.740227
40.887943 14.244383 -50.418339
30.707439 20.166594 -46.57095
35.249634 20.338104 -46.407818
33.245304 19.551308 -46.876171
47.326462 17.395203 -46.343014
45.966282 17.854395 -47.334656
23.056791 15.254817 -46.647488
35.541077 19.968077 -46.656239
33.632278 19.369738 -47.378975
29.99234 21.7346 -46.682499
42.833431 20.531778 -46.932598
22.798872 14.527239 -47.206158
30.388624 20.458591 -46.729427
25.538975 17.368052 -47.020679
29.848017 22.068501 -46.583614
48.885906 16.991022 -46.808758
23.558851 15.137105 -47.654217
35.907192 18.56702 -47.769672
29.912636 20.330469 -47.457001
48.409168 16.703865 -47.25346
29.657324 18.981089 -48.59893
34.767128 20.015936 -47.214542
42.062832 20.580942 -46.876541
41.976242 20.005322 -47.299644
41.898956 17.658319 -48.660759
49.122597 16.333334 -47.272644
47.547508 17.048473 -47.12534
42.32951 20.856178 -47.211185
50.27253 14.867693 -47.683826
46.529984 17.112478 -48.379559
33.710117 19.107349 -47.922562
29.424726 19.725241 -48.36224
27.351681 19.946474 -47.606541
42.108829 20.544067 -47.49276
42.060043 19.769562 -47.794258
44.909084 18.533331 -47.806171
43.527489 19.964911 -47.769859
49.394478 15.61976 -47.705425
29.299398 21.336266 -47.467804
28.209057 20.962702 -47.451977
47.935604 16.586357 -47.790531
24.779737 16.499689 -47.959068
35.486324 19.807178 -47.608776
42.257252 20.079252 -48.975475
28.451521 21.185612 -47.364822
35.102329 20.024317 -47.733173
34.496731 19.682037 -47.768188
26.61684 19.114983 -48.240635
48.35088 16.109213 -48.067261
28.399191 20.382799 -48.352928
29.5914 20.834393 -47.623116
47.27227 16.538052 -48.616806
25.368019 17.374905 -48.245293
49.72987 14.768846 -48.179554
36.877235 15.607208 -49.732479
34.103611 19.06638 -48.555725
42.72654 21.004787 -47.95348
43.485401 20.131769 -48.955368
27.827112 19.149622 -49.494671
26.607903 19.066938 -48.642323
48.649025 15.102859 -49.021286
48.046406 15.608326 -49.146061
35.130638 19.99601 -48.579189
36.374989 16.61187 -49.346436
42.180157 20.735506 -48.50396
25.779018 18.225075 -48.840649
42.235279 21.229374 -48.040443
27.410154 19.337336 -49.06263
28.837378 19.915747 -48.736553
35.557838 19.519464 -48.967842
41.785175 16.722319 -49.106205
42.241798 17.650555 -49.649612
44.192867 19.291525 -49.438057
26.047552 18.451057 -49.229301
46.021961 17.418352 -49.202484
25.32221 17.86311 -49.00993
42.938087 20.686157 -48.63208
45.200523 18.301668 -49.747192
47.200764 16.384026 -49.311611
35.868458 18.056839 -50.051105
35.045532 19.691721 -48.977898
28.307198 18.530073 -49.983883
24.686626 16.863253 -49.019424
34.415165 18.798031 -49.498207
41.490192 15.234835 -49.999523
34.367119 18.180735 -50.317966
26.461342 18.647003 -49.306953
25.23394 18.203547 -49.444019
48.397621 15.03604 -49.6362
42.513866 20.401794 -49.089073
30.240204 17.257732 -50.054276
36.623039 15.644919 -50.29134
25.652758 18.604767 -49.659664
29.141108 18.032871 -49.774006
42.049984 16.120535 -50.429142
43.793415 19.501585 -49.739368
46.312096 17.28833 -49.787415
42.99675 20.101414 -49.442154
32.676205 17.548931 -49.741978
46.977295 16.61133 -49.754639
27.222443 18.585381 -49.996918
47.663155 16.087946 -50.471043
36.012966 17.640797 -50.515179
34.973652 18.454334 -50.257072
42.929893 18.648119 -50.704754
42.678677 18.297998 -50.682968
42.447945 18.325821 -50.151669
44.779846 18.665625 -49.974945
43.890629 18.894493 -50.530819
27.591724 18.449661 -50.246269
35.406063 18.340384 -50.252602
32.829838 17.366507 -50.123363
29.362902 16.854574 -50.881855
30.411531 16.403465 -51.642952
46.600742 17.302389 -50.240501
45.674091 18.107288 -50.216663
27.9746 18.027676 -50.634174
45.055084 18.540426 -50.402515
46.593109 17.77121 -50.667511
43.280369 18.760227 -50.73325
28.833281 17.041172 -50.92506
42.268799 16.154148 -51.309238
42.509212 17.812979 -50.65522
32.590538 17.032625 -51.149456
44.211304 18.883879 -50.808483
35.359882 18.253529 -50.772354
35.981125 17.924881 -50.967514
45.594578 18.815535 -50.996567
47.6693 16.690121 -50.987629
36.571453 15.294948 -51.244247
46.64209 18.559868 -51.121521
34.500641 18.106413 -50.862488
43.228413 18.629869 -51.169384
27.787445 17.560253 -51.464924
32.28569 17.057467 -50.617603
34.823742 18.361279 -51.322273
42.705494 18.008198 -51.230839
42.406044 16.864128 -51.479446
46.965931 19.25819 -51.373486
48.295944 16.17322 -51.399372
48.336544 17.039478 -51.607758
48.725006 15.91135 -51.612038
33.699879 17.665396 -51.215195
47.427395 18.140472 -51.317432
28.303286 15.96664 -52.610577
34.100445 18.15645 -51.693977
32.68924 17.093502 -52.051716
31.138735 16.199421 -52.578541
31.663143 16.38138 -52.753967
42.641808 18.347126 -52.02285
32.380478 16.976049 -52.930695
33.180313 17.70508 -52.38319
33.242512 18.170082 -52.68227
31.987917 16.924986 -54.175972
24.607853 11.20498 -36.74818
25.105631 11.424725 -36.172935
25.225 11.091756 -36.783192
23.827387 9.5579205 -38.106689
24.896688 10.720108 -37.337208
47.550674 10.341812 -42.943115
47.53075 10.722324 -43.227295
46.963139 11.629981 -43.293777
49.082741 9.3514538 -43.576092
49.36562 9.5725203 -43.86306
51.26231 8.9355774 -44.363636
39.88308 14.825011 -49.437313
24.004486 10.532898 -37.329388
37.611145 14.398744 -50.512012
37.350986 14.494221 -50.621326
40.466148 14.416324 -50.012375
40.669128 13.64461 -50.974968
42.240307 13.887168 -53.012817
37.208714 14.122034 -51.412407
41.740479 14.029182 -51.609802
41.899513 14.362895 -51.573677
40.987202 13.453693 -51.40403
37.826977 13.477195 -51.67107
38.358463 13.259499 -51.669769
42.445713 15.294706 -52.969238
41.863575 12.689838 -53.44281
37.783588 12.930255 -52.56979
37.136272 13.716363 -52.339432
37.192142 13.050817 -53.76833
36.899769 13.894616 -53.112263
36.63924 14.772795 -52.601444
36.304409 16.753008 -51.976109
40.774536 12.109602 -53.103512
39.127758 11.991386 -53.268875
41.628372 12.260685 -53.655849
37.101822 13.05374 -54.932606
36.944836 15.547318 -54.925713
38.608746 11.937438 -53.557152
38.27615 11.84574 -54.039288
41.183483 12.071406 -53.441692
42.001007 17.590347 -53.516369
41.745506 16.826902 -55.140987
38.92812 11.636946 -53.909302
41.449413 11.522381 -54.514717
37.956402 11.715755 -54.907463
40.556839 10.82147 -55.126835
42.589848 14.983953 -54.757362
42.431557 16.829025 -52.313732
42.478489 15.389476 -55.227394
42.276245 16.675241 -53.896263
37.273708 12.594325 -55.070221
41.330414 17.069479 -55.391457
41.850166 11.078943 -55.705807
42.189651 15.421952 -56.392601
40.928543 17.108046 -55.726288
37.505928 16.51969 -55.417721
37.262905 15.739857 -55.629826
37.898487 11.068235 -56.854252
40.385696 17.07877 -56.084396
41.08218 10.194025 -56.392788
42.92617 12.070252 -58.732136
38.531467 9.9104424 -58.173092
38.083969 15.930885 -56.674732
42.752048 13.067762 -58.516113
39.912502 9.6333408 -57.400074
39.126266 9.6160774 -57.881088
42.721325 11.479847 -57.445511
37.514679 11.858497 -56.699871
41.812737 9.7293577 -57.772709
37.997002 12.127927 -59.654507
42.105293 12.866789 -60.779297
42.211254 10.261308 -57.53043
42.525417 13.133871 -59.36586
37.909847 14.533942 -57.799896
42.488171 10.918474 -57.226887
42.751305 13.531088 -57.439739
39.660542 8.4607239 -59.698078
38.109295 10.319353 -58.5839
39.183437 8.6435776 -59.853764
39.549366 15.416255 -58.301956
40.110828 15.408452 -58.392838
40.222378 8.430687 -59.492672
38.724392 15.05457 -58.239201
39.230549 12.642911 -61.383781
41.833405 8.7106371 -59.395092
37.903889 11.169932 -59.455242
40.944557 8.4282455 -59.428986
42.580723 9.5723524 -59.254864
38.879147 8.7575102 -60.249306
42.273083 9.2325678 -59.153
41.428925 8.2042007 -59.892681
38.576904 12.410837 -60.738331
38.208179 10.038547 -60.293625
38.371311 10.247844 -61.487137
42.957829 9.317132 -60.670914
42.437332 8.2038097 -60.805183
41.973633 7.784842 -60.845409
43.035667 9.6927652 -60.661232
39.821629 12.100142 -62.443768
39.462215 7.5876679 -61.524197
42.898422 11.670876 -60.436462
41.391121 7.450737 -60.989174
40.832451 13.78817 -60.507782
40.083271 7.1717548 -61.577454
42.752235 11.635773 -61.435738
38.900932 8.3847637 -61.204262
42.765644 9.0318928 -60.398098
40.746231 13.071301 -61.549152
42.861179 11.117231 -61.758282
41.565056 12.842077 -61.430897
38.56945 11.392732 -61.569073
42.657261 11.503665 -61.866474
42.154087 12.104778 -61.953815
41.492619 6.7581701 -61.869457
38.522896 9.1553965 -60.866638
39.216213 11.338112 -62.65979
42.024097 11.67082 -62.67115
38.527924 9.2490673 -62.114151
38.917694 7.790801 -63.26297
42.995071 7.6790671 -62.486973
41.353134 6.1420088 -62.596478
42.336208 9.7714071 -64.557411
38.729233 9.67729 -62.863144
40.519409 6.0784702 -62.83633
41.908455 5.7533231 -63.103752
42.564148 6.7764201 -62.63372
39.892574 6.407752 -62.816963
42.169353 6.6211462 -62.415649
39.316212 7.179204 -62.5853
43.205322 8.5513973 -62.818081
41.551647 10.814915 -64.0466
39.479904 6.4164848 -63.479923
41.381069 5.3493652 -63.351055
38.988457 9.3740797 -63.70097
39.100937 7.2607331 -63.236526
43.158207 7.5508699 -63.170975
39.552345 11.081104 -63.309525
43.228413 7.7359018 -64.355919
43.159138 8.1826735 -64.548286
40.379368 4.7182331 -64.236176
39.880474 5.2577991 -64.217369
41.842159 10.133129 -64.648849
42.881847 6.0079842 -63.767265
42.227829 4.5550628 -64.216255
43.090046 8.5340042 -64.490005
42.519268 5.557395 -63.69315
39.451786 9.7777395 -64.218857
39.468914 5.7825041 -64.462814
38.815456 8.5014324 -63.385693
42.901028 5.2111869 -64.421661
40.715874 10.934769 -64.038033
40.234299 10.556083 -64.235619
39.085297 7.16749 -64.165604
41.639359 4.3240509 -64.181427
43.216679 6.1379499 -64.492607
39.126823 7.6245031 -64.696892
41.051262 9.446372 -65.43248
41.197636 3.821749 -64.605644
40.839153 4.1730609 -64.465416
41.956127 2.8711491 -65.233971
43.297874 6.1166458 -65.303612
43.094334 7.8320322 -65.157433
42.30418 2.71703 -65.458183
39.519569 8.6248999 -65.069717
41.58815 2.8454871 -65.222794
39.79034 3.7649319 -66.252983
41.380508 1.808768 -65.898415
41.356113 8.9919853 -65.856323
40.362793 3.365798 -65.371216
43.202896 4.9900818 -65.273079
42.876259 2.797925 -65.91909
42.2742 8.5714912 -65.731369
40.15646 8.9568825 -65.496735
39.407646 5.7407341 -65.203239
39.312115 6.7238111 -65.329132
42.049984 -0.48436499 -67.258972
43.280182 4.9093909 -65.670288
43.035667 4.140491 -65.350731
43.23344 3.649008 -66.272911
40.853123 1.132076 -66.535492
42.655212 3.588522 -65.19989
42.917606 7.4389858 -65.811073
42.695251 8.4277439 -65.436951
42.323921 -1.344386 -67.864571
39.804119 3.9908781 -65.801949
40.816994 8.0683317 -66.460999
40.033176 3.389765 -65.802879
39.701511 4.2568989 -66.379616
39.695366 7.607985 -65.876442
43.207741 4.9703622 -66.663048
42.456142 6.8787122 -66.744431
39.71455 6.6089849 -66.245911
41.701748 7.754972 -66.598618
40.395569 7.6636481 -66.486328
40.500416 1.630592 -66.538284
43.031013 1.445044 -66.957283
43.223011 1.939395 -67.319679
42.871418 -0.135194 -67.598831
41.362446 -0.32544199 -67.250587
43.071239 5.433352 -66.777946
42.711826 6.3081398 -66.835121
40.875656 6.1262741 -67.407578
42.854286 3.8850839 -67.855446
41.036739 -1.380204 -68.201454
39.911385 4.6214151 -67.119675
41.624088 4.5888071 -68.218025
43.236977 2.4505241 -67.393982
42.033966 6.1860328 -67.409813
41.612545 6.2444329 -67.478897
40.215118 6.0580969 -67.066788
40.579185 -0.239933 -67.953217
40.024612 4.9294658 -67.225258
42.530632 4.397182 -67.942596
42.124287 -2.540694 -68.585632
41.678841 -2.304338 -68.466072
41.236187 -2.0952089 -68.527161
40.689243 5.0757651 -67.766991
40.566895 3.2920899 -68.287109
43.119656 -0.41222599 -68.286736
40.264839 1.078668 -67.646873
40.119587 1.918985 -67.519867
42.696743 3.85851 -68.044464
41.216259 3.510345 -68.572037
43.046658 2.2816751 -68.222122
40.60656 -0.89148301 -68.981354
43.168449 -0.28308699 -68.716362
40.173405 1.956527 -67.929192
40.171165 3.0669639 -67.84967
41.502857 3.315387 -68.720459
43.180553 0.8308 -68.365143
42.342915 0.92813998 -69.502411
41.880707 -4.1140652 -69.859772
40.926678 -2.2378941 -69.135925
42.052402 0.80525202 -69.648224
41.184975 1.224422 -69.378761
40.843063 0.55669701 -69.315811
42.890411 -0.107384 -69.472801
40.735985 -1.557803 -69.028847
43.031944 -0.609882 -69.453812
42.921886 -2.5000789 -69.121956
40.683655 0.024908001 -69.237785
41.673256 1.568576 -69.387138
42.556141 -2.857722 -68.996254
42.398968 -4.3576279 -70.091812
41.26989 -3.148586 -69.422523
40.705635 -0.93982702 -69.402969
43.110531 -1.644034 -69.050072
42.510891 0.45980999 -69.606697
42.705868 -0.208783 -69.72644
42.995632 -2.796026 -70.647507
42.660988 -4.0745668 -70.007637
40.924446 -2.575649 -69.877098
43.117798 -1.72522 -69.710983
42.355206 -0.65425801 -70.186043
41.762829 -0.71541202 -70.287163
40.987576 -1.878052 -70.138
41.679214 -4.6104832 -70.532974
41.275848 -1.1065201 -70.222733
42.691898 -1.713909 -70.47171
43.071423 -3.8764241 -70.450851
41.758541 -2.2888069 -71.003563
41.329113 -4.243268 -70.667435
41.121655 -2.7747221 -70.630188
42.319637 -2.1900151 -70.949928
41.375854 -4.4570351 -71.433189
42.006222 -2.903161 -71.383835
41.422039 -4.0622578 -71.577881
43.110344 -4.8817 -71.639893
43.110531 -3.553381 -70.785126
42.893394 -5.0481472 -71.233177
42.708843 -5.5307851 -71.593521
42.653351 -2.8638301 -71.210274
42.241798 -5.6998391 -71.713821
41.687595 -3.5988569 -71.670624
42.968445 -4.194663 -71.956474
42.149242 -3.9926469 -72.226875
41.583305 -5.2128248 -71.898926
43.140701 -4.9476418 -72.257233
41.915531 -5.5932069 -71.854797
42.718342 -4.335113 -72.472687
43.076077 -5.522162 -72.25518
41.805656 -4.5692902 -72.51384
42.475506 -4.814846 -73.370102
43.038094 -6.2624602 -73.620201
42.100079 -6.1948409 -73.590218
42.990978 -4.8647909 -72.932846
42.386868 -6.4024811 -73.710709
43.270313 -5.6730781 -73.512939
42.692459 -6.3452182 -73.34124
41.874004 -5.2738509 -73.407532
41.943653 -5.8893032 -73.644417
42.860432 -6.63798 -74.636795
42.79842 -5.2269039 -74.110344
42.499527 -5.4135189 -74.606819
43.258392 -6.2364998 -74.370872
43.327114 -5.9586349 -74.748909
42.147755 -5.752614 -74.563988
43.145912 -5.5599279 -74.525436
43.409981 -6.2972088 -75.654327
42.771233 -5.7199879 -76.032181
43.25169 -6.5751672 -75.457115
43.237537 -5.802485 -76.10704
42.70512 -6.7405529 -75.56308
42.387234 -6.1050439 -75.756004
42.349804 -6.3808789 -75.484306
43.112953 -6.7999949 -76.638336
43.014442 -5.7891521 -76.823631
43.539967 -6.4915709 -77.631096
43.493782 -6.0214481 -77.177643
42.783707 -5.9251332 -77.144302
42.741619 -6.6645551 -76.701469
43.609612 -6.208827 -77.599251
43.333256 -5.8214989 -77.62104
43.743507 -6.2164621 -79.20153
43.168823 -6.5252032 -78.568741
43.439587 -6.508461 -78.629265
42.921516 -6.262609 -78.510262
43.579441 -5.6736369 -79.041939
43.239395 -5.6949968 -78.893509
43.832523 -5.8474212 -79.452934
43.09079 -5.8423748 -79.312889
43.194893 -5.9571629 -79.951454
43.761944 -6.0241299 -80.315338
43.444614 -6.0515599 -80.30043
43.951706 -5.7346249 -80.407333
43.590431 -5.1684289 -80.803612
43.294151 -5.5591092 -80.775681
44.105152 -5.3277998 -81.357628
43.869953 -5.3335361 -80.593002
43.606636 -4.9308262 -81.699539
43.534191 -4.9832292 -82.061562
43.872005 -5.5600219 -81.687065
43.624886 -5.3127532 -82.069191
44.094357 -4.9658551 -82.938484
44.354694 -4.5318408 -83.417831
44.238121 -4.4870911 -82.853195
43.904594 -4.3568459 -82.807014
43.800491 -4.639348 -83.413734
43.654118 -4.65134 -82.977226
44.250595 -3.538223 -84.364967
44.491013 -3.809458 -84.296059
43.919861 -3.77631 -84.220642
44.481888 -3.303133 -84.892349
44.521553 -3.7549131 -84.980064
44.287094 -3.5183899 -85.335197
44.034576 -3.3882749 -85.071129
44.123035 -4.0494819 -84.680801
42.283512 17.464254 -52.791397
42.516479 17.448631 -51.545368
30.225121 15.509553 -53.935184
25.80304 15.778554 -54.547676
27.191154 15.798983 -53.459381
27.225979 15.458415 -53.887699
25.898199 16.338957 -54.167034
30.734816 15.668644 -53.907253
31.402803 16.142826 -53.982861
25.180307 16.376928 -54.864071
29.716915 15.174517 -54.830555
30.63649 15.84362 -55.408035
31.376358 16.547361 -55.036144
26.84366 15.037903 -54.880459
24.326839 15.008834 -56.31271
29.682091 15.199527 -55.74398
24.588299 15.782446 -55.597237
24.046946 16.127296 -56.017361
29.077608 14.913281 -55.967449
25.359081 14.782553 -55.936352
30.760702 16.408735 -55.911953
29.731813 15.7198 -56.786095
23.259031 14.966039 -57.157238
24.055511 17.120037 -56.25573
24.449749 14.235184 -57.446632
27.254286 14.353733 -57.509384
29.884703 16.791092 -57.040848
28.618006 14.950266 -57.186478
23.929251 14.571969 -57.071384
23.355309 18.0352 -58.33287
23.02923 15.42469 -57.111801
23.319181 13.440341 -59.78635
28.039408 14.985276 -58.124672
20.631222 15.710377 -59.531036
28.536625 16.165434 -58.374584
22.113007 14.102238 -58.746845
27.261549 15.024476 -59.147598
21.362524 14.332876 -59.051697
27.490046 14.495693 -57.857624
22.534248 13.860909 -58.849453
21.396975 15.330014 -58.645168
27.824877 18.097548 -58.766773
25.437668 13.888322 -59.379826
21.433289 16.319422 -58.906628
26.947016 14.784824 -59.281872
20.740534 13.369352 -60.333294
26.169716 17.956223 -59.918758
19.121874 14.324795 -60.979862
24.218645 13.539319 -59.787655
22.746914 17.98127 -60.292137
20.425442 14.225071 -59.828808
19.55801 13.448759 -60.941685
25.219599 14.847675 -61.187313
22.978205 13.11862 -61.194019
20.131769 15.78455 -60.220253
25.055534 13.885696 -60.187851
20.958603 13.209536 -60.469978
23.944523 17.90542 -60.835167
24.798548 17.94799 -60.545399
25.875109 17.098326 -60.624359
24.006163 13.500473 -60.817287
22.689745 17.877655 -60.762539
19.689301 15.184405 -60.476124
22.278933 12.993328 -61.024368
23.950108 13.632673 -61.355289
19.708296 15.874012 -60.946156
20.482988 12.817682 -61.216927
19.087608 15.256846 -61.346539
20.864002 17.078491 -61.204262
20.254303 16.467564 -60.892712
23.970592 14.140321 -62.049908
23.695728 13.673717 -61.829414
21.890284 17.460457 -61.682301
18.220289 14.441836 -62.294415
24.537647 16.96443 -61.571125
22.016729 12.746358 -61.998322
18.472939 15.09539 -62.444515
18.668791 12.619427 -62.093857
19.518158 12.807011 -61.477081
20.992496 12.518476 -61.863308
24.954044 15.25342 -61.566654
21.478914 17.376898 -61.579876
19.452236 16.219179 -62.571522
22.258263 13.048171 -63.036709
19.922266 16.494865 -62.89257
19.952991 11.941161 -62.653831
22.577078 13.033087 -62.231289
18.910696 12.266384 -62.25103
20.861954 12.213682 -62.581951
18.08252 14.601132 -62.752716
19.391527 12.122116 -62.326824
23.949551 15.517579 -62.436134
18.028458 12.834702 -62.481571
17.763611 13.224023 -62.72385
22.603336 17.206837 -62.242649
22.970942 16.716825 -62.608021
18.376158 11.164701 -63.295189
17.244698 12.692633 -63.534298
21.326025 12.323089 -63.307106
17.656233 13.753886 -62.961285
17.666048 11.366158 -63.51009
20.36939 11.562326 -63.565029
19.164333 11.349936 -63.173027
18.884996 15.756187 -63.434486
22.778015 14.274551 -63.417534
17.323935 9.7945004 -64.616264
20.944448 16.610733 -63.321259
19.893028 16.307766 -63.513256
22.253048 13.335739 -63.457764
22.590858 15.136974 -63.587376
21.299395 12.509052 -64.172302
17.304586 12.146101 -63.535416
22.273905 13.700274 -63.714195
17.971176 10.146519 -64.006752
22.187868 15.596873 -63.732445
19.700846 10.765305 -63.969318
19.469927 15.413591 -64.830048
21.790281 15.921126 -63.779373
17.751524 14.534893 -63.957397
22.378376 14.444946 -63.830952
17.659361 8.9392462 -64.733398
18.644209 15.337016 -64.322403
17.400976 13.914469 -63.964664
21.28636 16.087109 -63.878628
21.512619 14.215555 -64.6306
17.579248 14.146298 -64.625389
20.719864 16.11249 -63.99651
19.35037 9.9729767 -64.264297
18.57065 10.070875 -63.985519
18.151665 9.0850782 -64.441025
16.842955 11.291965 -64.659462
17.005323 13.048171 -64.306198
21.501633 13.11091 -64.456108
18.667486 8.3540182 -64.603416
18.445805 6.4930978 -65.267487
20.311846 11.090806 -64.435814
18.727638 6.574944 -65.139549
16.939699 9.6697674 -65.336761
20.115751 14.569492 -65.429688
19.68874 9.0296021 -64.759651
20.753012 11.800022 -64.504898
21.413363 13.657069 -64.728371
20.025993 9.6424665 -64.939919
19.568811 7.9425931 -64.929306
20.237356 10.408314 -64.974556
19.659319 14.879836 -65.366371
18.383663 14.84585 -64.974747
19.270668 7.1429281 -64.99485
20.842772 12.217816 -65.000999
19.930273 7.931066 -65.151657
16.739973 11.810749 -65.201752
20.034372 6.370954 -65.345512
16.757273 10.670163 -65.723923
17.321327 13.443711 -65.379593
20.652451 13.236277 -65.548317
19.497301 4.677207 -65.477547
19.439199 5.867105 -65.250542
18.368559 13.921618 -66.054283
20.146852 13.313243 -65.962105
18.724844 4.8258891 -65.760979
20.185959 8.5618067 -65.343658
19.90625 5.4489951 -65.381454
20.812603 12.758389 -65.318703
20.605522 5.2716718 -65.739937
20.589508 7.8883638 -66.097488
20.431589 10.954043 -65.571594
20.348162 9.7646294 -65.67215
20.634014 4.4622121 -65.732674
20.186331 3.090894 -65.733238
17.97261 6.3065948 -65.777924
20.753569 2.4373209 -65.862846
20.378702 9.7380362 -66.120766
19.193758 13.800349 -66.157829
20.43103 11.786 -65.843292
16.789267 10.565709 -66.078308
17.072329 8.5735769 -65.942551
17.998011 14.128626 -65.557625
20.667534 6.1279492 -65.880348
19.429703 3.213038 -65.914055
17.497347 12.829377 -66.305313
20.896591 3.0564239 -65.868996
20.107746 1.657079 -66.11425
20.265289 2.056567 -65.919456
21.052275 4.2565269 -66.033424
21.330307 0.42531601 -66.166023
21.05637 -0.21275701 -66.266205
17.377213 7.3495059 -66.484459
21.812069 1.558363 -66.352615
16.914429 12.27441 -65.895065
19.918167 1.0368479 -66.565094
20.193781 12.188914 -66.16658
20.795843 6.556098 -66.223007
18.798031 3.6602931 -66.32431
18.357182 13.484085 -66.376457
19.86528 12.729653 -66.373474
18.017937 5.4205031 -66.500107
21.668489 0.82368797 -66.210899
21.451353 -0.97746998 -66.382034
21.201254 4.9886298 -66.504013
22.694586 -2.1972589 -66.643867
20.593044 7.8903012 -66.770134
17.477327 11.239711 -67.120049
21.119127 -1.069339 -66.547783
20.44146 0.123744 -66.515373
20.884298 6.559412 -66.651695
20.065472 10.16272 -66.909615
17.162964 8.4924574 -66.740334
22.510969 -1.071609 -66.586517
21.732738 3.0973561 -66.820786
20.25598 10.778099 -66.352806
22.356775 0.26618701 -66.663422
22.774101 -3.0937431 -66.747787
21.859184 2.0654869 -66.549454
22.274277 -3.7412069 -66.99025
18.371428 4.3871069 -66.965851
19.795633 1.047809 -66.7854
21.563644 -2.599709 -66.955612
17.605413 6.7905722 -66.995834
18.111477 5.261188 -67.191368
19.311823 2.023792 -67.012032
23.387339 -3.374476 -67.017624
16.945715 10.411758 -66.58223
22.886396 -4.1671391 -66.950768
22.75399 -0.35981899 -67.08168
21.535341 3.939182 -66.946671
19.397299 10.661336 -67.357857
20.303654 8.9602156 -66.979073
21.194176 -2.104948 -67.102539
23.646378 -5.010232 -67.21949
23.250652 -2.103775 -67.150772
20.719305 7.0472641 -67.073494
17.55232 12.132265 -66.800117
21.423233 4.197475 -67.341278
22.20854 1.598627 -67.13755
18.523069 11.609682 -67.312973
17.983244 12.065597 -67.067902
18.990026 12.266496 -67.025818
20.689137 6.7584672 -67.329735
23.10074 -5.2906108 -67.259712
23.256609 -1.81666 -67.385231
22.118034 1.845549 -67.504227
20.314827 -0.39006701 -67.301239
17.394495 9.6840305 -67.305527
18.058609 6.5518522 -67.688965
19.475698 1.671604 -67.482063
20.14201 6.4529109 -68.034592
20.417809 6.919086 -67.644638
21.644468 3.1192 -67.647621
22.731831 -0.093933001 -67.523216
17.502468 8.3336449 -67.359901
24.166687 -5.7423539 -67.578346
20.690254 -1.198992 -67.629929
21.48357 -3.0021579 -67.65451
23.89089 -6.566545 -67.655258
23.75178 -3.2758889 -67.855263
17.782885 8.4314499 -67.648918
19.116102 3.9221239 -68.089348
22.783413 -5.2455258 -67.418564
19.269363 2.7238829 -67.833656
24.057001 -4.7114539 -67.561584
24.34956 -5.2511692 -68.009827
18.102297 9.6299706 -67.761398
21.323044 3.2859819 -68.022301
21.931253 -3.9437449 -68.006287
23.904112 -7.3974209 -68.06588
18.248203 6.492949 -67.883942
23.296089 -6.4441962 -67.743149
20.912792 4.8483291 -67.877045
22.580431 0.17053901 -67.812424
18.511543 10.358107 -67.706093
20.466785 -0.43832001 -67.90461
20.911118 -1.417892 -67.984314
22.324373 0.64341599 -67.981895
23.554754 -2.8840909 -68.137756
23.67971 -7.8143029 -68.556763
18.559736 7.0024209 -68.082642
18.914421 8.2572556 -68.050232
22.384708 -4.964458 -67.80442
19.842936 1.78754 -68.142227
19.362661 8.1541996 -67.997536
20.37833 5.0098972 -68.206856
22.268692 0.054372001 -68.29438
19.053715 4.8613081 -68.186928
24.507105 -7.4091349 -68.21579
19.766211 2.866065 -68.328636
22.006859 -3.756031 -68.327156
24.243225 -5.164072 -68.54187
21.064007 3.3916459 -68.207031
19.148691 6.906888 -68.1819
19.361916 7.3665462 -68.132729
22.929415 -1.739463 -68.367935
19.231373 5.51544 -68.262161
21.854528 0.43600899 -68.447266
21.259541 -0.85642302 -68.497543
20.302908 4.110415 -68.35434
22.660505 -1.808513 -68.561234
20.601799 1.747353 -68.488419
24.736719 -6.916832 -68.429207
21.17034 2.2926619 -68.387672
21.372021 -1.680061 -68.416351
21.491575 0.39842299 -68.54541
23.821243 -4.593574 -68.71357
23.341156 -7.3179412 -68.649132
22.707994 -5.628087 -68.442795
21.916914 -0.90318 -68.62455
24.155329 -8.1638269 -68.61747
23.301304 -6.8007588 -68.966461
22.74412 -4.9961162 -68.720085
22.738722 -2.7887261 -68.713379
22.263103 -2.8480389 -68.699974
24.735975 -6.710999 -68.70388
23.622913 -5.133419 -68.988991
23.022154 -4.8519602 -68.895882
24.694075 -7.9197621 -68.693085
23.482126 -6.0061221 -69.142067
24.672472 -6.9744129 -69.167953
24.39146 -6.650867 -69.253616
24.01119 -8.6272459 -69.256966
24.093502 -9.2163115 -70.214531
23.925341 -6.7239232 -69.411911
24.904135 -7.6343541 -69.091972
23.696098 -7.545507 -69.630348
23.612856 -8.2261744 -69.582306
24.306915 -7.4039021 -69.819923
23.693306 -8.3504982 -69.270187
24.760742 -8.7308617 -69.843201
24.487925 -8.6589231 -69.262932
24.322371 -8.1848516 -70.749741
24.574518 -9.2163668 -70.637077
23.926086 -8.1587992 -70.476738
24.832998 -8.5832043 -70.23204
23.748987 -9.3271875 -71.407486
24.112125 -9.4498549 -70.957939
24.666515 -8.2777033 -70.446754
23.686602 -8.7676773 -70.902077
24.592209 -9.0663815 -71.55777
24.261662 -8.5885115 -71.816063
23.778784 -8.6165199 -71.578629
24.206726 -9.4876394 -71.820717
23.483431 -8.7954435 -72.47995
24.040613 -8.8406219 -73.312561
23.798895 -8.5595913 -72.443268
24.015659 -8.601491 -72.828003
23.686417 -9.382926 -72.524643
24.038378 -9.3390322 -72.796349
23.719563 -8.4179487 -73.272148
23.329052 -8.3642416 -73.594505
23.770401 -8.4848213 -73.944603
23.114334 -8.7073603 -73.785011
23.424583 -9.0417995 -73.860992
23.729061 -8.7341013 -74.051682
22.469069 -7.768362 -75.754517
23.041523 -7.8166308 -74.736244
22.808182 -8.0741596 -74.681496
23.029604 -7.6781921 -75.728264
23.0445 -8.2586145 -75.262138
23.291992 -7.8833728 -74.840904
22.504263 -7.3146081 -76.509468
22.404448 -6.7283182 -76.403511
22.490669 -6.770721 -76.808731
22.282473 -7.201941 -76.01281
21.812443 -6.5342908 -76.995888
21.781157 -6.0038309 -77.323456
21.456753 -5.9554129 -77.769272
21.843353 -6.2441912 -77.795341
21.959743 -6.8594198 -77.002594
21.366621 -5.0656152 -78.294243
21.813185 -5.541399 -78.046745
21.344461 -4.7108388 -78.910088
21.354143 -5.0815191 -78.898544
21.022852 -4.7452722 -79.309723
21.1236 -5.284894 -78.728523
20.893238 -4.659255 -78.835602
20.464737 -4.1631541 -79.65815
20.805527 -3.73225 -79.909554
20.426561 -3.3332081 -79.982178
20.413897 -3.4305291 -80.462273
20.346296 -3.009383 -80.399139
20.035118 -3.221977 -80.353699
24.10747 15.510893 -48.606197
24.245274 15.967087 -49.252205
20.383358 13.753328 -47.252716
22.039635 13.617067 -47.347317
22.659576 13.327043 -48.211029
22.2456 14.110171 -47.083069
21.023224 11.962131 -48.145477
21.635529 11.936896 -48.308796
19.969379 8.0946827 -50.778313
23.322348 14.379116 -48.306374
22.301281 12.448753 -48.451817
21.297159 10.024448 -49.352951
22.069616 11.738289 -48.71867
23.386036 13.964879 -48.986279
19.095617 12.303238 -49.228371
22.60557 10.160057 -50.329144
23.762396 14.663797 -49.378654
21.717279 10.020333 -49.502865
18.615698 13.171638 -49.561153
22.929228 12.152414 -49.598579
18.523127 14.593516 -49.24271
23.515089 13.603865 -49.767487
21.975574 9.6121845 -49.911812
20.549841 9.9200516 -49.444389
20.960653 9.2336845 -49.784992
21.612995 7.4680381 -50.914257
23.737255 14.956187 -50.086678
20.839792 7.852088 -50.583336
18.876244 9.9362898 -51.077019
21.876503 6.352313 -51.682991
23.261639 12.046341 -50.414059
19.516483 8.9009953 -50.720955
23.055859 10.40241 -50.961933
18.407778 13.168099 -50.836788
23.441345 12.925153 -50.542927
23.382685 14.456399 -50.937347
20.401236 7.2594109 -51.013329
23.501867 13.680962 -50.594139
21.238499 6.8841319 -51.126923
18.455713 14.441092 -50.426723
19.620396 7.0916042 -51.622467
20.767723 6.2290511 -51.44202
18.579086 14.539641 -50.854481
23.26108 10.852011 -51.255234
22.149881 5.2802758 -52.583942
23.362759 13.304676 -51.217617
22.908184 15.206902 -51.302532
19.22616 7.6334982 -51.858414
20.050388 6.6319842 -51.518929
23.338549 11.325523 -51.420227
22.938726 6.815526 -52.837021
23.123272 14.888905 -51.18335
21.252651 4.229115 -52.583755
18.546049 13.563119 -51.307186
18.694489 9.3190136 -52.223415
23.017126 13.122512 -51.986351
23.308193 12.028649 -51.750774
22.781925 13.327713 -52.182259
23.194971 11.400926 -52.347252
19.381285 14.060487 -52.273136
19.574585 5.700192 -52.299763
18.898777 12.113363 -52.616344
18.5516 11.427407 -51.968102
18.751101 8.3585625 -52.960861
19.990982 14.135516 -52.54372
22.270554 11.839725 -53.272785
20.59621 4.8047328 -52.191383
23.288826 10.106425 -52.480217
23.180445 8.0389824 -52.831436
19.646654 12.79066 -53.025665
18.711437 11.401837 -52.504982
23.036121 6.7171998 -53.118591
18.95986 7.6348572 -52.414108
19.093939 6.3763728 -52.706665
18.991703 10.479208 -53.319714
20.513155 12.894983 -53.227161
20.210169 3.7121191 -52.735905
22.913958 10.286801 -53.37167
19.087236 11.646778 -53.045593
20.970894 11.770376 -53.742813
18.898964 7.0185862 -52.965141
21.445766 4.0144172 -52.814117
19.640881 2.119082 -53.406685
19.843678 4.7163701 -52.499397
20.767353 3.1277471 -53.048203
19.134911 4.8549771 -53.085629
22.702593 5.672296 -53.229954
19.138447 2.3384919 -53.451748
20.147038 10.450624 -54.22551
18.892073 5.5532799 -53.397373
23.214895 8.3380957 -53.22921
19.479797 10.865736 -53.695702
21.940378 10.796255 -53.934441
18.926338 7.98034 -54.030716
23.169085 8.7431517 -53.473351
22.803528 5.086565 -54.323837
21.507963 3.0360689 -53.631454
19.264336 3.392745 -53.212448
22.683041 10.233113 -53.683971
21.158979 2.6936209 -53.567951
20.151321 1.909506 -53.549515
18.819818 7.338593 -53.667027
23.115826 6.9099612 -53.765533
20.127113 1.408319 -53.849148
22.935932 8.8774385 -53.913773
22.277443 3.7328639 -54.363129
22.803528 6.8129559 -54.725147
18.649796 -0.225611 -54.12793
21.201254 2.453243 -53.834442
18.472902 2.108356 -53.769447
18.751101 4.4150219 -53.718235
18.446196 1.040138 -53.802223
18.205669 2.5626869 -54.050457
18.753708 6.1868711 -54.029232
19.29376 8.8970852 -54.316761
18.546461 4.7254391 -54.413967
20.448908 8.3606853 -55.170971
21.327328 10.163446 -54.391808
17.615656 -1.501403 -54.354565
17.367586 -0.307197 -54.10968
18.700075 0.43486899 -53.905949
16.364117 -1.053468 -54.365551
18.100901 3.4320381 -54.645817
16.596357 -1.605644 -54.283237
19.106604 8.2031384 -54.321041
17.850857 2.5852389 -54.483803
17.903 0.91807598 -53.980995
18.76898 -0.91488397 -54.691998
17.172777 0.94200999 -54.47617
14.974829 -2.892658 -54.568909
16.102974 -2.6078839 -54.433895
14.588841 -4.5867019 -54.802994
20.617441 0.88487601 -55.277493
14.510535 -3.9937639 -54.635017
18.837696 6.3775649 -54.534081
15.212228 -1.824554 -54.795727
16.65781 0.21334 -54.595722
19.481474 6.6259499 -55.432613
22.129023 3.2344911 -54.832039
22.743935 5.5313988 -54.873199
19.802523 6.5452218 -55.668747
16.266518 -0.105743 -54.815094
13.262962 -4.715476 -54.856625
13.478237 -5.0534358 -54.825897
14.31444 -2.878356 -54.918636
17.192423 -2.462033 -54.733715
17.320173 1.948501 -55.048061
22.553427 7.682363 -54.803734
15.101685 -4.5405369 -55.040054
21.220434 1.794047 -55.025528
22.556034 6.0976319 -55.18922
13.377844 -4.1160021 -54.980835
16.960537 -3.057261 -55.19611
22.084702 7.510478 -55.190147
18.768793 5.4005389 -55.09853
19.496185 -0.57022798 -55.588486
19.222248 6.934226 -55.024597
12.529016 -6.3118639 -55.148434
16.532763 0.775397 -55.466881
22.190849 3.6136811 -55.388481
13.199405 -4.0275269 -55.177113
13.843442 -3.0314319 -55.368927
12.138931 -6.0832191 -55.107094
22.054533 6.220634 -55.615486
11.911049 -5.7777548 -55.221066
15.488565 -0.881576 -55.253094
21.555079 2.297765 -55.461666
15.219583 -4.7875819 -55.595932
21.512249 7.1727228 -55.586246
16.982847 1.459772 -55.831135
18.140732 3.7132919 -55.288288
13.162476 -6.2969289 -55.387177
15.364857 -0.93554902 -55.573959
11.551116 -7.1702838 -55.45105
17.603216 -2.5954249 -55.732994
18.367126 3.906816 -55.757206
10.985682 -6.7854891 -55.429447
10.395296 -7.629252 -55.696308
20.387455 6.5203609 -55.865398
15.95798 -4.1333952 -56.047527
10.847429 -6.3781409 -55.745842
21.160471 1.912765 -55.923874
15.687509 -0.50074798 -55.899853
12.807942 -4.1148658 -55.727592
19.260239 5.3260679 -55.884579
20.351885 0.56534499 -55.872292
10.723833 -7.9777699 -55.871544
11.791773 -5.2765141 -55.730946
21.041286 6.6115918 -55.899105
22.178743 4.8493352 -55.714745
12.837683 -6.7594361 -55.916611
21.017263 5.9145002 -56.104885
12.672817 -4.3121519 -56.113449
14.233265 -2.3997779 -55.96838
21.542788 5.6716819 -56.072483
14.538114 -5.3924012 -55.93486
12.153625 -7.2365241 -55.856087
15.625515 -4.2446642 -56.448654
12.669112 -6.866272 -56.206749
20.347975 4.8411961 -56.489807
20.301975 0.78881598 -56.250698
19.034349 -1.036448 -56.107304
21.594185 3.0691049 -56.127419
14.196672 -5.6098738 -56.219784
17.499191 1.866749 -56.347908
14.184567 -2.738893 -56.391853
21.568674 4.3463979 -56.260754
17.220617 -2.8497519 -56.306568
14.830542 -2.116401 -56.559269
15.995262 -0.450517 -56.468395
18.902502 4.3300672 -56.138218
9.3224955 -7.6737971 -56.424072
10.57355 -6.4306569 -56.256844
10.756403 -8.2359333 -56.286266
12.819804 -4.4006639 -56.50359
18.04479 -1.585803 -56.733017
14.160544 -5.310648 -56.634876
21.001249 2.5250881 -56.524075
18.272804 2.483356 -56.692238
19.513689 4.3697882 -56.498745
9.2631273 -8.6767817 -56.389248
18.511692 1.939823 -57.006393
16.99888 0.60277802 -56.746986
16.504438 -3.09391 -56.753132
14.107265 -3.198662 -56.682178
11.692086 -7.2627439 -56.82222
19.318153 -0.22173201 -56.628918
12.106137 -5.3178 -56.673988
11.080544 -7.9813828 -56.66449
20.143871 2.006305 -56.927063
20.362684 3.9173939 -56.745308
19.651869 3.757297 -56.767284
12.648236 -6.6428041 -56.645306
17.802568 1.243196 -56.964493
18.15848 -1.047148 -56.961887
10.674893 -6.7739611 -56.906395
9.6555386 -8.8690023 -56.622589
20.328047 2.9992709 -56.897457
16.162735 -0.81890601 -56.870453
14.750001 -2.923645 -56.924084
16.984598 -2.2864611 -56.948296
10.001226 -7.0267611 -56.669704
14.724003 -4.1185532 -56.95686
10.559546 -8.0856133 -57.092617
12.461547 -5.4356608 -56.865799
8.5769472 -8.2257833 -56.933208
19.673098 0.91178399 -56.924271
9.4341927 -9.1103306 -57.050346
12.001499 -6.52349 -56.948853
9.5103769 -7.9461312 -56.115314
11.356827 -6.6204748 -57.001926
14.08138 -3.9767621 -56.929485
16.254728 -1.928761 -57.132469
13.140539 -5.4474859 -56.925388
16.854446 -0.42426199 -57.064312
15.542551 -3.543232 -56.942146
19.431194 1.668142 -57.115711
7.9252 -9.1682091 -57.121483
18.146524 0.49587601 -57.188709
19.400839 2.5496509 -57.036564
17.429693 -1.292105 -57.124649
10.312203 -7.4166589 -57.190014
18.842911 0.31209901 -57.117203
8.8452959 -7.991663 -57.225952
17.313953 -0.48648801 -57.196716
8.5140038 -9.4576759 -57.159283
10.67318 -7.6643372 -57.152023
7.7114701 -9.536541 -57.345325
9.1850252 -8.3796234 -57.690769
9.2393646 -8.731513 -57.709949
9.3070574 -9.0890818 -57.465065
7.4995661 -9.0455608 -58.26527
9.1525478 -7.991272 -57.41106
7.4562502 -8.9636793 -57.975319
7.688118 -9.8281317 -58.464718
7.1480298 -9.881093 -57.761723
7.8473392 -9.9172211 -57.747196
7.6043348 -10.062904 -58.198044
6.479876 -9.5626688 -58.471424
6.8167558 -9.5500612 -57.99506
6.138844 -10.550681 -58.747406
7.4889321 -9.4954233 -58.618351
5.1787462 -10.519507 -59.283916
6.9225678 -10.235888 -58.856907
6.4892621 -9.6156683 -58.943314
6.6689682 -10.035399 -59.154865
4.987587 -10.232518 -59.837002
5.4299068 -10.136481 -59.186337
5.370502 -10.59599 -60.0588
5.0600648 -10.918418 -60.165504
5.0717421 -10.789514 -59.483921
5.1481309 -10.305349 -60.06271
4.1809568 -10.564983 -60.312805
5.3367572 -10.934266 -59.67313
4.3004198 -10.562395 -60.781532
2.9198279 -11.082035 -61.403896
3.9581771 -11.136319 -60.538326
3.727874 -10.867617 -61.454174
3.900094 -11.231814 -60.973904
2.571496 -10.883929 -61.954929
3.092346 -11.306715 -61.867218
2.4466691 -10.85432 -62.427197
2.7401221 -11.146208 -62.346931
2.5030019 -11.434707 -62.215645
1.619236 -11.35882 -62.900204
1.225085 -11.323493 -63.876953
1.440971 -10.902496 -63.375076
1.39406 -11.093916 -63.791103
0.86787599 -11.055125 -63.684025
0.14047199 -10.866071 -64.954819
0.028496001 -11.178703 -65.300819
0.52666801 -11.40465 -64.310112
-0.081972003 -10.900149 -64.906029
-0.040885001 -11.159001 -64.749786
55.284008 7.1690359 -46.579517
55.021992 8.9695072 -46.758663
54.169086 10.170058 -46.879524
54.832973 7.019536 -46.691624
54.069454 8.4871874 -46.875237
57.187775 3.2773781 -47.037071
56.799873 6.1889558 -46.762203
56.950901 6.5272141 -46.944885
56.1371 6.0161219 -46.554188
56.122017 8.1053715 -46.895538
55.565765 5.301487 -46.749352
55.674892 7.7811551 -46.655125
57.081444 4.3804588 -46.801308
54.234077 6.8847651 -47.1259
54.88493 9.839901 -46.888279
56.284775 9.2303333 -47.521999
54.156792 9.0282421 -46.793674
53.722519 10.350677 -46.944332
55.04266 5.332716 -46.975986
57.581642 1.801401 -47.68811
56.584225 3.700983 -46.886974
55.193504 9.6695433 -46.944145
52.834225 13.929478 -47.418644
55.863537 3.878231 -47.079529
57.487972 5.1573119 -46.985672
57.509758 6.2220669 -47.385494
54.637623 12.109192 -47.604122
52.782085 12.911688 -47.265007
52.461597 11.000767 -47.491455
55.278976 3.636102 -47.832249
51.898083 13.138397 -47.456261
52.152088 13.467157 -47.356258
58.145905 3.0818429 -47.407284
58.18259 4.8216238 -47.638943
52.000134 12.425717 -47.481213
54.211357 5.4363322 -47.96875
56.422585 2.4373951 -47.60524
57.879601 6.09307 -47.855896
57.5863 1.0379879 -48.216797
57.112358 1.105732 -48.356094
51.27758 12.706581 -47.95739
51.29192 13.476729 -47.664646
57.922802 1.979452 -47.621254
58.731205 0.92018199 -48.396694
57.073437 8.7296886 -48.561127
51.601421 11.240326 -48.300041
58.60252 3.6562519 -47.812878
54.175415 13.694387 -48.04808
50.551495 13.861971 -48.059441
58.970875 3.6558421 -48.429283
55.854973 2.228713 -48.516808
58.502708 0.72249401 -48.414944
52.24688 9.37745 -48.425739
58.106609 5.9706459 -48.270992
54.79908 3.8774121 -48.427979
53.796452 5.7721691 -48.625191
56.496513 0.938905 -49.198757
55.516602 12.292548 -48.765972
50.513687 12.813808 -48.757408
57.903439 6.6892662 -48.667831
52.515228 8.3505907 -48.697258
48.929665 14.5667 -49.320549
54.675053 4.0281601 -48.61718
56.067268 1.639591 -48.979385
55.071339 3.3197451 -48.731525
49.362823 13.909589 -49.422974
59.108681 1.874179 -48.456097
57.137871 8.7781248 -49.130417
51.765488 9.7296553 -49.049404
59.415764 2.39922 -48.923336
58.983913 3.9602809 -49.11235
51.066772 11.21351 -49.090939
55.378052 13.221397 -49.706779
58.654106 -0.111215 -48.947914
58.00288 6.4020901 -49.192429
57.92448 -0.233942 -49.067474
52.247807 8.6890907 -49.10416
59.460457 0.278534 -49.267666
