# .PCD v0.7 - Point Cloud Data file format
VERSION 0.7
FIELDS x y z
SIZE 4 4 4
TYPE F F F
COUNT 1 1 1
WIDTH 1588
HEIGHT 1
VIEWPOINT 0 0 0 1 0 0 0
POINTS 1588
DATA ascii
44.7854 -55.621094 46.702831
41.7826 -50.945969 44.791435
46.0756 -55.832199 46.987202
39.956398 -53.099194 44.926346
40.461502 -51.177284 44.785881
42.083199 -56.222839 47.400719
43.439201 -55.496681 46.520298
60.761002 -54.573784 51.608887
40.821602 -56.065781 47.263348
37.799698 -52.025391 44.939346
37.443298 -52.704617 45.064548
39.0835 -51.573345 44.825748
57.5634 -49.015133 50.24987
58.445 -50.867371 52.011513
38.945198 -50.744717 45.013374
38.1852 -50.680531 45.138943
39.222401 -55.931915 47.398266
55.558498 -54.594528 52.461433
58.004002 -53.809425 52.528736
54.904701 -53.729107 52.480694
54.907799 -51.432957 52.18047
55.0019 -51.724678 52.284832
38.059402 -55.616066 48.203857
39.5079 -56.036179 48.472542
55.305199 -52.336449 52.45602
54.3801 -48.751892 50.099312
53.908501 -49.12439 50.631721
52.631199 -48.939377 50.314842
51.7183 -50.34021 51.364506
51.898701 -50.099415 51.244389
38.272202 -50.035294 45.846176
38.3806 -50.052307 45.671261
36.926498 -55.241943 47.850525
51.681702 -51.582401 51.920795
50.439098 -53.656906 52.102661
53.915798 -53.491585 52.436134
52.830399 -52.584557 52.324558
53.010601 -49.218273 50.684986
49.659 -49.512081 50.47443
52.124199 -48.695114 49.915607
48.7631 -48.882725 49.677483
50.017899 -50.457012 51.183838
49.7355 -50.678814 51.260681
49.898899 -52.719799 51.98246
49.322201 -49.669495 50.540771
49.0522 -49.873508 50.642303
48.8027 -50.091091 50.749722
49.797401 -51.681015 51.701752
47.713402 -49.063789 49.684349
39.656502 -54.390251 49.766174
39.6516 -54.709137 49.695419
41.972 -54.429764 50.491177
40.730202 -54.163765 50.142563
41.8046 -55.208008 50.202881
43.3284 -48.966782 48.201965
46.6656 -49.345406 49.746044
46.9156 -53.328045 51.601856
46.795101 -53.06789 51.54454
47.293201 -49.9739 50.377083
47.543098 -49.76049 50.270615
45.276901 -52.975136 51.242989
41.1035 -52.732346 50.143528
42.405399 -52.72448 50.521011
41.439598 -50.635437 49.353561
45.387901 -50.335918 50.228233
45.580101 -50.098454 50.099075
40.527298 -51.753757 49.625347
40.1814 -50.791061 48.986458
42.713402 -50.488503 49.657768
41.9109 -52.22213 50.240089
41.748398 -51.952168 50.098534
46.8619 -52.157642 51.383793
41.924599 -51.457886 49.950581
41.833702 -51.704067 50.028854
44.523701 -51.357227 50.612232
45.749599 -51.344601 50.886822
13.866859 -35.739906 38.332348
14.011909 -35.849281 38.240715
13.3799 -31.625362 37.426201
21.801399 -29.571026 34.844097
20.673599 -31.990021 35.024765
21.546501 -31.639294 34.898079
21.487801 -31.34819 34.799477
25.4123 -32.492935 35.335213
23.868 -37.038044 37.695099
21.590401 -38.088528 38.685207
21.3783 -38.213547 38.913528
21.195 -38.320118 39.140953
20.9844 -38.421581 39.349758
33.767502 -31.779911 35.363419
23.9858 -37.563766 38.912823
45.439499 -32.258465 34.191879
45.1647 -32.397331 34.205933
47.851002 -32.590328 33.936382
46.049599 -32.646912 34.124069
46.956902 -32.534698 34.018539
45.8895 -31.400749 34.359993
45.877998 -31.635452 34.285187
35.962898 -29.498661 36.242493
51.186798 -32.123089 33.553452
51.969898 -32.148487 33.472015
17.565559 -33.347851 43.386887
42.3839 -35.9063 35.83931
43.340599 -35.886307 35.733589
44.2043 -36.036404 35.735874
49.7617 -32.364899 33.715164
51.6465 -32.296951 33.516365
50.6768 -32.409031 33.627857
59.2822 -33.618156 33.206818
58.5742 -33.434345 33.197567
45.156898 -29.857445 34.970734
45.1026 -30.089527 34.908649
51.348301 -30.043713 34.085495
51.712101 -30.207401 33.991432
56.370899 -30.581699 33.311325
57.056499 -30.277035 33.319889
57.749802 -30.506001 33.173866
50.4389 -36.829762 35.604019
49.666901 -36.679855 35.58168
49.788898 -29.778721 34.364388
49.966099 -29.550301 34.394482
42.145699 -28.94326 35.566151
42.5308 -29.138439 35.487144
55.851898 -37.020332 35.157944
54.959099 -36.813126 35.121964
56.806499 -36.982395 35.03746
42.576199 -36.804024 37.117493
42.238899 -36.85178 37.343277
42.9492 -26.00742 37.990261
43.058399 -25.78091 37.71196
40.8773 -27.272717 39.757473
40.5205 -27.279068 39.49728
50.966202 -36.965523 35.648636
50.8288 -37.01593 35.707588
65.256805 -36.603767 34.094666
45.785801 -26.025448 39.440895
47.096199 -27.213749 34.728439
47.1423 -27.529003 34.796787
57.382301 -37.930344 35.708912
57.091202 -37.751026 35.5755
43.1059 -25.112282 36.912865
44.9734 -26.56551 40.735531
41.179298 -38.304581 40.447533
63.815498 -38.622845 35.604523
63.667999 -38.755737 35.802948
41.643898 -28.579391 43.584679
42.008099 -28.394699 43.577553
64.022301 -38.922092 36.045082
41.9118 -29.255947 44.10627
40.3867 -29.770042 43.879047
40.502998 -29.490063 43.762505
49.746101 -25.054924 33.719635
60.822102 -38.921356 36.692627
60.503399 -38.978855 36.914322
52.984402 -23.87513 33.059601
65.807602 -39.411934 36.780155
65.6362 -39.307495 36.557144
54.794201 -38.643936 37.716793
55.134701 -38.795292 37.952999
78.161903 -30.824955 32.70211
78.174599 -31.088551 32.714417
50.0299 -26.847897 44.843895
52.499298 -39.884003 39.973248
52.3414 -39.672665 39.788063
43.283699 -32.695084 45.669582
43.530499 -32.559582 45.738914
58.953098 -39.608242 38.687038
49.3148 -38.361195 44.919399
49.327 -38.768291 44.917133
44.638699 -36.675915 44.199081
44.794701 -36.414368 44.351089
47.921398 -30.715042 46.598846
46.714802 -18.871044 30.877113
58.1707 -39.821404 39.163139
58.402302 -40.010376 39.406937
45.349701 -31.823914 46.145058
45.011101 -31.642242 46.015987
49.2612 -19.69467 31.264088
48.666599 -19.727169 31.294954
48.0117 -18.466772 30.605225
75.173103 -27.823715 34.865166
47.783001 -36.282402 45.127678
50.388901 -29.917049 47.106461
57.035702 -25.575203 43.76384
57.090302 -25.507919 43.387329
75.865196 -27.674786 35.234947
54.265499 -40.658993 40.468307
54.1703 -40.41938 40.276798
54.587601 -41.19725 40.842579
77.331902 -28.094315 35.065948
47.041199 -15.955006 32.804214
59.738098 -25.141342 41.157265
74.1521 -26.457592 36.578842
47.083099 -15.01775 32.876949
75.949799 -26.657387 37.094723
53.0532 -14.568731 33.720852
78.679901 -27.176586 37.5075
78.951698 -27.281643 37.351303
48.435799 -13.575314 33.243935
66.764297 -25.197239 42.710297
81.128304 -27.723919 37.706612
45.6115 -8.9764824 30.356117
45.769901 -8.8315849 30.155041
77.360497 -26.798653 37.881897
77.1549 -26.73505 38.032951
72.864799 -25.778664 38.007832
61.261501 -34.823177 47.118618
43.2962 -4.4699697 24.203964
46.3307 -7.1402054 24.996983
46.694599 -7.076416 24.961521
53.701 -7.0225315 25.736059
50.912498 -6.9579258 25.063005
61.863499 -38.12133 45.607941
54.551399 -6.4977283 25.987196
54.655201 -6.208086 25.966146
54.743999 -5.9775887 25.961653
55.5961 -5.8489656 26.936466
55.512299 -5.8794498 26.784491
73.107895 -38.735374 42.617977
55.016899 -7.8938904 30.4405
53.3396 -5.6028824 25.033869
55.196999 -6.0275669 26.382141
52.362301 -4.133853 24.125229
50.736401 -1.0016479 22.408176
74.678596 -26.439522 40.828716
76.181602 -36.828449 43.713665
67.984802 -33.208393 48.493607
83.020798 -34.968143 42.146317
83.046204 -35.236893 42.190647
79.581001 -34.423851 43.074337
79.762497 -34.690552 43.115948
52.919601 3.0436144 24.333204
43.468899 -60.961449 50.502235
44.596001 -61.650284 50.55809
45.5504 -62.123001 50.677765
42.9762 -62.575043 51.553051
47.011902 -68.08593 53.421474
42.8759 -60.440979 50.907578
42.805099 -59.134834 50.308617
43.362 -61.486427 51.832054
43.882 -66.04261 54.208912
51.887402 -61.663063 50.800682
44.402901 -64.374779 53.820786
52.215099 -58.800903 49.428993
51.858799 -58.86631 49.398968
47.007198 -65.696846 55.649136
47.236599 -59.109825 52.599987
54.609299 -59.711777 50.779766
54.5331 -59.532898 50.609924
51.975201 -56.884094 52.869255
53.501999 -57.264145 53.136288
47.337502 -56.082039 47.309879
42.983299 -56.108719 47.167
42.905399 -55.890526 46.911819
43.345699 -56.55172 47.713844
41.320702 -55.878906 46.902176
46.425701 -55.143517 51.342571
43.0909 -55.319321 50.502239
45.9874 -48.834324 48.927788
45.869701 -48.707344 48.671734
43.725399 -48.648422 47.770668
18.14506 -28.298706 34.44117
18.0937 -27.983902 34.510757
21.805199 -30.158043 34.682919
20.859299 -33.294132 35.55827
13.3273 -35.092335 39.576729
13.30873 -34.936935 39.881592
24.4559 -32.689808 35.380814
24.285 -32.961784 35.48896
23.555901 -33.543396 35.727188
32.2733 -32.339802 35.293056
27.5501 -35.174973 36.574745
27.3951 -34.912392 36.431068
37.2966 -32.788017 35.008827
37.429298 -32.993694 35.026089
35.394798 -33.734207 35.42992
34.736702 -33.566814 35.415516
39.965302 -33.019112 34.805946
39.569199 -32.833794 34.808914
19.32041 -28.045097 38.76173
36.093102 -31.561153 35.332092
36.600201 -32.003777 35.142895
36.8018 -32.189766 35.080997
30.6063 -35.182331 36.513771
32.569 -34.438023 35.965691
35.821098 -33.912773 35.469822
36.1395 -34.15929 35.551651
41.4991 -32.68771 34.590744
41.327 -32.583317 34.604019
44.2701 -33.096672 34.399445
42.368999 -33.151131 34.599487
43.2901 -33.008976 34.47274
30.2227 -35.649338 36.890816
38.891098 -31.480118 35.13982
41.0299 -35.546783 35.768158
41.056198 -35.365326 35.671516
43.4324 -32.148632 34.440186
15.72663 -27.430492 48.577965
38.7621 -34.732037 35.571095
39.5522 -34.593216 35.435074
35.786598 -30.313488 35.920967
48.3801 -33.544579 34.160603
49.068001 -33.648705 34.137241
47.037601 -32.900986 34.081078
46.028198 -32.832443 34.162521
47.902302 -32.769772 33.96637
52.189899 -32.962337 33.605232
51.6022 -33.060867 33.689232
16.76384 -27.027512 49.639736
39.386902 -35.902977 36.151443
39.777802 -35.990993 36.175415
16.52684 -38.938179 43.190819
16.48028 -38.539158 43.190197
50.6437 -31.792004 33.664345
50.8885 -31.649693 33.669022
37.997601 -36.034645 36.469383
37.6091 -35.972111 36.443535
48.794701 -33.935116 34.28141
49.647099 -33.7728 34.133759
50.480598 -33.91198 34.114746
54.863098 -31.83419 33.181564
54.3004 -31.949829 33.232178
54.2295 -33.004421 33.428852
54.6138 -33.100754 33.425037
18.7819 -33.692528 42.981354
38.7845 -30.150612 35.696217
38.8419 -30.420815 35.583851
45.958801 -35.690857 35.372131
46.519901 -35.65826 35.300522
38.5755 -36.139385 36.554497
38.3074 -36.08709 36.500538
36.0294 -36.171959 37.097023
47.9119 -34.121223 34.444969
47.341702 -34.307648 34.581371
55.2943 -32.299278 33.155022
53.4958 -32.376736 33.343613
54.383202 -32.258034 33.23827
57.681 -32.477116 32.966255
58.1842 -32.558422 32.940731
20.1467 -35.572376 42.24329
17.116159 -29.314667 48.691925
17.08507 -28.542053 49.890945
19.72703 -31.22345 45.54287
47.270901 -30.814735 34.3825
47.1199 -30.607529 34.471447
49.5037 -36.125229 35.263573
48.831699 -35.984516 35.250862
40.440498 -36.290451 36.477329
40.044998 -36.222221 36.425354
47.0317 -35.54567 35.193195
58.955601 -33.054539 33.027016
59.767799 -32.860188 32.892723
60.4571 -32.98975 32.878937
21.0175 -31.110092 45.536575
21.295799 -30.808296 45.928226
42.840099 -30.452141 35.084362
43.065498 -30.108768 35.170494
39.8302 -29.439457 35.790924
39.0173 -29.979969 35.732784
39.250198 -29.816124 35.760452
40.709 -36.359291 36.563957
40.924599 -36.43449 36.681435
51.964298 -30.347794 33.917046
54.574299 -30.490387 33.550682
55.186501 -30.194496 33.563141
52.501301 -30.647064 33.758915
52.6497 -30.781609 33.700142
52.369701 -36.235157 35.045341
51.688999 -36.086384 35.029572
53.231701 -36.163738 34.92355
36.372398 -28.4217 40.290493
36.5051 -28.288712 39.912914
22.240101 -31.285282 45.107403
44.239399 -29.337276 35.223991
44.705799 -29.210434 35.183666
47.131802 -36.68491 35.880341
46.664299 -36.701057 35.961411
45.424599 -36.53463 35.961494
60.226799 -34.357292 33.426918
53.367802 -30.039268 33.830009
53.011002 -29.837097 33.929932
64.486198 -31.549431 32.267441
37.024902 -36.702969 38.515419
37.1791 -36.797291 38.760593
37.3424 -36.909634 39.037868
37.554802 -37.027073 39.297836
40.151299 -27.523499 40.080963
40.0047 -27.600998 40.268269
59.649101 -30.217262 33.049828
59.0154 -29.943336 33.204262
60.288601 -29.951889 33.069023
45.0159 -37.01162 36.877224
44.3633 -36.8909 36.792068
42.1553 -37.012253 37.789219
42.045399 -36.90733 37.549507
37.039902 -28.722229 41.733944
37.151802 -28.808647 41.972408
41.354698 -26.310608 37.754879
41.5485 -27.250179 40.265549
21.7472 -29.551777 47.670208
51.792 -29.207565 34.218971
51.414398 -29.005077 34.300636
46.277901 -28.834614 35.013561
46.6702 -28.696831 34.966644
65.344696 -30.49559 32.390965
66.906097 -30.605595 32.255383
41.367798 -27.386486 40.697529
58.122299 -28.97139 33.558918
58.188499 -28.651432 33.618027
57.8591 -37.456581 35.235382
57.759102 -37.592205 35.35247
59.9244 -37.904716 35.349785
59.9543 -38.069519 35.499886
42.6311 -37.224049 38.184956
42.336102 -37.114536 37.998627
40.905998 -37.144409 38.541965
40.607498 -37.019989 38.311401
37.816498 -37.150211 39.533508
38.113998 -37.277599 39.749172
38.1096 -37.698196 40.521526
41.845299 -25.879856 37.335087
40.5951 -27.67437 41.237705
40.4258 -27.666618 41.014404
61.766102 -28.030678 33.569969
52.143799 -37.656544 36.295376
52.423401 -37.757248 36.41494
47.938202 -37.428268 36.96616
47.653801 -37.322613 36.81012
44.637402 -37.424805 38.033409
37.472401 -38.178062 41.184757
45.637901 -25.193096 37.962402
45.484901 -25.004158 37.675472
41.835602 -27.607765 42.174641
54.897099 -37.835083 36.001694
55.510601 -37.845238 35.906097
56.057598 -37.982609 35.99601
43.681301 -37.596184 38.755997
43.814701 -37.508423 38.506931
42.6628 -37.758308 39.417744
42.8344 -37.849957 39.529278
41.791702 -28.065296 43.176575
41.476898 -28.05965 43.015717
45.1745 -27.311268 34.994446
45.156898 -26.997723 34.913216
51.047001 -28.16283 34.387321
62.4473 -38.388859 35.502922
62.468498 -38.21833 35.326767
54.827099 -38.016087 36.313461
54.5028 -37.908173 36.195625
41.68 -37.955681 39.961777
41.270798 -37.821663 39.878391
55.410198 -38.232872 36.598175
55.118401 -38.123116 36.446907
48.182098 -37.837837 37.879295
71.785797 -29.378876 32.880737
47.3979 -26.030838 40.669922
51.0285 -27.1021 34.260384
50.850101 -26.858875 34.224026
52.667702 -26.848595 34.046131
52.424301 -26.566326 34.003826
55.7216 -38.347527 36.763298
56.059299 -38.469494 36.946114
38.2733 -36.311928 42.817181
38.5723 -36.619408 42.772766
46.938999 -38.266838 39.119637
47.388901 -38.415321 39.23801
43.8825 -38.220276 39.786194
44.2281 -38.358002 39.870605
41.5662 -29.69083 44.23513
41.7458 -29.934448 44.419243
42.3759 -28.216248 43.569813
42.7383 -28.060104 43.567726
48.873501 -25.792767 40.90316
49.931801 -25.934811 34.040615
50.140301 -26.14827 34.094185
67.0271 -38.255302 34.973713
40.4562 -37.661877 42.939117
40.5527 -36.853836 43.15097
49.4016 -38.614799 39.060814
49.017601 -38.466621 38.920967
46.625999 -24.603828 33.803234
46.2761 -24.19714 33.653656
40.4893 -41.342999 42.397888
44.555099 -30.343639 45.487457
44.405899 -30.612366 45.541046
53.190399 -24.87014 39.965157
50.969299 -24.660625 33.469898
62.381401 -39.083633 36.712578
43.104099 -36.305347 43.969677
43.0755 -36.555214 43.856911
38.602402 -34.877914 43.577583
38.3465 -35.167 43.367691
39.6493 -34.450882 44.066963
41.2062 -32.043121 45.02639
62.6717 -39.516396 37.78159
76.769096 -29.348682 33.476936
44.480202 -38.577103 43.824127
44.479698 -38.280052 43.837433
43.828602 -39.898525 41.13752
43.8951 -40.202663 41.31369
42.8927 -40.478153 41.6036
50.377998 -23.458138 32.996239
50.058498 -23.029289 32.824142
50.618999 -22.990444 32.777771
61.6381 -39.648144 38.306168
44.327 -33.675945 45.665642
44.534698 -33.491035 45.796455
42.629002 -33.662498 45.230934
46.563 -28.644814 45.281502
50.757301 -27.721661 46.055149
50.8526 -28.000706 46.324184
43.540699 -32.084347 45.695393
43.2206 -31.933754 45.578716
47.525398 -18.924044 34.017921
47.129902 -19.409729 34.163975
47.743999 -19.366188 34.314365
38.493202 -15.7931 29.284336
38.357903 -15.651022 29.501949
43.376598 -35.564018 44.419193
43.489799 -35.883797 44.278122
47.129101 -40.768475 41.221176
47.030201 -41.04995 41.39011
46.537201 -20.189932 31.634964
51.395699 -20.783997 31.762726
46.9664 -41.722576 41.746204
47.003899 -41.374695 41.564457
50.303902 -29.023026 46.723995
70.354797 -39.62492 37.189434
46.112202 -40.634197 44.472797
46.080399 -41.001808 44.545277
46.676899 -35.450951 45.296288
46.500702 -35.154472 45.419319
55.577999 -40.091595 39.818161
55.723499 -40.333252 40.058994
40.264198 -15.78532 28.161695
55.085499 -25.429951 42.260941
53.124802 -41.008514 40.794899
41.536102 -15.95204 28.316917
43.2939 -15.70999 27.988901
70.161301 -39.700706 38.022373
70.160706 -39.7188 38.410187
48.988998 -41.244053 45.285553
48.828999 -41.611591 45.354877
44.478001 -15.823832 32.148979
58.1189 -25.330357 42.552135
55.834099 -18.482121 31.066135
79.080299 -27.875034 35.997604
76.943703 -27.120136 36.531578
59.192902 -25.244213 42.006176
59.115002 -25.210182 41.669334
78.360298 -27.435627 36.543816
78.548401 -27.552158 36.3862
48.591099 -14.996683 33.137451
38.442802 -9.7560806 27.666801
39.9328 -9.3575993 27.713049
73.240799 -39.557125 38.641907
76.528198 -26.890572 36.835529
50.056099 -14.942156 33.363708
45.466 -14.226303 32.715328
49.549301 -14.090343 33.378391
49.331501 -14.442612 33.312935
39.952202 -12.929113 31.133892
51.0201 -14.57539 33.514206
51.285599 -14.328072 33.563065
64.036896 -25.199894 42.12299
77.477097 -26.992641 37.158981
77.747803 -27.105858 37.013443
56.221699 -14.361691 33.878082
55.9762 -14.054319 33.870914
66.003601 -25.124939 40.019756
54.9972 -13.667217 33.871468
49.281799 -8.2919464 30.108852
43.096298 -5.7288971 24.890932
78.4757 -27.094719 37.656799
78.2631 -27.020378 37.802734
47.058201 -8.5467567 30.006777
47.020699 -8.7203903 30.296722
48.435501 -8.6714649 30.554497
72.413498 -25.780788 39.010799
72.155998 -25.772549 39.380562
74.045403 -26.084324 38.885876
73.8526 -26.013203 38.501503
74.844704 -26.213886 38.178558
50.6614 -8.5050907 30.659527
45.488499 -9.1411915 30.542156
54.776798 -10.778336 27.530087
76.635803 -38.659447 40.885002
54.198799 -47.896725 44.539551
50.357601 -2.523243 27.174574
48.747002 -5.8257847 24.387381
49.129501 -5.0354519 24.035725
51.307899 -8.4330387 25.774981
51.9706 -7.5102043 25.481033
53.153301 -7.1562538 25.609251
53.7593 -4.9224567 24.9517
55.7416 -8.1552868 27.422398
55.566502 -8.4623318 27.326616
52.658298 -5.1771698 28.758804
51.074299 -4.7317715 24.101805
52.5051 -7.329567 25.510637
52.751099 -5.6418839 24.859604
53.451801 -4.9359646 24.816017
52.158199 -5.8974361 24.815569
55.1973 -4.5697145 26.130291
55.242901 -4.4521856 26.19445
76.3041 -37.562378 43.086945
76.061699 -37.735935 42.990181
66.889999 -36.053547 46.047215
66.195206 -34.528229 47.430046
53.921398 -3.4956751 27.837999
54.052601 -3.4625931 27.768398
52.4049 -3.2811632 23.7897
56.155201 -7.3176022 28.309723
56.130798 -7.2365208 28.532112
73.174194 -37.640732 43.927151
72.900696 -37.879944 43.820671
52.052799 1.1749573 25.642946
74.518204 -37.003815 44.039177
74.764999 -37.160683 43.85965
73.8349 -36.664829 44.459713
54.583698 -4.6791229 28.253584
54.369301 -4.6409302 28.33596
55.623699 -5.9050274 28.236912
55.716 -5.9509335 28.049492
43.063 -60.243149 50.363358
43.195999 -60.353851 50.334156
43.0191 -61.184555 50.843441
42.9198 -61.073296 50.885647
42.813202 -60.045418 50.558563
42.8535 -59.976433 50.435577
47.991699 -61.664604 50.416401
43.382599 -65.618004 53.588776
50.068901 -61.220024 50.313049
50.312401 -61.448547 50.446972
50.381802 -59.95031 49.735359
51.9622 -57.576729 48.751713
52.3652 -57.563332 48.819721
52.333599 -61.034546 50.58305
45.583401 -64.516121 54.491829
45.6413 -59.138962 51.991142
45.331501 -59.310196 51.93486
46.192699 -60.144936 52.685078
46.481602 -60.138329 52.797222
53.320702 -60.902626 50.810101
52.850899 -58.697548 49.508648
54.031101 -59.321442 50.219841
53.801201 -59.481056 50.214485
46.923199 -57.916077 51.954247
53.473999 -64.23217 52.814777
54.0243 -63.060623 52.505474
54.7458 -60.949684 51.775875
55.394699 -59.736504 51.783253
55.537998 -58.922592 51.246719
55.476101 -59.641411 51.932045
54.2076 -65.210732 55.173943
53.5168 -66.709488 56.466522
54.864601 -59.605835 53.59346
58.6269 -53.673088 48.336937
46.470699 -56.412292 47.510757
41.2234 -50.637547 44.863899
40.297302 -50.325283 45.003994
56.773201 -54.166275 52.494877
56.332298 -48.669071 49.880844
39.6563 -50.095577 45.173386
39.474503 -49.944187 45.340672
55.722198 -49.022507 50.470894
52.869301 -48.169689 49.196033
40.014 -49.35994 45.88139
39.797302 -49.386261 46.06321
37.699402 -50.169537 46.214905
44.366501 -55.386963 50.786888
43.702999 -55.695297 50.458828
49.391602 -48.161148 48.623039
48.7813 -48.362141 48.833721
48.522701 -48.49387 49.011444
47.0215 -48.518684 48.684719
47.1628 -48.329304 48.391624
42.0937 -49.299931 48.236183
43.092999 -49.568035 48.950825
43.1315 -49.358021 48.711678
42.3489 -48.947063 47.741421
26.1516 -36.950657 38.229385
25.899101 -36.897308 38.010162
57.628101 -34.380066 33.667938
57.332001 -34.128147 33.584923
21.9151 -28.74704 48.69249
74.638702 -29.883488 32.695145
54.703701 -7.7713013 26.51498
13.29707 -36.630989 40.314766
13.34638 -36.833275 40.020096
43.736801 -32.619514 34.354134
43.233601 -32.535355 34.404243
44.490601 -32.514973 34.272377
49.8372 -33.302296 33.934341
49.388199 -33.217079 33.947678
50.672001 -32.086552 33.609566
50.252701 -32.029331 33.663177
53.423302 -35.645607 34.640755
51.953602 -35.539005 34.725025
52.674999 -35.401745 34.591572
50.4683 -36.595757 35.444485
51.7659 -36.625687 35.331089
52.655102 -36.814808 35.357822
45.292099 -26.452103 40.550682
52.969601 -37.491772 35.888939
52.284401 -37.480862 35.992317
50.3111 -27.960587 34.467068
49.619099 -38.119362 38.076042
50.1437 -38.262859 38.229244
40.787102 -38.80125 40.913589
42.4986 -20.056068 32.011246
44.283298 -39.502083 40.812393
39.495499 -30.91188 44.152203
39.289101 -31.126789 44.177826
53.719501 -25.517281 42.270767
52.2854 -38.849815 45.434898
48.269501 -47.429333 44.239994
53.9604 -4.1380119 24.802036
43.694099 -65.511124 53.837379
50.207199 -73.276939 56.755104
55.4786 -59.944458 52.674675
55.479599 -59.988747 52.53994
49.1954 -35.280209 34.85788
49.865601 -35.124229 34.720795
51.846901 -37.501709 36.104729
51.932999 -37.567005 36.188778
37.179501 -32.588749 35.006706
37.008801 -32.39016 35.033165
51.777401 -32.802597 33.601383
49.9827 -32.879383 33.792587
50.792301 -32.75185 33.683235
46.977501 -34.529541 34.715752
46.622501 -34.749165 34.849575
51.9548 -31.320358 33.629684
51.312 -31.49958 33.658012
53.551899 -31.499275 33.392471
54.138599 -31.326992 33.368198
54.681099 -31.451752 33.273613
50.4846 -31.050636 33.889851
49.829201 -31.21069 33.923317
43.888302 -36.783314 36.688198
43.4715 -36.685352 36.591618
48.1973 -37.523563 37.110573
48.0257 -37.582367 37.305805
50.437801 -37.699146 36.841232
50.149601 -37.586323 36.675007
38.2118 -33.838768 43.963474
38.6278 -33.60247 44.166866
51.7691 -39.136177 39.274178
50.647499 -39.264011 39.621403
50.643101 -39.46814 39.829147
45.963699 -63.082024 51.085751
43.148499 -65.267654 53.114899
49.439602 -73.892448 56.893913
45.1698 -65.850983 54.901917
44.964401 -65.976639 54.850838
45.140701 -64.624054 54.330643
46.104599 -68.965187 56.744404
46.202599 -66.061134 55.48336
50.595901 -65.083511 56.398209
51.4571 -67.737808 57.650162
52.796398 -64.849457 56.315445
52.5723 -66.193794 56.875118
46.333599 -63.072105 51.067047
45.111698 -67.70961 53.335041
43.946701 -68.265869 53.864967
43.0023 -61.043449 51.320892
44.148998 -71.405968 55.681038
44.0271 -61.706413 52.382984
44.5611 -67.77549 55.40686
48.3228 -63.726021 55.189793
54.137001 -64.177254 53.44981
49.988998 -66.363922 56.878433
50.148998 -63.208481 55.4431
49.961498 -63.189514 55.392666
52.216801 -66.970757 57.248566
51.3312 -65.774879 56.808762
53.154202 -59.228249 53.94392
44.346199 -67.720505 55.246037
51.276501 -66.223061 52.968433
44.595901 -65.640709 54.49651
53.795502 -65.976318 54.431061
44.773499 -63.990906 51.606995
45.1362 -63.867531 51.50597
47.478901 -65.796242 52.318985
52.370399 -62.966972 51.593952
46.4758 -63.709496 54.504021
46.113499 -61.588356 53.341286
45.975399 -63.271271 54.084652
47.486401 -65.922478 55.93784
47.901199 -59.559158 53.045464
53.245899 -64.113792 52.591381
48.012199 -66.248291 56.278118
48.165001 -61.670387 54.144501
52.5317 -60.711067 54.616173
54.952202 -62.079849 53.253868
53.653999 -59.797157 54.136497
43.450199 -67.391953 54.307789
43.9515 -69.591942 54.626102
52.0854 -67.210365 53.80867
47.242599 -67.844055 56.727333
49.444698 -63.595741 55.461605
49.635101 -63.528496 55.477577
52.3671 -65.198608 56.543461
52.473598 -65.306946 56.565956
51.9193 -63.64254 55.903587
50.7495 -64.042648 55.943527
52.449001 -62.006035 55.19487
51.597 -63.624916 51.718899
48.084599 -65.131561 52.018715
52.745399 -63.524857 52.023155
54.124699 -62.926216 52.51189
52.5047 -67.801277 57.440437
50.1003 -70.53157 54.995735
44.671398 -64.782669 54.157082
45.619999 -66.486168 55.410919
46.654301 -66.579002 55.912254
46.817001 -66.421783 55.907494
53.707802 -64.472046 53.164986
51.233501 -64.904503 56.406097
50.483799 -61.056252 54.486172
53.2132 -64.731903 56.124355
43.591999 -66.965424 54.322372
48.422001 -71.438164 55.215889
43.568298 -60.39724 51.503498
44.144798 -63.843452 53.428822
44.4249 -66.325851 54.696575
45.185501 -62.575409 53.398834
45.776299 -63.842499 54.264946
49.678902 -62.246971 54.873375
49.958302 -62.076538 54.857449
49.937801 -64.51445 56.01358
50.698601 -62.341553 55.137161
51.6684 -66.180489 57.003967
52.192501 -58.81765 53.724651
54.0569 -60.893631 54.441898
50.486 -67.562683 53.483536
46.814999 -64.403252 54.968132
49.318699 -61.022446 54.182205
44.492599 -63.680557 51.506821
44.7952 -66.547241 52.80727
43.528599 -65.036697 53.498264
45.308201 -63.96891 54.108135
53.747601 -63.706314 52.692177
53.298 -68.618843 56.298351
50.1586 -60.875549 54.328979
53.673 -64.360176 53.058693
50.2757 -64.134537 55.904282
54.679401 -60.116226 51.105225
46.773102 -69.052483 57.077042
51.331799 -63.509277 55.78286
51.516899 -63.328201 55.723248
43.3792 -60.38591 51.360256
49.1665 -5.0878801 28.076214
45.358299 -0.75853729 24.642181
51.883202 -2.3751163 27.354755
51.728199 -2.5987949 27.441074
43.451099 1.3898878 21.77301
49.546101 -3.0206261 23.140949
49.737701 -2.5854235 22.960476
54.079201 -2.614851 27.255911
52.2645 6.7361813 21.779961
51.452999 -3.5521393 27.843035
43.917702 -1.6537151 24.272802
43.7215 -1.7625589 24.183727
43.963402 1.825716 22.51906
46.8424 -4.6496944 23.817125
47.797699 -0.43506908 25.500076
48.4147 -0.93320656 25.937668
45.150902 0.55033493 21.513926
53.662701 -2.8675117 24.187923
54.052101 -4.396637 28.318699
53.919701 -4.3559475 28.332607
50.368 0.95846939 25.579052
53.725601 -2.0305271 23.961393
52.6152 -3.16535 27.783051
53.062801 -2.3651962 23.68783
54.4235 -3.8229847 25.057617
54.5508 -3.8949909 25.194237
53.923302 -1.9697351 24.102413
54.201199 -2.6099901 24.523909
54.241299 -2.4941177 24.535065
54.176701 -1.8028965 24.307577
51.682098 2.6361394 24.909618
52.842999 0.88144302 25.686689
48.223701 3.8736553 20.019295
54.0173 -3.3280621 24.581892
51.2453 -3.9424448 23.78491
54.821098 -4.1418629 27.773773
44.178101 -3.0780745 25.13763
50.6059 -4.735117 28.244717
50.908401 -4.5922127 28.237885
50.174599 -2.5484495 22.996935
47.0993 0.98897934 24.587971
49.922401 -0.48354435 26.147865
50.071999 0.80890656 25.585793
52.9049 -1.0642204 26.726704
52.083801 -0.52834415 22.600212
53.377899 1.5601425 22.748602
53.8237 0.74627876 23.43856
53.902199 0.68317032 23.566111
53.455601 1.8536854 22.796494
55.131901 -3.183382 26.299812
54.674099 -2.6146412 26.829975
44.844398 -2.9846992 23.143459
43.751999 0.42015266 21.86676
47.032902 -1.172224 25.558077
47.258099 -1.1295223 25.623621
46.495098 -0.63621616 25.095928
49.918598 -1.5706196 26.643522
48.578999 -1.3333378 22.289362
51.135399 -1.4899578 26.846556
50.980999 -1.6667395 26.903061
44.2519 0.28230095 23.524673
44.1077 0.28267574 23.429409
46.8829 -0.26138306 25.079874
48.373199 1.496913 24.81168
48.134998 1.5214005 24.721512
50.717701 -0.77302361 26.44516
52.2598 -1.1750364 26.81181
45.411999 0.60148811 21.464142
54.718899 -1.6251221 25.268299
53.186699 3.6888199 23.478191
44.441002 -0.77856922 22.207232
50.5443 -1.8015079 22.7181
47.716 1.6573067 24.510616
47.512402 1.5066814 24.505857
50.452099 -1.1707935 26.576246
52.1954 -0.29843807 22.556593
53.091 -1.9960289 27.190231
52.965199 -1.9992714 27.204102
47.528801 2.8550639 23.881533
45.245998 -5.2895489 24.192389
44.209499 -4.9343691 26.063589
44.496101 0.63915539 21.574263
50.9487 -0.15765953 26.203119
52.387798 -1.2703094 26.860209
52.872799 -2.4698563 27.445938
52.7276 -2.4062347 27.417925
51.942402 1.0209494 21.968761
54.049801 -0.61955261 23.927031
54.083599 -0.53459454 23.955658
51.6395 4.7171245 23.776711
53.4366 2.3596334 24.326588
55.1861 -5.2701378 26.224464
54.366699 -5.0707912 25.390545
53.4422 -1.8973093 23.726992
52.0173 0.30127144 26.084888
50.702599 -2.1496105 27.073833
53.3195 -3.2333374 27.805485
51.766102 -1.2246208 26.804148
53.8881 -1.1398563 23.859461
53.900501 -0.92018986 23.820383
52.5616 -1.0699158 26.756613
52.6465 -0.96933556 26.700665
52.540501 0.34560585 26.029238
51.779099 0.98758125 21.916605
53.028999 -0.41236687 26.357531
44.683399 -1.5702028 22.523205
14.19053 -29.791061 35.307831
13.30858 -27.775379 35.406338
14.11675 -31.459702 36.08844
14.30816 -31.345177 35.870964
16.30188 -29.017868 34.361229
15.99822 -29.973618 34.63879
16.529991 -31.291088 34.974228
13.88673 -33.123451 37.076866
13.19421 -29.384869 37.007088
13.20188 -29.420826 37.265503
13.1228 -27.379269 37.010139
14.371469 -36.337662 38.183151
14.63303 -36.508011 38.077175
14.13787 -36.122318 38.268501
15.82131 -37.401882 38.091801
19.328831 -28.207027 34.771461
13.26386 -31.236752 37.853069
13.25211 -30.967064 37.890026
13.30216 -33.065887 38.694565
13.29626 -33.211472 38.966347
14.89463 -36.579407 37.95649
18.106659 -36.742065 37.365128
16.99329 -37.411751 37.882999
20.5257 -35.573048 36.644119
22.7635 -30.711651 34.769196
24.313301 -31.074581 34.951324
20.2812 -37.38385 37.726795
18.0082 -38.463036 38.624119
24.009201 -29.355095 35.576435
15.757589 -25.379765 36.987347
26.6346 -31.96999 35.240444
26.4576 -30.369061 35.518318
21.6873 -35.021713 36.38047
22.6716 -34.14164 35.979919
22.7999 -34.490074 36.148663
15.608971 -40.286911 40.419365
25.735199 -34.818783 36.373184
25.5854 -34.482121 36.206413
24.2283 -35.424812 36.652519
24.0569 -34.322514 36.100769
26.0341 -33.185207 35.623146
27.6542 -33.466595 35.75206
21.3953 -37.587063 37.941467
21.8368 -37.943211 38.478165
20.0289 -38.539856 38.936394
19.652859 -38.505672 38.782551
16.023029 -40.641899 40.951462
14.79914 -29.021873 44.805344
16.576 -26.323669 37.795715
24.510399 -35.792885 36.863377
24.436901 -37.283951 38.238937
24.868099 -36.956856 37.809341
19.89072 -27.660801 38.070068
21.2819 -27.949875 37.825436
17.500141 -28.390476 39.8764
24.1936 -36.530743 37.310291
24.7304 -28.985062 38.26342
23.474701 -29.001465 38.636406
19.524399 -39.589649 41.125286
15.05526 -28.739841 48.217659
18.3521 -29.059853 42.842049
17.08729 -28.859138 43.46841
37.313698 -34.63575 35.659496
36.511398 -34.443722 35.646095
15.20504 -39.428165 43.437672
32.346298 -29.122322 36.717575
31.0333 -29.333969 36.6437
20.105 -29.345207 41.373779
41.0186 -31.396904 34.95269
40.7239 -31.111679 35.094669
40.8167 -31.683632 34.868065
44.282799 -33.752407 34.63134
44.331799 -33.572353 34.553215
31.2987 -36.204765 37.679497
21.5571 -29.449417 40.947041
21.6549 -29.434666 40.634636
23.090401 -29.542469 40.977962
23.2276 -29.425003 40.004181
16.71435 -31.930935 44.866383
17.546329 -32.559559 44.074345
24.7003 -29.436714 39.774624
24.5326 -29.598606 40.81546
25.834099 -29.590496 40.41711
33.4104 -28.305866 37.78653
17.368229 -35.550678 42.856995
45.735001 -36.313786 35.752213
44.998299 -36.178532 35.742233
43.488998 -36.261211 35.960796
41.518402 -35.925007 35.938335
52.792702 -31.777927 33.419109
52.5742 -31.896107 33.424049
52.9953 -31.646366 33.422729
35.076302 -28.622726 36.579597
35.316498 -28.911491 36.481617
18.814999 -35.359756 42.556335
20.1719 -35.269684 42.26442
20.1112 -34.923054 42.326546
19.754829 -33.482018 42.931633
19.81332 -32.659969 43.665695
21.181499 -32.515465 43.665619
22.5292 -32.384502 43.671745
23.380199 -29.429161 42.792591
21.5986 -28.411034 46.143684
21.1346 -28.275215 46.451752
20.225601 -28.594814 45.157784
20.137901 -28.431538 45.682323
50.8811 -36.440697 35.309219
50.038502 -36.265724 35.290943
48.297199 -36.388508 35.537552
46.1908 -36.198662 35.634708
44.424599 -35.86573 35.616577
45.795601 -35.881638 35.49136
59.3862 -32.198227 32.752018
58.549599 -32.332954 32.854462
62.300201 -32.058723 32.47998
62.7617 -32.225571 32.478294
60.647598 -32.532001 32.721012
37.108002 -28.907417 36.25539
36.811501 -28.663204 36.331184
36.6199 -28.33931 36.398018
47.076099 -30.374184 34.553513
47.460999 -30.178978 34.564434
58.495899 -31.446491 32.845963
57.953899 -31.606796 32.878189
61.278099 -31.315186 32.573383
60.555302 -31.714878 32.600971
21.7374 -34.838928 42.042702
21.545101 -35.133293 42.016003
37.808701 -27.020538 37.228115
38.6712 -27.222836 38.144211
39.883598 -26.802387 37.90937
39.4739 -26.743855 37.584141
18.19264 -28.606049 49.719864
42.074299 -29.29565 35.520302
41.6572 -29.51828 35.523685
40.921402 -36.585358 37.05048
41.121002 -36.511234 36.811447
38.7803 -36.537766 37.525688
39.320198 -36.332489 36.835579
58.781502 -35.598591 34.126366
58.3979 -35.280743 34.009636
56.820599 -35.93602 34.470848
55.094501 -35.789757 34.557358
53.654202 -35.228237 34.418243
54.9104 -35.028316 34.208817
34.873802 -36.938549 39.836216
35.052002 -37.077579 40.189713
35.0518 -29.027279 41.17157
35.299698 -29.109886 41.481857
38.968201 -27.63343 39.503525
36.8951 -28.027454 39.286293
36.620102 -28.172588 39.582699
38.258102 -27.979885 40.219086
20.882801 -27.494873 48.990524
42.877602 -36.379375 36.173294
43.7896 -36.413452 36.067566
42.286499 -36.392635 36.29842
62.1311 -34.547081 33.34882
62.438301 -34.859119 33.463333
60.839401 -35.240799 33.773972
32.5154 -36.865692 40.822281
36.5112 -28.033478 36.429916
38.0728 -28.076195 40.438221
36.4445 -28.480423 40.568233
40.352402 -27.698483 35.727638
39.255798 -28.249187 35.991692
55.292599 -29.6357 33.701431
55.9361 -29.337048 33.693314
52.620499 -29.618797 34.032272
52.175499 -29.420868 34.130432
53.764 -28.932449 34.016747
63.966499 -32.945328 32.595379
63.8326 -33.295334 32.723591
66.057205 -32.685833 32.378349
36.730801 -28.71331 41.500832
36.5606 -28.635132 41.18412
37.7085 -27.192516 36.087448
39.467598 -26.668495 35.605278
39.193501 -26.969486 35.745613
60.6703 -36.469166 34.390175
57.566101 -36.217541 34.544571
64.642899 -30.115498 32.593231
63.059299 -29.878487 32.826313
66.264198 -34.16552 32.929314
39.089302 -28.41991 42.335655
39.460602 -28.439102 42.574657
40.770699 -27.330185 35.588966
39.4622 -27.206989 35.761108
44.974499 -28.493092 35.201496
42.1553 -28.540649 35.589546
41.6479 -28.289211 35.641796
23.297199 -29.942249 46.63195
22.551701 -29.45351 47.544941
60.899101 -29.702682 33.09425
61.337502 -29.438694 33.148804
58.378399 -29.635185 33.36417
58.011299 -29.289799 33.49366
59.673302 -28.794525 33.480106
66.179504 -30.179974 32.46986
69.275803 -31.055439 31.985882
67.583 -31.006863 32.089821
63.854401 -34.809326 33.333736
30.1777 -35.289013 41.733162
53.3293 -28.741676 34.093887
51.062599 -28.817608 34.369038
50.831902 -28.581955 34.413704
56.7766 -37.231384 35.197281
58.503399 -37.140202 34.961693
60.023102 -37.285358 34.897675
60.730099 -37.739361 35.127041
42.595299 -37.651325 39.218174
41.5313 -37.417099 39.016293
34.759598 -30.747524 42.70351
36.242798 -29.840004 42.580223
40.867798 -27.965607 42.454048
40.516098 -27.95166 42.189137
47.6959 -27.843994 34.777424
63.021301 -37.45063 34.718105
60.728802 -37.213638 34.787888
60.020802 -36.988178 34.727161
61.240398 -36.744511 34.482822
68.695404 -33.958477 32.778931
38.505402 -29.065079 42.815468
40.747902 -24.064331 34.379761
43.995499 -26.562057 39.847797
44.4198 -26.405529 39.635231
46.536701 -26.055485 40.045868
47.041698 -25.418663 38.821968
62.635601 -38.078136 35.182568
35.804501 -35.807034 42.46909
45.9291 -37.468739 37.714165
31.9538 -35.078243 42.038219
30.480101 -35.004639 41.884911
34.609802 -31.108379 42.850819
45.967999 -25.256634 38.175636
44.151402 -25.147346 34.314819
43.285599 -26.161018 34.850063
42.714699 -25.126583 34.484039
70.049896 -33.265682 32.498741
71.592606 -32.844425 32.373299
39.0424 -37.948376 40.567097
71.334999 -30.437126 32.168514
72.234802 -29.95681 32.478519
74.842102 -31.830845 32.296196
74.887802 -31.521858 32.210869
73.294495 -32.350166 32.301952
73.377502 -31.457798 32.031887
73.173904 -32.74659 32.430489
38.144798 -38.55328 42.205868
43.919498 -37.79311 39.121155
46.404202 -38.115044 39.006462
45.041302 -38.111885 39.366512
38.293301 -31.825539 44.128181
35.933098 -31.41473 43.321815
36.196098 -31.778927 43.532467
44.546101 -27.760441 43.957172
45.3382 -27.118336 43.211441
44.866901 -27.260792 43.290222
44.543499 -27.404499 43.442749
44.6427 -23.386593 35.914566
46.576 -26.281467 41.036816
48.080101 -26.020733 41.280785
48.362099 -26.369961 42.933083
47.9981 -26.537815 43.227615
46.582699 -26.576439 42.340744
45.2113 -26.971409 42.659317
45.675098 -26.959763 42.964928
48.8494 -26.808781 34.419003
49.2299 -26.998379 34.428864
48.556801 -26.485462 34.355648
59.518799 -38.730911 36.58947
59.2892 -38.62159 36.415508
50.2981 -37.911495 37.376099
49.972099 -38.073856 37.862
33.5326 -35.22234 42.249294
35.592598 -35.477013 42.569416
36.151398 -35.248535 42.800285
34.868698 -34.556763 42.816998
32.0737 -33.990307 42.48687
33.487198 -34.172062 42.674683
35.8228 -32.062534 43.495239
40.4594 -35.878357 43.524078
40.0499 -36.152222 43.295498
39.6964 -36.331036 43.136581
34.9687 -32.538055 43.337963
40.185402 -32.404331 44.787014
41.261902 -30.395348 44.484985
41.196602 -30.650208 44.576134
47.123901 -23.42728 36.716064
47.542702 -22.337029 36.045013
46.778099 -22.330727 35.820736
41.390602 -21.281263 33.04361
44.231998 -22.856152 33.2314
45.0392 -21.868401 32.652885
47.981201 -26.869732 44.090759
49.569099 -26.674122 44.373478
50.752201 -25.349525 33.757263
52.113098 -24.966156 33.516972
67.171997 -39.05175 35.771526
76.034798 -30.217014 32.610489
76.011703 -29.937313 32.818237
72.131195 -37.027248 34.29483
47.9216 -38.721416 39.51506
48.3363 -38.872108 39.601242
40.777702 -31.110832 44.627075
39.9408 -31.652199 44.559536
49.808498 -26.149731 43.08593
52.870098 -25.115181 40.474873
51.331799 -25.331738 40.598473
53.734001 -24.79538 33.381805
55.189899 -24.86795 33.379501
44.2183 -38.039669 43.798054
40.6031 -42.404461 43.277153
39.9645 -41.158195 42.824959
40.2108 -35.550812 43.629749
39.902702 -35.294228 43.688297
43.1674 -29.446968 44.636475
46.340099 -20.413412 34.500099
46.579498 -21.591782 35.279373
47.073502 -21.280251 35.23333
49.949299 -26.2477 43.465496
50.772701 -24.080017 38.260529
52.253101 -23.831486 38.345119
59.658699 -25.332577 33.597206
58.965099 -24.190056 33.330242
59.301201 -25.5658 33.609108
73.3927 -28.278061 34.041077
74.672997 -28.594448 33.917931
78.192902 -31.448795 32.783295
78.070801 -31.763855 32.823654
73.136703 -38.218204 35.04026
74.411102 -37.885239 34.991196
41.1437 -41.626678 43.333725
40.059898 -40.886253 42.834816
42.691299 -43.13187 42.888954
41.677902 -42.28619 42.643456
43.003399 -30.42799 45.051014
42.7542 -30.183498 44.867599
45.573502 -40.915977 41.488831
45.4632 -40.617523 41.338081
46.5163 -29.953732 45.919228
50.645302 -27.451015 45.756268
47.3904 -31.006565 46.525475
46.879101 -31.312786 46.457962
46.272099 -30.557877 46.068207
44.0942 -31.31044 45.67292
44.576199 -31.470905 45.852676
42.056599 -16.49124 29.293491
48.577 -22.140499 32.496231
49.228401 -22.054024 32.418789
47.913101 -20.970272 31.960962
48.282299 -20.289564 31.598293
49.766399 -20.853338 31.82485
53.041801 -25.411411 41.613552
54.381699 -25.329887 41.639313
66.462097 -39.737629 38.000687
53.4147 -38.96468 38.698082
53.638302 -39.124062 38.899567
55.595501 -39.116112 38.469151
49.392502 -19.519678 34.83136
57.3242 -24.058552 39.171177
57.192402 -24.287746 39.45459
67.688797 -27.046745 34.230255
61.520199 -39.769104 38.59903
60.020901 -39.864815 38.992432
42.3419 -42.304131 43.856709
45.191601 -35.924454 44.685471
45.261398 -35.595402 44.876945
50.655499 -40.247383 40.494202
50.456699 -40.513416 40.701458
48.838402 -30.09594 46.683315
46.805599 -30.249596 46.120964
46.4506 -19.434757 33.97731
45.850201 -19.411703 33.779724
47.060799 -18.03376 33.446655
45.757099 -17.97913 33.02124
45.311001 -18.38232 33.061432
51.1889 -21.825272 36.60701
52.248798 -20.968716 36.287582
52.085899 -20.466394 35.960003
55.411499 -25.839676 44.308323
56.621101 -21.933245 32.430298
58.018101 -23.008041 32.926727
57.039902 -21.958508 32.482361
67.375801 -25.572933 35.09729
66.674805 -39.793343 38.315872
68.333 -39.772701 38.384758
82.380997 -29.319248 34.955521
79.756104 -31.810135 33.267685
79.479599 -32.133991 33.283516
80.607697 -32.664692 33.781883
73.1763 -39.499733 36.620026
75.928299 -37.646332 35.072651
77.261597 -37.554214 35.260498
49.8302 -39.384815 45.068909
43.6516 -40.508408 43.816422
44.472099 -41.41214 44.231083
44.951801 -40.360748 44.128349
44.187599 -41.800629 44.250736
44.529202 -42.178844 44.448608
42.577 -41.899696 43.823441
45.740002 -44.231331 43.03199
43.929199 -44.03141 43.13372
43.887699 -43.366528 42.847855
45.3125 -42.807034 42.438202
45.947899 -43.063324 42.488178
45.867699 -33.708191 46.018864
45.682098 -33.994541 45.846313
45.4422 -34.203125 45.689804
52.1782 -27.686264 46.60004
53.335499 -27.50182 46.924603
73.332901 -26.666557 35.892899
72.914398 -26.706409 35.702614
75.142998 -27.201508 35.692184
73.900299 -27.354244 35.143166
50.377499 -37.829823 45.172546
49.584499 -42.243881 41.769722
49.7295 -41.895523 41.575512
47.452099 -33.097816 46.581749
47.747501 -33.353783 46.557888
47.453098 -32.821701 46.658993
46.267101 -16.47467 32.674603
59.248901 -24.936909 40.52095
51.335999 -16.310572 29.436749
51.2467 -16.015038 29.225554
69.987 -25.828491 35.849709
69.818405 -25.97271 35.613785
71.488205 -26.166 35.966156
82.6735 -31.128654 34.072506
81.536499 -30.924526 33.652515
81.864197 -30.644245 33.752655
75.540703 -39.390285 37.219841
75.263702 -39.421928 37.589729
58.4244 -40.233189 39.707825
53.515202 -41.934002 41.354088
53.5555 -41.584724 41.13842
52.183701 -42.572567 41.773052
46.216 -44.475204 43.097008
47.546299 -44.090302 42.814346
45.0709 -45.149078 43.495865
44.1889 -46.15078 44.001865
47.5648 -33.69099 46.389854
46.876999 -34.223488 46.001072
50.974602 -30.822704 47.500195
50.717999 -31.201935 47.463753
40.9655 -14.836197 31.423264
56.8148 -25.722694 44.526306
65.012299 -39.887024 38.642403
80.484901 -28.229187 35.934734
75.744499 -26.934353 36.358562
77.427498 -27.413651 36.170235
79.053802 -38.729664 36.586712
48.9366 -45.828335 43.523758
49.389702 -45.342865 43.27644
44.179901 -47.149948 44.386253
49.820499 -34.087128 46.602051
51.446602 -33.935497 46.896233
50.656399 -33.060776 47.159744
54.9729 -17.906029 30.683556
56.120899 -20.535444 31.867699
55.4366 -19.208368 31.275066
51.665798 -41.311333 45.815872
52.068699 -36.303268 45.832314
50.5345 -36.257195 45.66066
54.241402 -43.825447 42.435368
54.029202 -43.262482 42.120949
53.220699 -44.844086 42.963028
52.478901 -44.850838 42.963696
51.806999 -43.701611 42.386471
52.372601 -43.121136 42.067009
49.257198 -32.00473 47.143414
43.6856 -15.341192 32.047276
45.041801 -15.398811 32.375896
43.873402 -14.622532 27.117123
59.295502 -25.350079 43.229866
60.530399 -25.242321 42.221775
55.053699 -16.046862 29.861012
54.57 -15.947996 29.704847
58.586498 -19.386679 32.234306
69.575195 -25.187992 36.814617
77.25 -39.196198 37.810928
50.0979 -44.881935 46.815201
49.680099 -43.552864 46.211227
49.365002 -43.99725 46.307888
44.919201 -14.583252 32.541161
46.239799 -14.615698 32.801903
53.460602 -20.109949 35.97905
52.905701 -19.801266 35.723885
54.593102 -18.922697 35.452126
53.098099 -18.555878 35.08147
39.784203 -13.929417 31.181015
40.504402 -11.642305 26.095165
45.169701 -14.417477 27.113205
45.464298 -14.147598 27.00103
53.0056 -14.412951 28.460526
52.876598 -14.764641 28.656586
54.4846 -14.523506 28.876976
72.589798 -39.548904 39.382645
72.338699 -25.919914 36.85379
72.143997 -25.743717 37.176746
51.727501 -42.147526 46.094025
52.026299 -41.669918 45.981537
53.557999 -41.472622 46.133938
52.909401 -31.934078 47.894527
63.372101 -25.207142 43.875004
63.027802 -25.233475 44.237827
60.698898 -25.31303 43.57505
61.029701 -25.320572 44.034485
62.203999 -22.014935 36.252335
79.352097 -27.497242 36.975304
79.694801 -27.647423 36.790245
79.622803 -27.718437 36.565315
70.227905 -25.209103 37.460991
73.435799 -26.005405 37.324715
82.5755 -36.880306 36.406372
50.576302 -45.749237 43.429077
50.395302 -46.345078 43.714626
52.0947 -45.468372 43.274441
52.4841 -45.945721 43.511707
38.9739 -12.449383 30.659428
40.332298 -12.223703 31.06555
40.531898 -11.89846 31.017681
59.880798 -20.354004 35.758308
48.778099 -13.59243 27.214109
86.449097 -35.239483 37.278053
85.304901 -35.933239 37.064022
50.983101 -45.760677 47.371941
51.895901 -46.455368 47.87429
55.346699 -36.767467 45.878189
54.454498 -34.194611 47.09584
53.0816 -34.020676 47.048607
53.122501 -33.640842 47.241562
52.957802 -13.348013 33.776573
47.019299 -13.23403 26.828705
59.2617 -27.590015 48.487396
57.835602 -27.863529 48.43277
53.7677 -13.97967 28.367022
56.286201 -13.762032 33.888428
45.771599 -11.628128 32.292362
42.8316 -9.7923985 30.456989
43.1689 -5.7514019 25.746319
60.266102 -20.374018 35.550938
58.716202 -39.753445 45.95932
59.794701 -39.107594 45.809868
56.399101 -44.03368 47.263077
56.967602 -42.858295 46.851032
54.875 -43.901333 42.493164
47.350899 -11.325716 32.492729
47.070202 -11.650543 32.567516
48.195 -12.134926 32.944218
45.6427 -8.6299324 25.65254
49.823799 -7.4000702 25.162573
47.8801 -12.635143 26.800488
64.936798 -25.172989 44.440887
64.553604 -25.197556 44.757095
65.5812 -25.223022 45.627182
65.305298 -25.21302 41.966362
64.377197 -25.182625 42.805763
65.697205 -25.166119 43.149712
70.708405 -25.38422 38.584679
59.4814 -11.262615 29.366476
75.378502 -26.387703 37.622425
75.722801 -26.435219 37.827423
82.125198 -37.867458 39.893761
56.007999 -45.381065 47.782581
52.8298 -48.054905 44.508896
53.1978 -12.355574 33.676144
50.351799 -7.8540077 29.950096
49.680199 -6.1357822 28.728048
49.254398 -6.3277702 28.717167
44.298401 -11.036848 31.690596
44.2757 -10.695028 31.501522
45.6968 -11.254734 32.118469
60.7645 -27.418941 48.54808
62.324501 -27.412567 48.645515
61.386101 -26.645374 48.074818
66.998795 -25.160942 43.502258
69.277496 -25.458981 40.217232
69.033295 -25.381016 39.877335
70.848602 -25.643013 40.378628
55.688702 -10.858675 27.874575
54.982399 -9.5815125 27.220325
55.233398 -9.1971149 27.253885
53.4827 -9.6560307 26.735403
76.927696 -38.782471 40.302921
75.588799 -38.877392 40.767105
60.073898 -43.091064 42.575626
59.834801 -44.126331 43.445751
58.936501 -43.688705 42.79179
61.716499 -29.990471 49.66423
61.166199 -11.836411 33.472229
52.781101 -6.5512466 29.477333
53.0882 -6.3378105 29.397446
48.948601 -9.4402313 25.984566
50.502701 -9.6985741 26.204292
50.9674 -9.9340591 26.355677
51.305401 -9.6319809 26.284395
48.300999 -6.6521721 24.758961
48.6022 -8.0309467 25.387915
64.186005 -25.959328 47.703491
55.280701 -8.7677746 27.192629
55.090099 -8.1730309 26.908024
60.214298 -44.113911 43.654819
79.2537 -27.270855 39.050884
80.940804 -27.69186 38.838734
78.840797 -38.334385 40.605564
83.023499 -37.136971 40.935478
82.776398 -37.326431 40.727001
59.672901 -36.652588 45.957027
58.980701 -36.149845 46.192081
53.115898 -48.380363 44.667046
52.453999 -49.676792 45.157173
57.807999 -9.7181244 32.473976
57.929001 -9.980135 32.736942
49.421001 -9.1470337 31.425707
46.707699 -5.873642 24.400692
76.140999 -26.524788 38.834068
76.313904 -26.54715 38.537647
78.5411 -27.051487 38.398556
82.481903 -28.188599 38.733921
80.7425 -37.847855 40.784088
80.888199 -37.703487 41.002827
60.043098 -42.493565 46.339352
59.780701 -42.234962 46.374783
57.611301 -44.440266 47.338806
53.0299 -9.3151398 32.009552
64.010605 -27.347507 48.648502
76.146896 -38.373814 41.916832
81.4897 -36.791332 42.060265
