# .PCD v0.7 - Point Cloud Data file format
VERSION 0.7
FIELDS x y z
SIZE 4 4 4
TYPE F F F
COUNT 1 1 1
WIDTH 1586
HEIGHT 1
VIEWPOINT 0 0 0 1 0 0 0
POINTS 1586
DATA ascii
52.905701 -6.1377316 45.908314
54.593102 -5.4563303 45.290718
53.098099 -5.2805223 44.799767
39.784203 -2.7359333 39.309528
40.504402 -2.812479 33.733604
45.169701 -4.8973942 35.829102
45.464298 -4.7002087 35.61338
53.0056 -4.3238888 37.048275
52.876598 -4.5597706 37.374596
54.4846 -4.2480888 37.472435
72.589798 -22.488911 57.569992
72.338699 -11.205593 49.518211
72.143997 -10.909418 49.736443
51.727501 -22.00771 64.750793
52.026299 -21.622391 64.446999
53.557999 -21.379171 64.50174
52.909401 -11.990259 62.066212
63.372101 -7.592308 55.58036
63.027802 -7.4628372 55.920315
60.698898 -7.8150406 55.35326
61.029701 -7.6277103 55.772835
62.203999 -7.9206657 47.322788
79.352097 -12.583786 50.294949
79.694801 -12.798103 50.190697
79.622803 -12.957523 50.01685
70.227905 -10.304768 49.76812
73.435799 -11.084053 49.981144
82.5755 -21.328165 53.744774
50.576302 -26.398224 63.857674
50.395302 -26.817562 64.368286
52.0947 -26.209023 63.598831
52.4841 -26.541374 64.015602
38.9739 -1.6149979 38.211319
40.332298 -1.2388287 38.484016
40.531898 -0.96428776 38.303177
59.880798 -6.6241341 46.173111
48.778099 -4.1070042 35.571873
86.449097 -19.472691 53.841343
85.304901 -20.191898 53.940559
50.983101 -24.742268 67.435959
51.895901 -25.159565 68.18483
55.346699 -17.22294 62.281471
54.454498 -14.376537 62.297699
53.0816 -14.238861 62.181381
53.122501 -13.813068 62.195732
52.957802 -1.1120691 41.416191
47.019299 -3.9450645 35.07111
59.2617 -7.8026466 60.767651
57.835602 -8.073616 60.833733
53.7677 -3.9707203 36.780418
56.286201 -1.4400263 41.692535
45.771599 -0.18058014 39.344181
42.8316 0.70749474 36.904953
43.1689 2.3790641 30.927839
60.266102 -6.7299118 45.993626
58.716202 -19.894867 63.616928
59.794701 -19.372684 63.208527
56.399101 -23.223083 66.607437
56.967602 -22.331959 65.737259
54.875 -25.118992 62.228493
47.350899 0.17817783 39.397972
47.070202 -0.084610939 39.603027
48.195 -0.36440849 40.149147
45.6427 -0.2694006 32.059368
49.823799 0.63816261 31.095545
47.8801 -3.4142103 34.792439
64.936798 -7.3222008 56.078793
64.553604 -7.2108307 56.375755
65.5812 -6.8662033 57.175087
65.305298 -8.4042625 53.853027
64.377197 -8.0219688 54.600937
65.697205 -7.8616505 54.905685
70.708405 -9.9885826 50.860531
59.4814 -1.085844 36.537956
75.378502 -11.304718 50.412525
75.722801 -11.261145 50.618397
82.125198 -20.748995 57.322613
56.007999 -24.224678 67.64769
52.8298 -28.031517 65.810745
53.1978 -0.25505829 40.905746
50.351799 2.2500515 35.626358
49.680199 3.2908316 33.792652
49.254398 3.1122327 33.863926
44.298401 0.10098457 38.548912
44.2757 0.33087158 38.233093
45.6968 0.084338188 39.028778
60.7645 -7.6219521 60.750355
62.324501 -7.5749969 60.835968
61.386101 -7.1208725 59.994507
66.998795 -7.7079659 55.223007
69.277496 -9.3663921 52.371719
69.033295 -9.4393806 52.030727
70.848602 -9.4649734 52.595776
55.688702 -1.350255 35.015121
54.982399 -0.46925163 33.882416
55.233398 -0.10668564 33.750381
53.4827 -0.74172497 33.474426
76.927696 -21.405363 58.080139
75.588799 -21.295219 58.540943
60.073898 -24.349789 61.9608
59.834801 -24.920326 63.18692
58.936501 -24.800076 62.409283
61.716499 -9.4808388 62.848701
61.166199 0.12928677 40.50153
52.781101 3.2309542 34.647316
53.0882 3.3906307 34.484715
48.948601 -0.86346245 32.702732
50.502701 -1.0047398 33.011055
50.9674 -1.1541834 33.247772
51.305401 -0.91053391 33.055508
48.300999 1.1454144 30.413673
48.6022 0.16162872 31.566395
64.186005 -6.6560287 59.368031
55.280701 0.2565403 33.51342
55.090099 0.67528152 33.004128
60.214298 -24.820713 63.371151
79.2537 -11.501431 52.080387
80.940804 -11.972649 52.06604
78.840797 -20.871353 58.165054
83.023499 -19.646702 57.958008
82.776398 -19.906513 57.849133
59.672901 -17.085503 62.304367
58.980701 -16.530527 62.304935
53.115898 -28.259644 66.091621
52.453999 -29.227474 67.083725
57.807999 1.627224 38.701576
57.929001 1.5008974 39.05064
49.421001 1.7017899 37.51017
46.707699 1.6995926 29.759951
76.140999 -10.916891 51.568581
76.313904 -11.062435 51.309387
78.5411 -11.578299 51.396469
82.481903 -12.46714 52.180977
80.7425 -20.354965 58.121235
80.888199 -20.131676 58.258465
60.043098 -22.217648 65.11937
59.780701 -21.968304 65.042198
57.611301 -23.55957 66.8479
53.0299 1.7961788 38.110359
64.010605 -7.5147724 60.81118
76.146896 -20.352922 59.370132
81.4897 -18.858089 58.831341
83.1987 -18.872715 58.298866
59.114899 -23.023304 66.03347
58.520302 -23.917587 66.940552
58.729401 -13.507936 62.710762
58.218399 -12.2868 62.814457
54.059299 -28.799118 66.860672
52.8643 -29.393089 67.318748
52.740799 0.56408787 40.086655
52.442402 0.72668362 39.852741
53.519402 1.1740685 39.424271
51.634899 2.2524791 29.548721
52.0326 1.2978449 30.736738
50.140099 2.1384993 29.370317
50.105099 3.0329747 28.329462
50.424702 2.9560761 28.472103
50.956501 1.8815174 29.810257
76.1203 -20.162716 59.532089
79.156601 -11.442606 52.257023
87.786201 -16.497707 54.579006
59.773602 -12.094196 62.985992
59.666199 -11.597008 63.033485
61.585499 -12.565342 63.078743
61.2169 -11.24947 63.238949
72.542603 -19.860104 60.701752
72.319305 -19.676666 60.84523
80.482597 -18.25913 59.269699
81.254204 -18.650333 58.970421
52.265499 2.4912791 29.470263
51.876598 3.472702 28.251333
63.036301 -22.748703 63.40609
65.135895 -20.016016 62.559975
72.553696 -19.374931 60.896599
74.872803 -18.941416 60.475945
72.0644 -18.513546 61.164711
79.867996 -17.777912 59.490864
64.181999 -20.613388 62.919373
66.848404 -15.299646 62.477764
66.667702 -15.724846 62.352558
68.092606 -16.201981 62.1343
56.801201 -28.655899 67.690216
55.933701 -29.867798 68.765999
55.886101 -29.599064 68.412941
73.521896 -9.3201122 54.052757
62.794498 -22.650711 63.683994
55.516602 2.9579372 34.31197
66.4478 -14.922089 62.61338
68.929298 -12.500404 63.173569
67.444504 -11.42688 63.38224
67.560699 -11.900978 63.349541
85.0271 -16.566303 56.647305
85.311897 -16.867798 56.775108
83.685799 -16.407579 57.145088
84.304497 -17.187218 57.566811
69.766403 -14.199614 62.66729
68.414398 -13.831879 62.878086
79.6063 -13.209578 55.053093
79.611198 -12.854107 54.604412
78.425797 -12.148872 54.176525
82.270103 -16.24448 57.600075
82.4692 -16.486071 57.754509
80.781998 -16.076931 58.027199
81.347504 -16.742239 58.461178
80.7957 -15.811707 57.734768
55.479801 3.4912086 33.188118
72.485901 -17.850552 61.194298
71.326004 -16.507057 61.712395
73.697495 -16.626152 61.224884
75.382599 -15.686726 60.65044
74.912804 -14.795231 60.682606
45.3484 -35.600143 74.266747
45.031502 -35.723759 74.476204
45.0728 -36.588676 75.532585
47.454601 -37.405506 76.36367
51.143101 -34.883575 73.517975
51.032299 -37.120712 76.327461
51.409302 -36.917046 76.158699
51.702702 -36.690346 75.943855
52.785301 -34.76585 73.782288
53.252201 -36.44442 76.149422
53.802101 -36.57827 76.655869
54.0271 -36.898888 77.300758
48.2113 -33.902855 77.44516
55.612598 -32.381157 76.69458
55.068802 -33.123638 77.511299
53.556702 -30.871014 68.985504
53.4389 -31.191265 69.260345
48.205502 -32.233356 69.047508
48.295101 -32.439831 69.275406
49.5662 -31.759136 68.882019
49.687099 -32.439148 69.580406
53.030499 -32.914505 71.213921
51.704498 -33.063152 71.006042
57.643299 -32.090958 72.225311
59.1731 -31.752838 72.755096
59.225201 -31.827 73.063461
59.867599 -31.214962 72.024773
51.228001 -30.068214 67.749451
51.367699 -29.653629 67.405853
49.8652 -30.525993 67.950157
50.087101 -29.547432 67.222916
49.2985 -31.543846 68.640762
48.823002 -33.190128 70.385689
50.185001 -33.175755 70.737808
44.423302 -31.276451 67.739609
44.556499 -31.521416 67.903748
46.1917 -31.542755 68.134399
51.5868 -34.939766 73.684387
45.2118 -32.458046 68.73497
46.807098 -32.443604 68.989502
46.424599 -31.737022 68.3134
45.0149 -32.249924 68.518631
47.4702 -33.210251 70.078217
46.108398 -33.213074 69.781876
44.188801 -33.71278 70.349197
45.5774 -33.764065 70.672592
39.7113 -32.955467 68.897186
39.8979 -31.287617 67.589386
41.2052 -31.004887 67.43631
42.5956 -33.687752 70.140442
41.2719 -33.708458 70.084953
38.4277 -32.41238 68.445885
42.8643 -29.082775 66.822914
57.8773 -26.618874 72.110542
57.164501 -29.554607 75.402451
56.226799 -27.523838 73.938904
56.1782 -27.786171 74.220573
52.990601 -25.513557 68.916451
53.672501 -26.231003 70.606743
52.135601 -26.25135 70.297134
48.815102 -31.511475 75.486847
53.844101 -28.457451 74.632576
53.214901 -27.776382 73.915497
52.348598 -28.452541 74.453415
50.8274 -27.779373 73.536507
52.7995 -27.603733 73.665871
53.069099 -27.330246 73.372147
50.561401 -26.270546 69.766174
50.1217 -26.518585 71.133667
44.986198 -31.596966 74.720642
43.736198 -31.688404 74.462059
38.088402 -29.763512 71.324127
38.0145 -29.568939 71.015221
48.1698 -29.904083 74.746429
49.473598 -29.622368 74.799156
48.400002 -29.102436 74.285477
42.8475 -30.411907 73.818001
39.909698 -28.289047 70.050522
43.094898 -27.63623 70.802078
45.221199 -27.833107 72.143456
46.8153 -27.610233 72.325897
39.204102 -29.718063 71.899567
39.274498 -29.433678 71.619034
44.8531 -29.238586 73.599854
46.5093 -29.098999 73.894783
48.938202 -27.986248 73.384323
48.264099 -27.573914 72.699692
47.292801 -28.146141 73.1875
48.279202 -28.649845 73.902756
43.0797 -28.613365 72.414017
43.645901 -28.179882 72.064346
14.06083 -15.446198 50.001984
13.49819 -15.905766 51.557892
13.41716 -14.677509 50.221947
14.023701 -17.638218 52.552227
16.698629 -14.260387 48.107479
13.444139 -15.908346 51.773731
13.59993 -18.389328 54.270916
13.86118 -18.490158 53.806179
13.53045 -18.281193 54.396641
13.43906 -17.075788 53.329365
17.01944 -18.662514 51.857216
15.384291 -19.937668 54.025169
13.33371 -17.207973 54.293056
19.949139 -16.847773 49.801716
20.1768 -16.652151 49.619015
18.461029 -16.541124 49.558529
18.515781 -17.790787 50.797798
18.85585 -17.540331 50.520256
18.16321 -16.720806 49.7439
14.14776 -20.880051 56.440628
17.10107 -19.341301 52.641876
16.43124 -20.36092 54.15641
18.39143 -20.175835 53.633686
15.69124 -21.352459 55.963425
15.99815 -21.585506 56.227375
13.39353 -14.754822 53.712616
13.31892 -17.7202 55.974869
13.33857 -17.501289 56.203861
26.389 -17.555044 50.729568
24.5345 -17.33271 50.428429
19.203671 -21.79649 56.475639
18.62533 -21.846745 56.564014
18.107651 -21.993137 56.918697
18.076111 -22.113167 57.307377
17.07324 -11.088093 49.879063
28.5506 -17.391119 50.734879
21.565899 -20.179317 53.601524
16.83614 -22.504608 58.405861
18.02594 -22.18671 57.625801
21.615299 -20.639349 54.231907
17.08112 -11.23262 50.349274
18.36591 -11.77997 51.087826
22.8864 -20.728851 54.459656
23.5145 -20.554859 54.24432
18.437359 -11.936008 51.558563
27.2293 -19.32762 52.672421
28.973801 -19.405565 52.735985
31.5861 -17.875214 50.957096
33.250702 -17.995106 50.934559
24.2136 -20.399239 54.050892
14.82362 -9.8465977 59.269268
17.92885 -12.323753 53.941402
33.357498 -17.820288 50.837532
31.2528 -16.533714 50.600201
24.3776 -20.912064 55.809883
22.735901 -21.168303 56.423676
29.1924 -19.613039 53.010174
27.6096 -20.117022 53.865013
27.5492 -19.934513 53.510746
31.0044 -19.266148 52.429893
35.211998 -18.184576 50.914211
37.644798 -18.555534 50.957355
37.1385 -18.705854 51.143608
34.1217 -18.584921 51.349384
24.8976 -13.233467 53.305859
26.3004 -13.330776 52.926964
15.251471 -9.5574951 58.883041
15.551889 -9.4022102 58.896641
15.93051 -9.4323959 58.732548
16.25219 -10.361549 57.626545
32.136398 -15.495296 50.650955
33.8433 -18.749182 51.552395
22.661499 -21.103848 56.707249
16.22427 -22.470013 61.445023
30.8549 -14.673624 50.723614
32.127998 -15.15522 50.671967
15.170321 -20.236847 60.971489
23.2764 -13.129557 53.525681
17.985849 -12.076656 55.277786
19.665249 -12.426249 54.92231
19.785671 -12.564373 54.639183
40.6073 -17.739227 50.241879
41.0989 -17.879852 50.225178
41.3908 -18.035227 50.234875
34.544998 -19.781666 52.690491
34.097198 -19.611092 52.515884
30.9044 -19.609432 52.884621
31.3857 -19.487865 52.664711
30.173 -20.165703 54.272179
17.4771 -22.103436 61.057751
18.62528 -21.697567 60.593533
17.17881 -8.244997 59.984749
17.283081 -9.1368065 59.02248
34.927399 -15.856073 50.574978
33.557098 -15.568127 50.630829
37.9128 -17.258337 50.417858
40.3139 -17.479889 50.225819
35.579498 -20.047562 52.940197
35.1348 -19.891146 52.768459
41.6203 -18.815372 50.714127
45.3717 -18.849958 50.280693
46.213902 -18.943621 50.262413
16.31962 -12.062855 59.990273
16.30312 -10.688513 60.817127
15.97546 -10.486504 60.913666
15.99316 -8.2055321 60.073997
16.17314 -7.2138786 61.1455
32.742302 -20.161873 53.835606
40.7453 -19.182789 51.208656
40.539398 -19.390055 51.461739
49.098099 -19.186287 50.139858
45.983501 -19.200565 50.549259
23.1521 -12.646788 55.030186
15.80172 -10.190851 61.057438
16.65727 -10.415245 60.984158
21.120701 -11.959742 55.982124
20.9991 -11.765022 56.25412
36.3545 -16.161472 50.493378
37.9002 -16.479734 50.381927
46.661098 -17.862768 49.585377
46.344101 -17.636137 49.576725
41.7299 -20.210705 52.27853
42.220699 -20.070265 52.037514
42.7075 -19.932234 51.804142
40.052002 -19.556492 51.707703
23.3116 -12.523651 55.297729
15.81517 -9.2483025 61.64156
22.3015 -12.138126 55.855412
40.8797 -16.297415 50.077763
42.353699 -20.56319 52.651123
40.7533 -20.553818 52.874512
37.683998 -20.282299 52.946873
38.0807 -20.229599 52.807682
37.236702 -20.301548 53.059566
36.938202 -20.345779 53.203766
36.654198 -20.446178 53.741814
35.0191 -20.333332 54.07761
54.480202 -19.361607 49.657646
54.858002 -19.2558 49.50676
51.2911 -19.323195 50.006966
50.506401 -19.226364 50.004929
52.706402 -19.135206 49.645809
19.806641 -21.08831 60.00404
24.5389 -12.727379 55.016865
43.3195 -16.593697 49.820141
43.32 -16.889771 49.846367
38.431198 -14.728014 50.199543
37.179298 -15.157354 50.397217
36.923698 -14.442049 50.329319
50.499599 -18.001665 49.155659
52.581001 -18.604521 49.218437
51.667301 -18.670242 49.375683
56.170898 -18.624659 48.81279
56.966499 -18.702303 48.77858
55.039101 -18.846495 49.116306
53.515202 -18.832443 49.284615
59.2253 -19.068453 48.827454
58.6171 -18.972326 48.810471
57.531898 -19.27043 49.208988
55.026199 -19.008917 49.256374
55.811199 -18.932709 49.098267
50.483299 -19.393955 50.182037
55.423401 -19.491224 49.678253
53.533401 -19.686741 50.117161
52.097698 -19.641926 50.247581
29.378 -19.815022 56.806644
32.224098 -12.940586 52.902832
42.9977 -16.359207 49.837803
49.283199 -16.805487 49.109039
48.6119 -17.235321 49.245995
46.057598 -20.313894 51.819511
45.3979 -20.362896 51.970284
48.751499 -20.616642 51.827858
48.7948 -20.724092 51.956879
55.961899 -18.338205 48.658531
55.214199 -18.411829 48.783688
58.7817 -18.32893 48.338264
58.595798 -18.554451 48.488823
56.997799 -18.555122 48.66906
58.419498 -19.883512 49.73653
54.173698 -19.859941 50.231476
57.083801 -19.526869 49.518585
26.8277 -20.041416 56.967834
24.565399 -12.567692 55.371212
33.380302 -12.751947 52.876534
33.5774 -12.660461 53.252888
36.6777 -12.273773 51.404114
35.0051 -12.627159 51.380028
20.483299 -16.861063 58.163448
20.6028 -13.023045 59.175304
19.2416 -13.118822 59.23671
55.114899 -18.268637 48.721474
24.4228 -12.024206 56.347069
36.971298 -12.229321 51.145348
22.113899 -9.5111847 59.108967
23.144199 -10.22595 58.484406
44.245098 -21.059931 53.138573
47.758598 -21.294678 52.9053
47.950699 -21.425095 53.111908
55.591599 -17.175634 48.40696
54.8465 -17.394711 48.530033
58.454601 -17.164627 48.081356
59.172298 -17.388847 48.038765
57.8591 -17.756407 48.257599
60.805401 -18.345646 48.129993
62.7925 -18.467533 48.006046
61.5485 -19.662676 49.149292
62.109798 -19.796051 49.223267
62.446701 -20.001825 49.399536
33.5103 -12.61706 53.627277
33.198502 -12.641354 53.870453
38.4604 -11.854616 51.780376
23.3633 -12.926035 58.957638
21.992901 -12.94298 59.094196
45.552101 -15.453945 49.402306
45.906101 -15.286003 49.321438
51.034801 -20.959528 51.950302
50.771801 -21.039219 52.09008
51.299599 -20.874794 51.806538
54.8349 -20.323454 50.680222
61.709301 -17.694105 47.824528
61.751499 -19.28466 48.759476
60.2561 -19.0534 48.702232
39.7715 -11.534821 50.188766
39.0266 -11.745415 51.558445
41.593002 -11.141485 51.879181
42.066502 -11.047609 51.607841
21.554699 -10.88715 60.318619
20.1378 -11.296808 60.220947
19.302521 -10.719727 60.64695
47.502499 -15.76585 49.19672
45.651798 -21.301714 53.620243
40.291298 -20.656338 55.028961
38.623299 -20.500252 54.909424
64.879501 -18.74361 48.003227
66.377106 -19.015738 48.10059
63.613499 -20.307745 49.610176
63.976601 -20.502171 49.791664
35.6245 -20.196774 55.434296
35.731499 -20.143167 55.819202
40.210602 -11.391741 50.005058
40.8405 -11.241573 50.088249
40.451302 -11.262753 49.62233
41.9044 -11.033195 52.265068
45.946098 -14.730362 49.168388
48.366402 -14.801416 48.841553
48.9464 -14.961607 48.811436
47.518799 -15.180182 49.076698
56.700901 -21.571999 51.970032
54.953602 -21.428816 52.022297
58.490398 -21.978439 52.267986
57.686199 -21.998405 52.413231
54.073299 -21.6383 52.436947
53.210999 -21.472042 52.329212
62.882301 -17.358551 47.641762
63.2048 -17.616291 47.658375
38.8871 -20.434719 55.820107
40.413498 -20.649338 55.261322
27.880301 -17.718428 57.739967
36.826698 -11.96381 56.034576
42.623699 -10.923101 51.497574
41.807301 -13.66387 49.274818
44.0229 -14.600292 49.400631
41.810799 -14.292767 49.606457
24.578701 -15.238564 57.924324
22.422001 -11.72628 59.719063
23.401699 -12.519144 59.156776
47.980701 -15.371847 49.05751
63.1922 -21.412062 50.940205
61.1954 -21.18956 50.905376
61.366501 -16.523867 47.694923
63.5854 -17.850304 47.679104
64.482101 -17.47821 47.507412
67.3647 -18.474976 47.610397
65.273895 -18.553431 47.836853
64.812302 -18.397604 47.786411
43.808601 -10.654488 51.661751
44.1945 -10.557816 51.894554
43.348999 -13.38484 48.82296
25.508999 -13.799015 58.325768
55.342499 -14.864651 47.944675
57.005699 -14.686975 47.72525
53.414001 -22.117142 53.432465
53.503399 -22.075447 53.300491
49.422199 -21.694124 53.449188
47.9622 -21.513643 53.35247
62.8689 -16.213217 47.544907
69.489304 -18.871248 47.831905
67.909599 -19.079832 48.068214
36.5238 -12.1614 56.219025
40.7649 -12.307243 48.314461
41.288498 -11.501112 47.342285
41.5858 -11.759287 47.562828
49.130402 -14.529888 48.617462
48.649799 -14.630436 48.733212
49.4683 -14.366623 48.492851
61.037102 -15.050194 47.557541
62.541 -15.102352 47.500458
64.7192 -21.635235 51.055531
68.317398 -19.979435 48.97958
66.5746 -20.09149 49.165955
41.2682 -20.692547 56.044598
39.152298 -20.442677 56.098919
36.6656 -20.096798 57.285835
38.736 -11.386726 56.104473
40.730202 -10.838707 56.290836
41.4869 -13.078888 48.895622
40.272598 -10.877831 54.950378
51.026299 -14.448347 48.3158
59.4827 -14.893864 47.608826
53.665298 -14.189989 47.854038
42.9575 -12.450634 48.048717
42.2314 -10.545971 54.317013
40.7281 -10.864771 54.436829
47.4627 -13.659824 48.373043
64.593002 -22.495247 52.18679
64.595299 -22.914707 52.825233
56.337299 -22.483318 53.622696
59.713001 -22.872871 53.767334
59.998402 -22.935066 53.946331
46.199402 -21.353939 54.973335
70.840302 -18.361473 47.450039
71.002502 -18.612309 47.624531
43.956402 -21.013525 56.403164
38.637802 -20.67631 58.480145
39.137802 -11.732904 56.897095
42.8885 -10.172344 55.864002
42.8507 -10.179081 56.049854
43.057899 -12.728439 48.305664
44.1637 -10.195255 53.925961
44.346199 -10.068886 54.312401
46.238602 -9.6115685 54.484268
48.400299 -9.6573448 51.436237
44.8638 -12.853802 48.125019
44.712799 -12.625183 47.931107
53.166 -13.729479 47.648838
53.448101 -13.995314 47.773796
64.944199 -22.750446 52.526405
31.1362 -15.472813 57.83572
36.117302 -13.192148 57.466404
45.8941 -9.8593349 49.654053
44.740799 -9.9302711 49.007618
43.923599 -10.385664 49.77282
46.956501 -9.8367004 50.511509
47.2962 -9.7264481 50.338886
42.4478 -11.182652 46.730053
43.379299 -10.672104 45.952778
43.3778 -10.116524 55.186081
49.673698 -9.426403 51.56488
44.585602 -12.395359 47.721359
49.261398 -13.479639 47.981846
49.4431 -13.707975 48.118286
49.457298 -13.872135 48.224659
65.808304 -23.113235 53.025337
53.029701 -22.194515 54.487186
54.064999 -22.300056 55.158245
51.092499 -21.95377 54.910072
50.726299 -21.91622 54.698254
54.434601 -22.336105 55.410748
52.237301 -22.069744 55.668972
70.813705 -16.313211 47.291431
69.725494 -22.847675 52.419628
68.337502 -22.90554 52.521847
38.2948 -20.947594 59.779835
42.4231 -20.984295 57.677361
44.500198 -21.292307 57.651012
44.620201 -21.388466 57.847591
34.986 -15.256584 58.499638
33.507401 -15.279278 58.1656
45.032398 -9.7461605 48.739151
46.8885 -9.2658596 48.754333
47.453499 -9.6003017 49.997505
49.178699 -9.238369 50.006447
48.251301 -9.607399 52.621292
49.722 -9.3210602 52.713787
48.3452 -12.491241 47.256336
48.467899 -11.756239 46.467281
47.252201 -11.859213 46.738167
52.893398 -13.473701 47.515049
60.446499 -13.004292 46.912384
60.788799 -12.739285 46.816757
55.3232 -12.785187 46.810085
56.681301 -12.78363 46.765965
69.556198 -23.368568 53.200752
68.167404 -23.089432 52.803028
39.592598 -20.125103 60.06675
39.088898 -19.209696 59.657001
40.017502 -21.550772 59.465084
35.258598 -16.205482 58.646965
37.9674 -16.26527 59.260075
37.424698 -16.005665 59.136288
43.4879 -10.373156 57.097118
44.0313 -10.335199 57.333
41.3041 -10.940681 56.837082
41.115601 -11.10577 56.997108
46.351299 -8.2666836 46.654926
44.819 -8.6089172 46.456783
48.487499 -9.0467186 49.122929
45.5299 -11.586529 46.683834
46.9562 -11.583147 46.472187
43.139702 -8.6356106 43.426727
45.863701 -10.650023 45.537781
45.646702 -10.337404 45.192692
52.196701 -8.9984207 51.151592
52.046902 -9.0496788 51.451641
59.144299 -12.616886 46.665424
64.093498 -23.338047 54.683853
63.910301 -23.316399 55.037636
65.772095 -23.341484 53.560017
65.980103 -23.271564 53.323792
59.222599 -22.86327 55.560146
56.797798 -22.608273 55.383274
56.423199 -22.574406 55.136127
57.9865 -22.759754 54.858147
40.996002 -19.970425 60.367287
51.194698 -21.977432 56.665833
48.598499 -21.631311 56.489449
48.341999 -21.586483 56.21925
47.7383 -21.602718 57.125935
45.434502 -21.273378 57.087418
44.992599 -21.49968 57.973709
42.8116 -21.616341 58.827332
37.82 -15.692043 59.225044
36.442101 -15.34721 58.869781
43.459301 -10.783672 57.739281
46.114799 -9.4879608 56.887718
53.078999 -8.9475784 52.178143
53.7822 -12.764481 46.891167
52.159401 -12.783472 47.059292
65.542999 -23.460335 54.543381
68.394302 -23.642822 54.101498
66.3685 -13.961445 47.487877
70.223701 -14.926134 47.547935
69.0196 -14.300255 47.606815
75.839104 -16.226849 47.632683
74.181503 -15.90889 47.574825
42.344002 -19.294609 60.476036
41.971298 -19.107906 60.322144
42.2141 -18.591578 60.254112
41.430702 -17.99893 59.997272
46.9576 -21.770857 57.95425
36.8652 -15.087231 58.940941
39.0541 -14.796961 59.471046
39.369801 -14.510502 59.500851
43.283798 -10.942629 57.881737
45.915798 -9.5996971 57.027107
48.919899 -8.8257065 48.852535
50.578602 -8.578022 49.065456
49.971699 -8.1496143 48.029064
48.6768 -8.685894 48.466091
51.056801 -8.9706573 53.395775
52.226101 -11.40276 45.721123
52.624599 -11.20429 45.488472
51.9501 -10.404625 44.658508
59.487099 -22.8783 55.917877
77.252098 -16.810341 47.64278
73.283699 -22.331318 52.001385
74.502998 -22.568359 52.523724
52.586399 -22.110764 55.935192
55.407398 -22.446075 56.24152
48.875801 -22.101051 58.144646
44.024799 -21.92837 59.049423
47.1231 -22.112232 58.623619
42.296799 -14.921715 60.307823
41.895302 -15.185217 60.212692
40.935898 -14.727585 59.959
39.782101 -15.591402 59.698769
40.376602 -13.828308 59.563255
40.5429 -13.992355 59.680813
47.509102 -9.3830738 57.517868
47.694401 -9.4837837 57.84169
40.3027 -13.203167 59.110718
42.401199 -12.844677 59.583313
49.8419 -7.9384422 47.621826
48.244598 -7.9837494 47.051201
46.990299 -10.183489 44.823307
48.310699 -10.029217 44.488686
48.664101 -10.412996 44.910477
48.103401 -11.203613 45.889927
46.625301 -9.8339081 44.441353
46.942299 -8.4766445 42.675179
47.257301 -8.8562431 43.13821
48.5578 -11.445807 46.111744
59.320599 -22.854679 56.226585
68.976395 -13.870029 47.696037
48.8316 -22.533478 59.008755
42.051899 -13.563997 59.962181
41.902298 -13.450657 59.847641
42.262798 -13.636444 60.068745
47.788399 -9.6423473 58.189034
49.173698 -9.0377045 57.763412
48.983601 -8.979435 57.468857
42.499199 -12.252895 59.079674
45.382702 -6.9196014 44.190823
49.6805 -7.1853123 46.392136
48.234901 -7.6883507 46.582138
48.4422 -6.7920799 45.35664
47.757301 -7.5567112 46.188583
48.108002 -6.5725555 44.916206
46.713402 -6.8526974 44.716251
53.0215 -8.4705524 54.900467
55.653599 -8.7739258 51.91161
55.709301 -8.737011 51.523022
79.035698 -16.229305 48.021851
44.5588 -20.497524 61.611061
47.558998 -18.50972 61.509415
45.946701 -18.275364 61.083256
46.048901 -18.596815 61.181652
45.9622 -17.972094 61.041534
43.3311 -17.399487 60.412025
51.656601 -22.100559 57.080894
51.310299 -22.026707 56.917286
52.557701 -22.672363 58.536751
47.060699 -22.573532 59.407356
48.501499 -9.7951622 58.80006
52.588799 -7.7565346 48.269863
51.307598 -7.8227577 47.96888
55.979698 -8.6759758 51.259239
54.849201 -8.1615639 49.554848
54.994099 -7.9569016 49.172169
59.735901 -9.8516731 44.87851
64.1409 -23.279442 55.661823
64.8713 -23.160805 56.691864
63.2383 -23.117813 56.653793
62.9636 -23.130615 56.381054
78.907501 -15.258741 48.414604
79.651199 -17.76515 48.487068
44.952 -17.207836 60.785225
53.203602 -22.299973 57.176865
53.191502 -22.368988 57.478725
43.4114 -14.178864 60.539528
50.940399 -9.926424 44.168827
51.190601 -9.500885 43.666027
49.6367 -9.9672203 44.300381
50.295601 -8.7357311 42.795097
55.914299 -8.7656097 52.193241
56.107899 -8.7476845 52.517403
71.8451 -23.607105 55.181931
71.563904 -23.514698 55.498623
57.5107 -22.690151 56.707573
56.429798 -22.698555 57.51627
76.1054 -15.112982 48.066574
73.571999 -13.396751 48.442623
72.056396 -13.007145 48.361855
80.402496 -18.906387 49.793812
47.538399 -21.078249 62.872238
46.106998 -21.027683 62.426311
49.152401 -18.763157 61.934975
47.6922 -17.605242 61.397137
43.3433 -16.365492 60.473816
44.211201 -13.693653 60.650467
52.379398 -6.3489838 46.071243
52.861 -6.9604683 47.083904
57.4524 -8.5064926 53.711636
55.837799 -8.5779457 53.630791
57.724998 -8.1750603 49.834625
56.348 -8.0823994 49.581848
59.935699 -22.966499 57.704987
49.612099 -19.645103 62.432198
49.060799 -16.991167 61.644016
48.153301 -16.224552 61.488503
50.357899 -23.023331 59.532127
49.993 -23.159828 59.781147
49.858898 -23.437279 60.190208
49.316399 -23.133339 59.841099
48.264099 -23.822895 60.909397
48.366901 -23.561249 60.560047
43.451199 -25.226467 63.234585
43.657902 -26.30117 64.390129
43.2416 -26.527504 64.712196
47.799301 -12.516584 61.097446
46.114601 -13.830418 61.130196
45.8923 -14.072552 61.109646
51.097401 -10.802139 61.041218
47.537201 -12.322447 60.91011
47.126598 -12.236362 60.730663
54.6381 -6.9419022 47.418659
53.429298 -6.708046 46.839081
49.827499 -7.9112492 41.792107
49.566101 -7.1418457 40.791595
49.885601 -5.7460823 38.654751
49.919601 -5.5287552 38.243805
48.625599 -5.4260101 37.677181
54.325401 -8.2774563 55.325146
54.519501 -8.3421059 54.948853
55.5508 -8.0408039 55.8955
55.830299 -8.2947159 54.759521
68.599098 -22.993961 57.087723
80.439598 -14.470566 49.143322
82.142601 -14.804424 49.341351
47.460999 -22.243191 63.814209
47.667801 -21.379492 63.139149
46.025299 -21.954496 63.111595
46.035301 -22.289223 63.399361
46.655998 -24.271736 61.667961
44.627102 -15.667107 60.814674
49.043499 -10.109339 59.493561
43.773102 -5.8915062 38.161728
42.398399 -5.8483257 38.095222
59.144798 -7.6653175 56.03421
58.650398 -7.8115349 55.727589
56.931801 -7.8790016 56.008682
58.9716 -8.7375374 52.689354
60.2188 -8.7094727 51.301495
61.6315 -8.78442 51.261066
53.517601 -6.1596127 39.815109
54.525799 -6.641531 40.553879
55.971699 -8.7374725 43.015167
59.605701 -22.997696 58.008816
84.464699 -17.214828 50.084938
82.876198 -17.374048 49.46468
78.700104 -14.261723 48.900311
83.044098 -18.349854 50.343307
81.800499 -18.615446 50.061703
82.502899 -17.667898 49.523056
79.333199 -22.300896 53.555279
52.414398 -19.997028 63.209423
48.325901 -23.228863 65.028267
42.999298 -27.98526 66.15699
53.047199 -18.695917 62.578568
50.0466 -15.740574 61.807667
48.400002 -15.923275 61.54406
44.8512 -15.909348 60.843254
50.449001 -24.728661 61.803581
48.991299 -25.02903 62.301498
38.1945 -4.8531446 35.665195
39.1493 -5.1353693 35.947151
43.409199 -5.5805035 36.836624
42.2645 -5.5344219 36.610683
57.459 -7.0642319 47.763111
56.523399 -6.5925999 47.044693
55.590302 -6.0434608 46.204502
55.031799 -6.0949821 46.222496
45.825699 -5.5645676 37.244881
48.645302 -5.2629204 37.316017
52.377399 -5.0082569 37.949005
71.640999 -11.522518 49.04446
78.571297 -13.971992 49.042778
76.878098 -13.384279 49.047436
83.957397 -15.122133 49.692738
73.1437 -11.922873 49.16346
80.381599 -22.091393 53.707581
48.6339 -22.105656 64.044228
49.473099 -22.913395 65.067528
50.532398 -22.183323 64.639595
50.1623 -21.892969 64.269302
53.7897 -19.538525 63.107624
53.601002 -19.885002 63.314255
53.493801 -20.292641 63.590187
46.093899 -26.41124 67.641693
44.884399 -26.756596 67.517052
53.3246 -17.846024 62.304821
51.982601 -17.749451 62.148663
55.852501 -23.568764 59.876236
55.8298 -23.372292 59.524803
50.960899 -25.05093 62.170467
50.149799 -26.042759 63.439404
49.2407 -12.130667 61.292953
40.3209 -5.0448017 35.677998
45.940899 -5.423975 36.927105
44.752701 -5.4308643 36.689484
61.773102 -7.0270157 57.193275
62.0602 -7.1106262 56.92234
60.653801 -7.5035896 56.142502
60.625702 -8.7856064 52.702145
62.442001 -8.8473701 52.640404
62.711102 -8.8849812 52.401154
61.354401 -8.2807846 49.473995
52.590698 -4.8116417 37.685547
48.344799 -5.1678247 37.017895
71.999001 -11.428801 49.224266
82.572701 -20.434965 52.491371
80.444801 -22.454388 55.623493
50.436298 -21.517712 64.000526
49.154202 -21.225912 63.426102
52.336399 -16.57132 62.060143
57.193699 -23.214939 59.108833
57.1455 -23.06715 58.720337
55.280602 -24.427254 61.245445
48.8643 -26.792572 64.399048
37.744102 -2.2790585 38.111519
42.7206 -5.0159702 35.693573
41.417702 -5.1632843 35.850624
62.700699 -8.7811737 52.893192
59.350899 -7.2498302 47.795746
60.452599 -7.7607155 48.483318
56.9417 -7.1087971 41.668499
61.292801 -7.4567223 45.225159
60.5905 -6.9126244 44.491302
75.084396 -22.55616 56.976913
73.823395 -22.544582 57.251625
80.9338 -13.368053 50.033844
79.809799 -22.160366 56.354115
51.576599 -15.641769 61.995926
53.030102 -15.605898 62.126015
56.972 -23.528198 59.786263
52.705799 -12.423628 62.096672
50.942299 -12.964939 61.883179
54.978699 -5.2457209 45.059639
38.7589 -2.3128128 38.647522
40.9398 -2.1329651 39.425941
42.315701 -1.8989468 39.747494
57.723701 -7.2293549 58.609295
59.135601 -7.0152111 58.747997
63.0924 -8.1584549 54.35117
61.863201 -8.2513466 54.204559
84.693001 -13.822309 50.963043
81.332497 -13.108284 50.399849
81.478798 -12.979374 50.585041
83.166496 -13.339043 50.817017
81.162804 -21.971832 56.16468
55.563099 -18.813278 62.854866
56.847198 -18.892094 62.958439
55.035801 -16.65991 62.2183
55.202999 -16.291838 62.225204
49.919899 -27.080051 64.684036
49.233299 -27.111355 64.740273
48.4683 -27.877472 65.611038
44.888199 -1.7085361 40.375908
45.083199 -1.4011116 40.22345
56.058201 -3.6811562 37.31189
57.1115 -3.4242954 37.500793
57.141499 -3.6553373 37.850235
80.961304 -13.148981 50.241425
83.850197 -20.010735 52.633129
56.311401 -19.953773 63.627548
57.587299 -20.110285 63.793846
55.5019 -16.063545 62.248108
55.748901 -15.732662 62.278645
46.233601 -28.253441 66.080505
47.509102 -28.270435 66.040131
47.278099 -29.413422 66.98082
48.6618 -29.45295 67.061218
46.502399 -0.98178864 40.268532
47.989498 -0.63958359 40.336761
42.534 -1.6448078 39.6464
43.3703 -0.81212997 39.235897
41.9538 -0.94646454 38.854134
41.9841 -3.5057697 34.149719
67.035202 -9.1259308 52.455879
67.377197 -9.0163918 52.779762
64.826599 -8.9549294 52.563858
64.463699 -8.8171654 52.897198
64.479797 -9.0330582 51.979137
64.437195 -8.9960022 52.26152
57.134998 -5.5858259 45.5541
57.243301 -2.3880081 36.467056
55.940102 -2.7094641 36.224998
72.714005 -21.77042 58.656143
83.2836 -13.202505 51.042938
55.243698 -16.935558 62.243908
52.792198 -1.9899082 41.75264
41.694199 -0.72872257 38.540653
42.921799 -0.18812847 38.406834
43.762001 1.4618454 33.08062
59.115002 -7.258213 59.736584
60.987301 -7.0481606 59.757103
60.7201 -6.8254318 58.720959
63.261002 -6.7787228 57.637894
65.224701 -6.7808743 57.419392
63.539398 -6.8740807 57.330868
76.449898 -22.228767 57.145634
71.208099 -21.762726 59.091812
69.890099 -21.932697 59.271496
59.576401 -19.063808 63.035358
58.1651 -18.956776 63.014214
56.7229 -17.142391 62.297493
55.569801 -24.603493 61.5243
52.981098 -26.5397 64.021194
53.2561 -27.357277 65.041061
56.2169 -0.29656219 41.133961
43.0989 0.98258781 36.172653
42.7621 -0.032857895 38.154114
48.4753 -0.83275604 32.646908
64.711197 -7.4978905 55.693264
67.368805 -9.2453079 52.096581
67.788803 -9.3310852 51.844723
59.491199 -2.8054247 38.031834
73.975403 -21.311739 58.927711
72.608101 -21.529766 59.013023
71.458099 -21.527355 59.363327
79.721397 -12.128359 50.981388
57.194801 -15.575848 62.345345
58.657501 -15.431795 62.413872
58.8727 -15.100353 62.472679
58.080101 -17.613876 62.40667
54.558899 -26.537968 64.112198
53.763401 -27.302475 65.010941
50.136101 -29.243088 66.958221
57.416599 0.059019089 40.924263
49.576199 -0.50996399 40.572151
43.476299 1.4406967 32.805447
69.1549 -9.5437412 51.675159
52.5602 -3.4642878 35.860146
59.7649 -1.641161 36.990219
80.809196 -12.147421 51.477634
80.5467 -12.158335 51.310783
82.519897 -12.624531 51.547108
60.980499 -19.402731 63.097942
58.119099 -22.678185 65.971123
56.197601 0.043949127 40.898041
56.0145 0.3172245 40.681419
48.237701 1.6984653 36.819038
51.9967 2.4033537 35.708908
50.2617 1.2568703 30.416862
62.566299 -7.760479 61.102757
67.922897 -8.532608 53.777447
54.062599 2.0441947 30.82478
53.9375 1.8393297 30.938761
53.842602 1.6896582 31.033916
57.790001 -25.38015 63.036972
51.0453 0.23563862 40.16103
49.604 -0.23168087 40.336494
51.239399 3.5227838 33.954781
45.1213 1.093338 37.228588
46.580399 1.3647652 37.239906
46.319099 1.6456413 29.837517
45.913101 0.74325943 30.924089
45.463402 0.69043922 31.019444
68.209 -6.8069649 57.614456
54.1744 0.46728897 32.512913
54.514999 -0.45759678 33.626289
74.053497 -21.036314 59.224483
78.744102 -11.723465 51.209785
61.093201 -19.086643 62.92038
59.480301 -18.013119 62.51812
59.503799 -17.691639 62.41518
59.831001 -17.426151 62.343185
55.960098 -27.096867 65.080597
60.135101 -10.007431 62.979523
61.5187 -9.724184 62.989666
61.296299 -10.526054 63.234642
61.2817 -10.910557 63.258205
62.047199 0.57673073 39.632408
51.1381 0.49143791 39.906898
48.071602 3.9600778 32.298981
47.664001 3.0339394 33.26223
72.346802 -9.6618652 52.696472
73.819199 -10.074537 52.415859
73.656502 -10.168137 52.084335
74.675797 -20.496584 59.610012
74.480003 -20.804228 59.357216
61.881699 -15.543114 62.459881
60.384602 -15.454411 62.456383
56.348999 1.4922504 39.119751
56.626202 1.7683792 38.371872
52.9678 1.8760777 37.788784
51.829899 1.8970242 37.468388
52.074799 5.0493708 32.262413
50.587299 1.7781744 37.661987
53.6367 2.6690078 29.905279
75.730797 -10.75226 51.749798
75.4692 -10.578613 52.058422
84.668404 -18.789846 57.778614
63.662399 -20.023129 62.898109
62.9562 -18.278992 62.394238
63.341801 -15.523895 62.466999
64.920799 -15.412609 62.487148
65.168198 -15.04995 62.591206
60.116001 -13.480953 62.81395
61.661701 -13.05743 62.996227
55.4716 -27.682083 65.755028
52.7384 -29.792702 67.722816
62.521801 -10.699505 63.366371
54.891102 2.8280239 35.200943
50.356701 1.2119198 38.841969
49.056999 1.126895 38.648178
64.286102 -9.5707989 62.957932
63.857201 -7.7223606 61.071953
63.609798 -8.4449711 61.933277
65.015999 -8.283577 61.699402
65.180801 -8.0199127 61.381905
75.891296 -10.496035 53.033928
72.243805 -9.504652 52.988434
73.282898 -9.3754482 53.761818
68.209999 -20.662329 61.661011
79.706596 -19.504238 59.043026
79.664703 -19.705212 58.924
63.2687 -18.050777 62.303501
64.931099 -18.075953 62.160973
63.5098 -16.833721 62.211998
62.966099 -9.795639 63.102673
53.255299 1.3166475 39.161163
51.716702 1.266489 39.008118
53.862999 3.8793802 33.868641
53.177399 3.6673651 34.128311
77.878098 -19.83172 59.321728
78.156303 -19.624683 59.38763
68.289902 -20.405949 61.719757
81.644096 -12.468746 53.179832
79.555496 -18.96143 59.339504
75.948196 -19.505568 60.016922
68.175095 -20.070869 61.806419
68.423302 -19.703852 61.792336
79.403801 -18.750063 59.441666
79.166603 -18.52496 59.562542
78.886299 -18.359497 59.67292
65.373001 -20.338795 62.555565
63.4076 -13.134794 63.083916
63.586899 -12.767868 63.181633
66.354996 -8.072773 61.331802
66.567795 -8.3387661 61.621113
68.135399 -19.358105 61.86536
66.783401 -20.458036 62.155655
80.901604 -13.070015 54.385513
86.555603 -18.111944 56.739311
67.038101 -13.256643 63.10125
66.868401 -13.676426 62.990902
53.772301 6.6611948 26.435543
72.263397 -18.182714 61.177578
82.648003 -13.693359 54.481361
81.219101 -13.396 54.687668
84.5121 -17.407665 57.634041
68.275803 -19.032509 61.82893
66.633102 -17.882813 62.000343
66.832596 -17.526613 61.985928
67.111694 -17.252628 61.981903
80.947403 -13.659674 55.130089
71.049896 -17.814487 61.440994
69.668304 -17.787254 61.644386
70.313797 -16.471657 61.856583
80.471901 -13.669573 55.315506
81.578003 -16.953913 58.551174
76.878403 -17.730339 60.259327
75.307602 -17.732029 60.628651
78.136398 -17.087282 59.897141
76.547997 -16.894676 60.376232
78.325401 -16.422943 59.457783
79.954803 -16.699028 58.992451
79.991096 -13.551617 55.338902
71.275902 -13.427349 62.654236
70.1577 -12.980495 62.950745
78.078598 -16.147766 59.304237
78.058701 -15.870022 58.986149
77.498398 -15.869537 59.306515
76.983597 -15.774372 59.572388
43.585098 -35.634586 74.789909
46.287201 -37.034 75.951302
46.180302 -37.917633 76.997726
47.815601 -34.553654 72.581039
47.512199 -34.714676 72.825546
49.401001 -37.305672 76.314552
48.8657 -38.30862 77.473129
48.521702 -38.272675 77.410736
49.7645 -37.385754 76.44735
49.765999 -38.365524 77.626541
49.4118 -36.370625 75.180069
49.604198 -35.192848 73.693817
49.747898 -36.173717 74.965164
43.0317 -35.955685 76.448044
50.0877 -36.392624 75.274399
43.2575 -34.579014 75.264305
44.184601 -34.009716 75.395416
52.067402 -36.626808 75.956703
52.5359 -35.632191 74.82782
45.323601 -36.797146 79.329361
45.472801 -37.792042 80.621307
45.705601 -33.929298 76.202286
54.07 -34.344475 73.709381
53.693699 -35.347485 74.895714
46.029701 -33.689457 76.120003
54.627201 -34.717384 74.554642
47.8321 -33.896576 77.26088
55.7267 -34.135685 74.752541
50.5802 -32.711456 77.030968
55.191898 -35.595146 76.773552
51.779099 -36.174187 81.340637
51.960701 -38.251366 83.758408
52.726299 -36.181335 81.397697
52.930199 -35.104439 80.165024
52.787201 -36.346924 81.574654
54.117298 -32.640442 77.368088
53.5159 -31.800743 69.893784
53.6269 -31.46748 69.582977
52.066799 -31.527618 69.225098
52.021999 -31.82169 69.497902
52.226299 -32.065922 69.810684
52.257099 -32.350601 70.144753
52.358299 -31.248055 69.03582
57.688702 -31.165779 70.752151
54.3456 -32.759098 71.495232
55.781898 -32.531605 71.832199
50.693401 -31.048214 68.487228
51.669998 -30.260303 67.978065
55.9893 -32.650146 72.159203
54.792 -33.33065 72.597672
49.591599 -31.308601 68.500443
57.4893 -31.981129 71.856003
45.456501 -30.351307 67.395081
48.908298 -29.734573 67.286758
50.310501 -33.341782 71.048332
48.165798 -33.823097 71.342728
46.901402 -33.800819 71.013786
42.573799 -30.785889 67.384438
43.9324 -30.530846 67.363342
42.318298 -32.57674 68.514481
45.043499 -29.806351 67.126282
40.984299 -32.685215 68.576202
42.9636 -33.341297 69.509796
38.7001 -32.960892 68.981262
57.2146 -26.369938 70.799545
58.371601 -26.551041 71.254333
38.589302 -31.696594 67.921242
38.5611 -32.078682 68.175003
38.336998 -30.864311 67.589645
39.7267 -30.479816 67.366745
58.821602 -30.039886 75.525116
59.448799 -27.980186 74.363113
57.438999 -27.550983 74.00267
54.275101 -31.813892 76.609245
54.625599 -30.390427 75.663467
55.877899 -30.000675 75.549019
57.485401 -28.294315 74.721298
55.9865 -26.646366 72.549194
55.167198 -28.850685 74.996048
56.356899 -28.33839 74.711594
53.503899 -26.328129 71.322067
54.811401 -26.385605 71.721466
51.7659 -26.490166 71.615051
37.028198 -29.749908 68.162483
54.005199 -29.050404 75.031975
51.265202 -30.220871 75.284355
50.021099 -30.42025 75.21875
52.750801 -29.86433 75.289299
51.115799 -26.748669 72.060646
50.904099 -26.372177 70.714767
50.2589 -27.218822 72.684738
48.5392 -27.402855 72.515442
50.653301 -28.590897 74.302338
48.688 -28.825584 74.130081
50.399799 -27.038971 72.42746
47.970402 -26.884563 71.37706
38.5648 -31.652267 72.868469
46.9856 -30.033905 74.611008
45.610001 -30.050064 74.332962
42.444 -31.710026 74.143814
41.114998 -31.690819 73.760086
44.306198 -27.163773 70.011116
44.445202 -27.092182 69.669121
46.0555 -27.23304 71.368584
47.7729 -27.008369 71.571594
46.8274 -29.319904 74.120239
45.421501 -29.854118 74.166344
41.7313 -30.454994 73.494263
45.783501 -27.365852 71.523445
47.051102 -27.446327 72.132111
38.132202 -30.01844 71.641251
43.3755 -29.233376 73.143433
41.9561 -27.851662 70.612831
40.904602 -28.741104 71.613266
39.4734 -29.16386 71.394554
43.218201 -29.026073 72.900421
42.986 -28.864815 72.658607
14.013 -18.588631 53.695744
20.927799 -15.457251 49.073444
22.4692 -15.803692 49.419388
21.4189 -18.00806 50.994442
20.004501 -17.94997 50.924263
24.231701 -17.478783 50.544743
19.924011 -21.76494 57.035114
19.65185 -21.791718 57.307148
42.9314 -17.940868 50.041218
42.6558 -18.090986 50.1129
47.877701 -18.339554 49.60199
46.096901 -18.307072 49.794769
49.723099 -18.507267 49.487762
48.801701 -18.568575 49.640091
45.132599 -18.511667 50.035473
44.493801 -18.423084 50.049755
17.274879 -7.3418102 60.97002
43.180599 -17.224384 49.894035
36.793098 -15.299961 50.442169
35.232903 -15.024878 50.563072
52.602901 -18.340485 49.044846
53.502701 -18.279266 48.909409
48.925201 -18.289345 49.450268
48.449902 -18.184834 49.461208
44.7757 -20.544085 52.287151
51.6255 -18.526705 49.276295
53.4757 -18.407269 48.982147
20.077801 -18.324009 58.772335
18.88954 -17.70076 58.801987
58.009899 -19.406548 49.288628
61.137001 -19.454306 48.98695
43.346298 -15.459621 49.691261
50.3083 -16.447071 48.933052
51.9916 -15.944052 48.642387
58.976799 -16.928396 47.988087
55.105499 -16.953606 48.426952
56.330601 -16.377016 48.195538
57.6651 -16.346153 48.044163
54.104301 -22.022018 53.056435
53.505199 -21.872635 52.887016
49.1199 -21.389008 52.832417
47.7215 -15.545418 49.128437
44.299702 -14.738712 49.406799
54.798 -21.946619 52.788521
52.978401 -21.607849 52.558453
43.207699 -21.041008 54.141071
43.7164 -21.076088 54.609779
41.514 -11.085316 50.143913
42.370602 -10.880684 52.577103
42.362 -10.824104 52.935005
53.955502 -22.078545 53.205986
45.376099 -13.474091 48.561661
59.746601 -22.830872 53.609509
43.736301 -10.358982 53.629318
43.708599 -10.445831 53.267036
41.7332 -21.124401 58.268505
40.157101 -20.903194 58.369526
62.080898 -23.075218 53.68462
61.774899 -23.08778 53.89587
43.681999 -10.223495 56.936028
41.777298 -11.331646 57.671097
52.381401 -10.154642 44.37117
53.679401 -10.419016 44.646301
50.762402 -22.34201 58.194923
47.6917 -19.424646 61.87793
46.213799 -17.745884 61.082008
47.5187 -7.8162327 41.744698
47.071999 -8.0669498 42.11496
48.0984 -7.8746185 41.796089
49.0527 -7.1402035 40.779137
39.439598 -5.6280537 37.573437
40.791 -5.7530022 37.879147
57.117599 -8.1800175 54.876259
58.784401 -7.9481697 55.2798
55.7453 -23.057987 58.877232
55.647099 -23.214577 59.237061
47.847 -3.3917637 41.584904
46.415501 -3.480197 41.310452
39.630798 0.098560333 34.722557
54.078899 -2.2007113 41.945057
79.244904 -12.409225 50.443378
77.1716 -11.879461 50.334675
76.965401 -11.697189 50.487358
49.416698 -1.6523819 41.237602
47.032299 3.7977896 31.97522
47.240501 3.0027676 33.084515
46.708302 1.463109 36.976624
46.9109 1.5448065 36.679657
50.810001 2.2233753 35.79443
74.407997 -10.763802 50.940422
72.014496 -10.296635 50.748646
51.174702 0.89804173 30.984777
50.991001 0.00063323975 31.976963
54.9762 1.1268539 32.491058
55.068901 1.4716845 32.259811
54.852699 2.802104 30.863125
55.1959 1.7355461 32.155125
74.598297 -20.218296 59.874199
53.217899 1.7177219 30.694429
52.845798 2.7655807 29.402796
43.2621 -37.713284 77.440201
45.055801 -37.526028 76.643723
44.979 -38.436008 77.721962
42.8587 -35.562435 75.20787
44.472401 -38.281422 80.498528
46.5961 -38.976418 82.727715
46.387299 -34.646393 77.385574
46.795399 -35.423313 78.532394
54.1604 -36.939037 77.488205
51.709599 -33.389633 78.046417
44.313099 -34.376884 72.120789
42.534 -32.551037 74.149178
47.254501 -26.67849 70.071869
47.383499 -26.694176 70.371994
44.773102 -27.020294 69.44043
19.38867 -14.506649 48.648445
13.289061 -19.05274 57.238979
22.891201 -18.084427 51.119648
35.126801 -17.955149 50.805172
37.5863 -18.916891 51.309063
39.309898 -18.19384 50.531651
41.9109 -18.404646 50.350063
42.636902 -18.525782 50.349594
40.6903 -18.674629 50.708084
35.229401 -17.301933 50.602936
35.362099 -17.542707 50.638226
31.721701 -19.964811 53.442635
34.5536 -19.448317 52.265408
38.195 -19.092089 51.42823
44.210899 -18.571827 50.192158
46.214001 -18.778618 50.116547
34.3643 -19.246819 52.053448
38.063698 -20.122608 52.665226
46.066399 -18.013041 49.693211
46.4296 -19.349354 50.652336
47.256302 -19.46888 50.675663
49.792301 -18.654119 49.586327
48.1353 -18.797428 49.899994
49.314999 -18.884069 49.830685
49.030499 -18.968519 49.939842
52.717999 -18.897905 49.43346
53.5648 -18.980755 49.403885
51.328999 -19.074017 49.754982
40.2201 -20.687704 53.217239
37.183098 -20.429314 53.332489
17.480789 -19.915188 60.332832
48.571499 -17.705488 49.324554
49.066299 -17.567322 49.240761
40.502998 -20.73913 53.304493
51.482601 -19.814079 50.520992
40.564301 -15.671644 50.066845
40.810898 -15.954559 50.060509
48.411301 -20.904873 52.243935
48.322399 -20.83053 52.158417
45.5061 -20.709988 52.399364
40.25 -20.733109 53.395699
51.111301 -20.011896 50.796753
50.435699 -20.119366 51.009167
17.77132 -8.4293327 62.192341
17.41884 -8.2105217 62.344612
16.747101 -9.2807655 61.689117
20.8009 -12.660313 59.359707
19.89176 -11.831783 59.919163
48.962002 -16.62155 49.126312
51.290298 -21.295147 52.363033
48.604698 -20.793301 52.071247
45.188599 -16.097002 49.542446
41.2598 -15.266302 49.928013
40.8339 -15.401045 50.003979
51.107601 -16.824902 48.884804
55.5061 -16.191462 48.26025
53.4459 -16.446003 48.54546
50.861599 -16.97525 48.935787
52.765202 -17.098431 48.724335
62.429798 -20.289324 49.710876
63.456799 -19.789274 49.07922
35.918602 -20.109629 56.171085
36.0923 -20.076881 56.607414
39.9207 -11.259197 53.53318
47.3069 -21.518147 54.121883
46.850201 -21.457067 53.932678
45.480099 -21.298922 54.369408
44.0784 -21.090969 55.05732
43.916801 -21.088062 54.800114
38.704102 -11.250118 55.283909
42.751801 -10.885326 50.869781
42.0513 -10.646088 54.069176
40.166702 -11.141315 53.806362
60.387402 -22.698463 53.115948
57.325401 -22.423443 53.200508
44.314701 -21.104605 55.286594
52.7229 -22.158119 54.297241
49.8839 -21.820715 54.108063
49.877998 -21.809196 53.910164
45.784801 -21.325623 54.570496
45.4795 -21.222122 55.799049
56.628601 -22.585365 54.001144
54.1325 -22.291573 53.855389
54.641201 -22.286156 53.560081
45.668201 -21.241585 55.993801
40.932301 -20.646048 57.137215
43.1409 -20.950035 57.114494
46.844002 -13.030354 47.969826
64.099503 -23.224129 53.61319
56.8424 -22.626045 54.208897
43.511799 -21.027943 57.242065
42.068802 -20.890293 57.549202
57.619701 -22.720951 54.622318
57.277302 -22.679607 54.372295
47.415401 -21.468647 55.824162
38.9417 -18.673195 59.517262
40.550301 -11.82711 57.726868
41.714302 -18.824074 60.183956
39.3937 -18.900103 59.656734
42.741798 -12.031479 58.95504
63.711498 -23.276768 55.386929
61.602699 -23.08889 55.594967
40.179802 -16.430265 59.756184
42.837002 -12.897627 59.7813
61.292198 -23.041771 55.945324
46.121899 -19.481705 61.51297
45.543201 -22.405502 59.451756
45.8265 -7.6828728 41.699036
45.573502 -8.5251369 42.896355
51.7663 -9.4730072 43.61919
41.9608 -17.009529 60.116554
48.5373 -23.104725 59.923069
48.3596 -23.303047 60.222038
71.579895 -23.348011 55.946438
44.892799 -16.286766 60.82119
54.158401 -22.759579 58.414223
