# .PCD v0.7 - Point Cloud Data file format
VERSION 0.7
FIELDS x y z
SIZE 4 4 4
TYPE F F F
COUNT 1 1 1
WIDTH 1611
HEIGHT 1
VIEWPOINT 0 0 0 1 0 0 0
POINTS 1611
DATA ascii
83.937531 18.739983 63.730671
84.860878 19.87475 62.785873
84.893799 19.810631 62.422165
83.604134 20.642742 60.01123
70.453918 8.3569489 63.955563
75.363998 10.962635 64.184685
74.259834 10.29055 64.257751
73.692123 9.7311897 64.910454
69.586777 10.923555 60.949596
70.652802 11.522417 60.641899
67.883148 9.210474 61.992973
74.354012 9.8715973 65.548103
82.572662 17.208494 64.582932
82.700447 17.157009 64.140564
68.955864 7.4800854 64.333557
68.767021 7.6639519 63.868172
68.187485 8.1564083 62.940987
68.614105 7.9875641 63.315746
82.919983 18.027414 64.698654
82.796638 17.637449 64.633705
85.035095 20.844845 62.590767
72.002991 8.6324425 65.516251
70.808746 7.9898567 65.62249
67.052521 9.0074463 62.08115
66.047462 8.2847977 62.551796
66.378967 8.9505577 62.129753
67.592194 9.9970474 61.457615
67.852051 9.7221375 61.649918
73.184052 9.2525654 65.546776
72.585815 8.8069687 66.098946
66.633774 6.8839569 63.933933
65.915497 6.8364544 63.77298
65.064056 7.4916515 63.13916
68.813591 6.8789444 67.302032
70.00914 7.4581242 67.228287
69.397858 7.2520485 67.690262
74.028351 9.1740074 67.085464
73.078659 8.9001999 66.688614
70.491074 7.727129 66.243988
82.690277 18.317322 64.990395
84.275696 19.619387 63.757816
83.620163 21.932997 61.739746
82.354553 21.922735 61.012016
81.978951 21.810953 61.318298
68.811325 7.2098866 64.855705
67.774544 6.6184292 65.225174
65.355743 5.5240879 65.778473
67.213356 10.18815 61.304367
79.487091 20.627867 59.729839
68.039185 6.4387512 67.061462
67.791435 6.3912373 67.497986
66.954292 6.1472836 65.573112
81.603714 17.115993 65.953781
81.241058 17.196274 66.160057
83.527786 20.043457 64.172958
83.400009 21.029135 63.404755
78.540771 20.4256 60.332436
79.001404 20.541077 59.969624
80.646294 21.270388 60.225021
81.51619 21.611486 61.716217
80.682281 21.277824 62.095592
64.140778 6.1080799 64.412903
63.455605 5.9717884 64.542473
64.147308 6.6555023 63.848156
64.301636 7.3400116 63.320969
66.291756 5.6157722 66.886871
65.523811 5.3426781 66.797096
65.925163 5.5102959 67.295288
82.353043 19.265915 64.89444
82.898521 19.799334 64.478455
82.328506 19.731529 64.614357
77.821518 20.148027 60.676552
79.038864 20.719517 60.803223
82.020485 20.608255 63.880058
81.66571 20.922277 63.447109
82.15889 20.141211 64.323105
65.239548 5.3280392 66.305847
64.702484 5.1187897 66.628654
65.526489 5.4129715 67.625862
65.093834 5.3217278 67.896889
81.169876 18.207079 65.669044
82.226616 18.814568 65.143822
81.590149 19.510189 64.820068
79.846451 20.921156 62.414089
79.455551 20.589315 62.946037
64.15152 4.9340134 67.03833
63.745186 4.8510132 67.368111
62.791199 4.8360062 66.603836
62.65123 5.0614452 65.952614
63.653755 7.2525749 63.487118
64.486855 8.0763645 62.862896
63.037155 7.0098801 63.790993
62.895943 5.888916 64.671806
65.301552 5.5471802 68.21405
67.004852 6.3487511 68.288483
67.378769 6.3193684 67.903015
79.109367 17.056479 66.551353
78.628586 16.26465 67.295059
79.384155 16.545656 67.153893
79.972656 16.589622 67.133621
79.914963 17.89797 65.929665
79.036011 17.627373 66.065819
80.746246 18.715073 65.380371
80.395203 20.018608 64.283676
62.681107 4.7893734 67.142296
63.075176 7.4555244 63.563217
62.008102 6.3701344 64.755905
62.081535 5.9467258 64.913605
62.840717 5.1732559 68.007843
77.834511 15.914661 67.38443
78.076599 17.311481 66.18782
78.152527 19.158527 64.551643
77.372856 20.003809 61.466827
77.745728 20.166506 61.947075
77.895569 20.137453 62.526779
76.177643 19.340139 62.522514
75.845276 19.227547 62.155781
77.621208 19.849569 63.041721
76.870483 19.370619 63.374588
76.130424 19.140924 63.100346
65.445068 5.8334904 68.459045
65.052765 6.0009308 68.633995
67.576752 7.0942154 68.710114
67.185699 6.6624813 68.55368
64.551849 6.6273384 68.778748
64.564018 6.1750336 68.698715
77.416977 16.132233 66.982895
77.260681 16.55621 66.606216
77.132576 14.341166 69.035553
78.617455 19.003374 64.895966
75.516022 19.051006 61.795265
76.249359 19.424917 61.418224
74.798203 18.650148 62.167843
74.124329 18.229965 62.543514
73.691322 17.989645 62.23003
74.56205 18.420088 62.882061
74.571487 18.323395 63.22982
74.538467 18.165352 63.568085
62.60994 7.8836365 64.008728
62.883949 7.8856354 63.668495
61.687859 6.286705 65.156204
61.431259 6.2484951 65.530647
66.021866 11.843693 61.498295
64.177429 6.8598938 68.688736
75.775238 15.325209 67.246559
76.72435 17.704998 65.656258
77.067245 17.455893 65.948761
73.934372 16.750454 65.438576
61.457809 6.6911373 65.450821
62.868034 6.2664661 68.221802
73.102409 12.462553 68.448212
73.177414 12.067986 68.733109
74.239258 15.135239 67.096703
75.12603 15.344297 67.108467
77.140381 17.051443 66.248276
68.638733 14.352867 61.208939
72.67009 17.153719 63.409489
73.153419 17.639492 61.94939
71.203461 16.365435 62.476112
72.150826 16.452028 64.407349
61.686157 6.691885 66.837471
62.931854 6.6321449 68.168877
64.189789 7.3070107 68.586845
73.395424 15.960276 66.095795
72.27034 16.749846 63.885117
70.962051 15.825567 64.21048
61.826744 7.578495 65.863625
62.202988 8.0607662 65.901649
70.286591 9.810751 68.874817
70.883347 12.766882 67.954971
69.143776 11.152634 68.434288
68.702003 10.513193 68.621078
70.258377 15.596714 61.248302
70.755493 15.946356 61.530449
71.062447 16.237625 62.142426
69.929535 15.383572 63.583893
69.63961 15.243124 63.241768
63.180523 9.1601925 63.794109
62.938095 9.1077785 64.253105
62.760551 8.977869 64.747108
62.711567 8.5746422 66.053574
63.458576 9.3449116 66.098022
62.647537 8.7735844 65.40712
63.767853 7.811182 68.114685
63.827988 8.3519135 67.752724
63.95966 7.5499954 68.385529
65.900909 8.1416473 68.850105
71.24501 13.398405 67.59668
71.741112 13.249456 67.861526
67.536987 9.8763027 68.60321
68.187897 9.7959595 68.778595
67.078812 10.143246 68.303947
65.923584 7.6368999 68.966293
67.709114 8.601366 68.975449
67.909523 9.1979866 68.898659
68.96936 9.8158035 68.849869
66.093765 12.387474 63.604866
66.903954 13.07177 63.675278
66.927437 13.079639 63.107124
69.027763 14.696211 63.837318
68.780136 14.58111 63.456253
69.7612 15.127945 64.039047
63.809654 10.221344 64.288658
63.235573 9.5661316 64.813347
70.729034 13.539434 67.263832
66.822357 10.51055 67.934113
69.558586 14.787998 64.582214
64.042427 10.383553 63.673283
64.313095 10.217806 66.009521
65.338181 9.490799 67.880707
67.017448 11.095411 67.545639
66.011406 10.211126 67.701332
67.545471 11.848646 67.146675
65.284767 11.585726 64.715027
65.332886 11.708261 64.144791
65.603592 11.701559 65.266388
66.237961 12.040989 65.630951
65.272202 11.160908 65.829926
65.049759 10.619228 66.385269
66.024513 11.200428 66.64296
67.049072 11.838444 66.780396
69.123734 13.726982 66.098488
68.861679 8.5149193 68.929298
68.712967 8.0567036 68.870613
35.888737 2.6742911 52.025211
32.372749 4.0554171 54.169891
39.144379 6.3257217 48.366142
39.988262 4.9352198 50.064678
39.776016 4.479003 50.704571
40.526749 5.3402519 49.705441
42.995655 6.4642506 49.311134
33.01123 5.0221968 56.499367
32.558144 8.3592691 57.675838
48.872528 9.6515598 47.300652
42.502335 3.2839985 56.978668
36.557785 9.3180122 52.783592
31.503502 14.513302 60.093716
59.621017 14.775697 42.75721
59.130486 14.375613 43.110302
63.476131 16.25668 41.259029
62.023705 15.423504 42.102783
60.520664 14.838163 42.64048
32.874317 15.558614 59.34277
33.560295 15.095764 58.691551
51.097137 13.522888 45.281204
65.075241 17.155788 40.364147
64.092155 16.793325 40.721191
66.596024 18.021175 39.521626
37.478401 7.8549938 57.985546
62.188339 13.8448 45.120094
66.621529 17.786175 39.767185
40.017586 6.4182119 58.364311
73.0886 20.141087 37.918484
58.206429 16.395351 42.189644
65.189896 19.446232 38.919067
64.347198 18.724581 39.51112
68.273392 20.444931 37.716438
70.434502 21.561657 36.658409
68.840332 16.139376 44.164799
67.731186 15.753811 44.265388
57.280525 16.961851 42.019836
69.981239 16.741549 43.351128
61.341782 13.277987 47.706425
60.574924 13.093323 48.280296
54.210426 19.794704 42.66077
54.321167 19.918438 42.091873
54.198666 20.317831 44.915104
58.396511 18.970078 39.832802
74.492661 18.357616 42.828678
56.092911 22.233974 44.534512
59.533218 13.358128 52.274765
78.678764 20.059761 41.827145
78.356819 19.934256 42.257339
55.509819 22.637606 48.129272
52.175819 18.874834 37.548389
54.645271 21.272575 49.374653
54.627857 20.998531 49.779015
60.833832 21.560207 36.25312
77.433029 19.794802 43.637848
62.149113 23.350433 33.724625
81.810898 21.719229 42.399872
61.730309 16.004639 54.062561
52.785568 20.931265 32.825165
61.235527 27.814392 45.974079
69.079033 16.891653 49.109783
61.547737 27.589005 47.825459
61.676537 27.399506 48.312656
47.01503 19.150383 30.958069
55.458664 22.264923 31.529892
54.962738 21.71557 32.441811
58.446136 22.319111 51.428852
44.152252 18.139458 30.713221
56.399704 22.666391 31.388859
61.993225 28.424587 45.74469
59.078812 23.374966 31.855099
51.236225 20.972809 30.017075
47.221153 19.068832 30.619839
47.790077 19.228062 30.198851
48.130203 19.502125 30.537804
54.142738 22.616812 28.716637
83.850479 31.909645 31.515453
66.683708 30.736595 41.718201
84.43541 32.496948 31.479158
65.217117 11.479746 59.335487
64.484512 11.585369 58.919952
72.60791 18.14374 49.391182
72.414841 18.18466 48.833149
71.8228 17.654308 50.055885
53.118671 25.451288 31.199219
42.107754 19.335888 27.234539
68.320023 30.676453 39.737823
81.08046 33.112404 32.56337
43.872475 21.159269 25.829197
43.818336 21.705093 25.86582
43.207291 21.519442 26.331087
53.466599 26.175442 30.868563
45.946472 24.337831 24.717741
84.051659 25.025969 44.639221
44.298485 23.160372 26.067173
82.977676 33.9263 32.347191
83.900017 34.403137 32.292038
45.895073 24.474945 25.114143
45.81543 24.621124 25.475523
85.221451 34.992241 32.177742
84.755005 35.1343 32.445538
53.816685 27.501549 30.176167
47.570084 24.492439 21.580597
48.205025 28.317013 21.471169
48.121258 28.952904 20.543499
49.042419 27.563873 26.123211
49.16124 27.629978 25.540787
52.857456 30.193909 24.006235
44.01004 25.751892 19.202236
84.737305 35.344254 32.616966
80.846382 34.266987 33.437237
79.859818 34.157825 33.884453
62.110538 31.596594 28.083363
53.116814 30.334103 24.494982
51.382133 31.167599 20.457165
46.299042 25.144157 19.609411
45.926376 25.166826 19.380634
54.233475 29.255253 18.379166
47.575691 27.910778 21.286882
45.841476 24.988642 19.755623
52.926468 27.323778 19.922955
48.519459 30.735939 18.555803
48.370354 30.523405 18.710018
44.459568 25.645508 19.985302
46.157021 25.690079 18.361834
45.917088 25.60358 18.419649
55.559364 29.832071 19.191252
55.444145 30.239494 18.797634
55.292053 30.615721 18.421328
54.63039 30.553743 17.717896
56.036781 31.396305 19.23167
55.934479 31.170046 19.064993
56.009323 32.087852 23.778126
56.048042 32.179878 23.199577
56.470116 32.353008 22.939274
53.436287 29.213776 17.697979
53.274277 29.517925 17.195995
55.788994 30.710222 18.956169
55.011501 30.939053 17.97617
49.125145 32.640594 16.244862
48.794888 32.606869 16.032345
76.744415 37.732506 43.045582
51.751881 29.378525 15.996685
52.706223 29.144979 17.130348
51.388199 30.84449 14.083534
51.176579 30.790585 13.922091
56.073685 30.854643 19.265732
49.524731 29.586815 13.808094
56.019497 31.630722 19.310431
47.270191 33.416031 13.438278
45.115822 27.512541 14.127049
44.934578 27.301895 14.442024
50.235138 29.330185 14.75324
50.47723 29.517628 14.705873
48.29002 29.736729 12.589832
48.620319 29.859209 12.697251
53.724369 32.689404 18.866926
53.749195 32.749954 18.548452
55.19141 32.318974 20.762913
87.483597 31.873724 43.706779
52.472702 33.170692 16.6471
52.466091 33.198971 15.962476
52.73698 33.092808 16.102196
42.349983 30.812885 7.1390848
72.641403 7.1911163 70.992836
72.571472 6.9979954 71.472305
73.175446 6.6430359 72.467667
72.698936 6.753458 72.187897
74.648041 7.0268726 72.096443
75.410736 6.9450703 72.654587
78.659943 4.8934402 78.741798
73.359512 6.2292576 73.806061
74.933685 9.2654781 67.738792
79.048668 5.7708759 77.15564
79.17202 6.0808144 76.634392
72.152603 6.9569054 72.254944
72.325729 6.9961376 72.602028
71.691772 7.3480358 71.527267
72.662842 7.1883888 73.004807
72.6744 7.5105515 72.786278
75.645767 6.3740463 77.494186
80.557106 10.208344 70.598892
80.070358 10.090334 70.322128
82.183426 7.990633 75.750191
82.440521 8.0492096 75.936447
74.839218 7.3762112 75.612122
75.60701 7.1157246 76.778709
75.227493 7.4474506 76.002762
78.760803 11.531036 66.730591
82.594131 8.9256554 74.750153
82.382668 8.846962 74.612953
82.768486 9.0375576 74.808556
77.761871 8.5538254 77.605698
78.280182 8.6435127 78.053802
77.564041 8.9122944 76.955864
74.619041 10.473169 71.774918
75.224533 10.921274 71.84758
74.469429 11.110132 70.828873
81.761421 12.483551 68.860649
83.679344 11.469398 73.807381
83.768158 11.435255 74.086868
82.126205 10.795601 78.62439
77.873283 14.409988 69.477631
77.537483 13.904139 69.968887
79.232834 15.038925 69.397644
81.4702 15.183598 69.013428
81.713501 15.010736 69.129135
80.451462 15.222685 69.465149
70.779732 7.8187275 66.827271
63.915779 5.1297607 68.076256
72.668091 12.641144 68.281158
72.131592 12.733091 68.193718
62.899544 8.5367947 63.839069
65.223129 11.187275 62.430481
65.319229 11.442118 62.634674
68.300278 8.5445652 68.966042
71.998749 13.026989 68.045868
69.74881 9.8516064 68.850403
70.094986 10.533724 68.745056
73.405945 14.456961 67.399796
65.450272 11.691599 62.936066
69.225853 14.938654 62.909988
68.895554 14.648504 62.549438
67.199829 13.240715 62.54303
34.884628 2.1382113 58.296562
42.362267 6.0508938 49.602345
42.324394 5.6879196 50.175556
52.819946 11.310826 46.003654
55.005692 12.087598 45.349274
53.625706 10.897405 46.773003
56.594124 12.943689 44.499992
57.581734 13.192812 44.321075
52.158653 11.726935 45.772102
52.58115 11.543753 45.824066
49.802383 8.2115479 50.51807
51.481102 9.5042601 48.439964
58.103275 13.722817 43.725163
60.626343 14.607924 42.952965
33.764328 14.111581 58.05825
63.698215 15.499743 42.484787
63.783691 16.137817 41.459652
65.655838 16.916977 40.76017
67.249237 17.577051 40.179611
65.149498 16.554815 41.177376
34.311806 14.700256 58.064983
56.58147 11.110089 48.13612
64.164978 17.40218 40.300201
57.16333 11.348258 48.085529
65.205994 15.963431 42.277897
38.668121 7.9733057 57.514565
36.847183 11.214067 58.246101
54.375275 14.717222 43.962753
63.790245 14.405954 44.816048
63.932205 14.54564 44.577065
57.235355 11.406568 48.226341
54.896206 10.496217 49.340706
64.432877 15.410385 43.009624
34.388596 13.950827 59.934395
33.65387 14.103507 60.320419
37.900368 11.797094 57.785236
66.800819 15.645164 43.829594
57.752472 11.653441 48.188934
35.207344 13.68236 59.474346
39.02647 12.46908 57.279148
54.530739 15.163651 43.69326
65.039978 18.784563 39.32814
66.421516 19.429146 38.672585
66.906059 20.14642 38.16188
65.112595 18.489315 39.479248
36.195129 15.266193 59.218376
55.126198 11.436211 51.358826
55.538342 11.804457 51.774151
53.629639 19.935246 45.447315
53.481369 19.984787 45.874447
63.647491 14.156571 46.96669
62.763123 13.736156 46.927994
60.849937 13.331799 48.584667
77.203003 24.261959 33.924866
53.815685 20.489799 46.112816
74.695831 18.486431 42.493404
61.412025 13.69297 48.842636
59.576317 12.993299 49.415035
56.232773 12.342176 52.85664
71.626953 24.417103 34.888668
68.153923 15.89253 45.583595
67.842323 15.708574 45.375099
70.126686 16.629141 44.850754
66.122665 15.153334 46.36681
64.267853 14.504291 47.140526
62.361893 14.138245 48.815315
56.392475 12.379469 53.148468
71.776703 17.259102 44.230801
70.40741 16.693148 44.357391
60.184513 13.660299 50.797657
62.89312 20.473392 38.375797
72.307671 17.516869 44.356743
60.914986 13.937912 50.863205
72.980652 17.862646 44.494915
65.762123 15.430141 47.83342
58.948738 24.544025 42.977333
62.987892 21.289494 37.383728
57.272011 15.313004 53.388981
65.724838 15.638025 48.877319
54.943512 21.018881 50.104008
58.351357 15.485626 53.459675
60.490498 12.715631 54.781612
78.532829 20.39525 43.702412
56.130913 17.012846 52.978146
56.771332 20.938587 51.677284
61.263371 23.511093 32.952118
62.365944 23.84201 33.023491
77.958923 20.351389 44.483646
58.810638 20.756721 52.34034
47.866791 20.06078 31.460821
54.517799 21.214527 33.329281
60.183159 23.386864 32.525604
66.631836 15.167854 52.446678
58.136757 24.170937 29.664766
85.611488 24.17417 41.898788
52.187416 21.416658 29.976704
52.754837 21.737995 29.52478
48.428638 19.466908 29.787533
63.851509 28.545715 42.035881
65.812592 13.452389 59.144157
50.650673 23.306 31.677794
45.13792 23.044813 25.108248
86.482803 34.457832 31.50263
84.983643 34.13493 31.820412
83.503151 33.818691 32.13496
42.77459 21.392694 26.775824
44.860523 23.067516 25.364323
44.596535 23.141796 25.681408
53.759785 26.901066 30.516954
54.69458 27.043667 30.585653
43.022778 21.919041 26.848011
59.772362 30.496868 28.995667
59.070065 30.549583 28.854147
71.333084 28.235338 49.824883
70.222244 27.839333 50.086124
50.429726 28.596581 23.874092
50.802761 28.767345 24.400291
51.100845 28.996693 24.77416
79.250519 21.600391 50.224747
46.969894 24.758518 20.769415
80.280647 34.600819 34.225037
75.367813 16.26399 56.132084
63.225754 32.092041 27.462402
43.853046 25.545897 18.945637
46.209583 24.585392 20.833286
89.212914 29.318384 42.430904
49.783459 31.182102 19.055336
49.804092 31.463985 18.652819
42.096127 27.072565 14.85436
50.35347 27.085657 18.41534
49.650078 26.913542 18.229137
59.674538 31.678577 21.879122
53.920689 27.830826 19.967535
54.308502 28.066525 19.956543
57.568478 32.878624 23.770996
42.921249 26.683147 14.962637
53.528839 27.57872 20.017508
54.200195 28.444004 19.3466
53.809059 28.840221 18.490707
53.602364 30.18276 16.857899
58.633659 33.102295 22.741047
47.980469 29.503313 19.678207
48.255348 29.772438 19.603733
47.865356 31.204226 17.293316
47.563995 31.085485 17.171917
43.198254 29.752159 14.229146
43.46011 29.792456 14.489815
43.417667 26.20043 16.191811
46.291965 26.325871 17.127001
50.942139 28.419348 16.669043
53.418007 28.396616 18.735708
59.998196 33.706223 22.544987
46.439537 27.365667 15.193797
46.084473 27.258883 15.174199
46.655994 33.309361 13.082445
46.680038 27.999325 14.194465
46.247223 27.939268 14.015411
48.544579 29.225178 13.529408
47.462166 29.5912 12.142964
54.955391 32.15789 18.163214
54.838173 32.088158 17.884315
54.922089 32.313202 20.734911
53.149799 32.666542 18.920759
53.402935 32.682213 18.908451
51.852505 33.125862 16.975628
51.842262 33.06089 17.186352
51.383034 29.673656 15.306614
51.77597 29.854462 15.451433
56.190895 32.034164 20.098658
86.69059 30.997593 44.335213
49.374496 33.443451 14.887156
49.264988 33.340981 15.052129
86.24379 31.309658 44.461555
52.557644 33.050938 15.520658
52.649162 33.076046 15.792281
75.673691 8.1619587 70.454674
76.030312 7.7695827 71.41629
75.25956 8.579092 69.391281
72.355804 6.851614 72.010391
75.01619 8.9464645 68.495682
72.100296 6.9564514 71.903366
77.986694 7.0027294 74.067863
77.477043 4.5745926 78.946159
77.341995 8.2327061 71.396118
74.685104 6.0173435 76.465523
74.938728 6.0488815 76.801331
78.594879 9.8277187 69.484314
79.149162 9.352953 70.740784
80.971863 8.7513256 73.320992
72.73996 8.1872711 72.269608
72.945427 8.5924797 72.105164
80.575417 10.628248 69.957642
78.957855 6.5973663 81.127716
78.724648 6.3858833 81.094589
76.51149 7.9795914 76.902771
76.039848 7.9475498 76.40686
84.146805 8.2797813 77.868729
84.186356 8.5464382 77.578209
74.070129 9.9356461 71.844177
73.743011 9.4100552 72.108429
74.917038 9.9376602 72.767059
81.223572 11.203581 69.804276
80.953308 11.827873 68.568512
83.266037 10.023411 74.210159
82.707962 11.027176 72.113983
82.735535 10.69429 72.546829
78.832703 9.7809029 77.173462
78.79454 9.4411068 77.583794
82.568932 11.718933 71.126465
82.687912 11.367739 71.705383
82.427979 12.720821 69.953865
82.27317 13.439524 69.150803
82.028008 13.70575 68.327065
81.775696 14.260628 67.27919
81.748474 14.665855 67.01416
79.263153 14.244967 70.770874
79.621475 14.286158 70.938469
83.03212 13.099911 71.949768
82.638596 13.756058 70.920616
82.48671 13.995977 70.564987
81.280136 13.923363 72.333504
81.95668 14.459627 70.612305
81.162834 15.349092 68.933266
81.982735 14.160364 71.539505
81.516777 20.589764 59.35936
84.088829 19.146498 63.831871
82.372421 18.518183 65.181885
65.899124 9.0630131 62.102806
68.980377 7.1710205 68.031525
65.287231 8.8457088 62.303276
64.743713 8.8814716 62.403954
80.654495 18.129818 65.76799
77.033127 19.799044 61.046532
73.614738 17.884836 60.903622
64.554855 10.009939 62.434639
73.401779 13.930784 67.72554
67.341576 13.268269 62.039867
64.215408 9.9365177 62.811321
64.216698 10.196659 62.955006
64.242989 10.408993 63.142475
71.380447 16.407154 61.687794
65.318253 11.680162 63.557762
46.912792 6.4874191 53.529716
76.15509 11.597754 71.923752
76.67672 12.059294 71.813705
83.453369 9.6395245 81.280807
66.726196 16.002726 42.976692
67.454208 15.525096 45.238037
43.604385 25.667164 18.309666
45.451473 26.155106 17.017179
53.882065 30.343693 17.032375
48.583015 31.798603 10.594061
47.969791 30.816008 10.991289
75.197365 6.083683 77.127563
75.490158 6.1301403 77.481621
74.926147 6.3571758 76.59095
77.416336 13.473639 70.498032
64.220459 15.08428 43.571693
64.598129 17.91287 39.915218
66.247414 18.463196 39.269062
68.771492 16.803698 48.81955
43.842033 26.275009 18.568836
45.207802 28.310364 18.175907
45.243103 28.621418 17.854856
47.661564 28.869942 13.399353
78.706245 5.6764145 77.113564
77.843048 5.9602699 75.986794
77.597595 5.7788353 76.207344
79.388275 6.7277775 75.553894
80.359749 4.9416943 79.766129
74.7882 5.7170391 76.717491
75.513603 5.2030144 77.842972
75.479324 5.3101807 77.81942
78.770142 3.9663029 81.433586
78.403587 4.0190697 81.237137
78.677742 4.3384457 82.447273
77.729065 4.8119049 81.11821
77.636459 4.9461594 80.944687
78.719345 3.9726143 82.248444
80.651299 5.6563129 83.832634
75.57972 7.9176083 75.914879
75.702751 7.6337166 76.365379
79.148651 7.2659035 80.594772
78.593971 7.1962852 80.079865
79.16153 6.8607006 81.059021
77.82737 7.9477501 78.39373
77.371262 7.8129597 78.050529
83.259598 9.4299145 74.950554
84.971298 7.7729969 80.079025
84.881363 7.2290344 80.606079
79.10923 7.6524296 80.114822
79.247604 7.9484062 79.917686
82.530151 10.446299 72.549835
82.353195 10.451557 72.297729
84.728683 9.4627209 77.792572
82.911316 8.6302414 82.465347
83.862549 10.576195 74.813736
83.330803 11.210165 73.122017
83.314316 10.933119 73.322479
83.775322 8.865694 82.614388
83.007622 12.041712 71.7621
83.06852 12.154652 71.841324
84.83622 9.9459591 78.058632
80.464279 11.517015 76.177597
80.829346 11.426474 76.617882
84.316605 11.190611 76.591026
84.433372 10.953693 76.77919
82.780838 10.956133 78.689629
83.552505 12.018244 73.325104
81.668564 12.409721 75.52861
82.501518 12.380051 75.766434
82.977989 11.518417 77.634193
83.014961 11.675161 77.293381
82.347702 14.075792 71.149109
81.638504 13.900326 72.375572
81.890961 13.787243 72.593895
74.748619 6.278553 73.748367
75.994179 5.3181934 76.454323
76.02417 5.5016308 76.023422
76.444458 5.3262444 76.613846
75.681702 5.3520012 76.264458
75.444824 5.3890495 76.114029
77.482117 6.683054 74.344032
77.074165 6.6658707 74.124222
76.102196 4.9575672 77.474052
75.873459 5.0147247 77.307915
75.502831 5.0725918 77.616219
75.695869 4.9727688 77.816147
73.539635 6.1456909 74.668488
73.699043 6.0235329 74.887794
72.724571 6.9164944 73.237129
80.051865 6.0517406 77.325058
79.621414 6.0571251 76.997932
80.640732 5.4524727 78.940376
78.566711 3.9742756 81.889961
77.879158 4.1623993 81.012772
78.046631 4.1062489 80.910553
77.770157 4.1863785 80.691315
79.928543 4.3283882 80.830879
76.587097 4.7044144 79.394989
76.732574 5.0502872 79.677856
81.031364 5.6489697 78.875046
81.447426 5.8820152 78.773834
79.884727 7.8787956 73.842506
81.858772 5.9951 78.918381
82.073959 6.176218 78.772247
83.774849 5.8377209 81.240067
79.696625 9.4232082 71.076599
76.320473 5.6160755 78.887985
76.441391 5.7488518 78.95993
77.553337 5.1382561 80.748894
77.469055 5.3370495 80.537193
78.178917 5.6625996 81.154152
82.228088 7.1025085 77.272537
74.613953 7.0864296 75.608475
74.796638 6.8689709 76.024117
84.428192 7.1338367 79.969032
83.911507 8.2207375 77.5886
83.684067 9.1381187 75.985641
83.599068 8.9338093 76.122459
84.208252 8.8040886 77.291954
85.035187 8.3739605 79.532211
85.424049 8.4445992 80.676208
83.139519 7.8259335 83.668556
80.782784 9.3481979 79.696213
80.658447 9.1140804 79.895157
81.219437 8.5149326 81.221931
80.974609 8.2780609 81.290787
80.349831 8.5299492 80.349854
79.969833 8.4455795 80.067673
84.112938 8.1999474 83.688911
78.305603 11.011652 74.941772
77.791168 10.192677 75.5429
79.875397 10.637709 77.011589
79.630104 10.514673 76.956017
85.155899 9.2609119 79.316315
84.007187 11.290829 74.902863
84.188866 10.719521 75.608582
85.266571 9.2730007 79.906982
79.201523 11.861818 74.547058
78.880508 11.683004 74.521286
79.65239 11.605648 75.347054
84.42395 10.613792 76.422684
84.607704 10.042845 80.354675
82.979904 12.731512 71.40934
81.205688 11.407974 76.944832
80.002182 12.15733 74.779694
80.023468 11.83357 75.31076
84.025314 10.360943 80.021736
83.87825 10.328791 80.120453
84.015854 11.602091 75.198288
78.965546 13.596498 71.612747
82.649796 13.076197 74.04631
82.880157 12.879622 74.389336
82.725189 8.1535301 76.101646
75.854866 6.7672348 77.404671
76.300217 6.8808861 77.820656
82.798904 9.5875816 74.078804
78.850464 6.1830673 81.436462
78.887024 5.9737873 81.675476
79.679588 5.7052097 82.77784
81.884293 10.185116 79.414993
81.816971 9.7858829 79.967941
82.14534 9.78578 80.231682
81.723404 9.433918 80.409584
81.491333 9.3107224 80.389442
77.635513 12.25227 72.480713
77.154358 12.122904 72.195129
83.581787 11.4891 73.528702
81.198494 10.570482 78.25692
81.6306 10.570955 78.610443
77.866028 12.944439 71.682129
83.567612 12.299974 73.623184
79.341812 13.617992 71.878296
83.694145 12.047522 75.76088
83.612381 12.060658 75.909897
76.06308 5.781786 75.396248
76.36805 5.8292427 75.435883
77.219284 7.3039722 73.015335
78.890739 4.138525 80.782097
78.156464 4.2531357 80.126495
77.836685 4.2815056 79.995964
78.370132 6.6336765 75.017609
79.349594 6.3875446 76.168495
80.251724 6.7471523 76.165848
80.248779 7.3785896 75.018867
80.575836 6.7789421 76.364845
80.92157 6.855505 76.515625
73.897003 6.5712013 75.090912
73.792664 6.7811146 74.805725
80.82991 7.681427 74.988159
81.091125 7.7374115 75.122635
81.263901 6.9446793 76.652008
81.601288 7.0310478 76.804008
82.892395 5.2349949 81.411301
83.28978 4.7976608 82.788193
80.078316 9.4028721 71.436913
73.860489 7.9056454 73.908081
74.577652 7.9790554 74.685471
81.717255 9.3789864 73.065826
81.551819 9.1261234 73.285927
76.221901 9.1714249 75.170868
76.819389 9.1837139 75.81263
75.131767 9.2354946 73.876785
76.228973 8.9275417 75.4767
76.276245 8.6582508 75.850784
81.950516 11.099184 70.890762
77.296936 9.234705 76.267578
77.692047 9.3270512 76.574829
78.690826 8.8078632 78.28479
78.774376 9.1358662 77.957336
78.259598 9.2161179 77.316498
77.685936 9.9282494 75.784531
77.279999 9.9068069 75.383499
83.70192 9.7318993 75.28878
82.745911 10.354349 72.987564
79.273361 9.1106987 78.507828
77.074707 11.1388 73.496994
81.933029 12.831669 68.803268
83.542526 12.401842 73.715881
83.514946 12.481882 73.810959
81.882004 12.72493 74.976662
80.476105 13.042456 73.708542
83.323944 12.539408 72.652153
83.866562 11.868814 75.883255
80.001778 13.539204 72.515022
83.243042 12.15917 76.031387
83.514519 12.048059 76.090881
83.253426 11.96767 76.523209
83.739563 11.135044 78.340088
82.547569 13.676001 70.085228
80.733505 14.235228 71.56897
80.443306 14.285839 71.365257
81.002747 13.60573 72.937119
81.712921 13.28483 73.765045
81.444229 13.419405 73.438065
81.374084 14.020805 72.121506
82.647842 13.447069 72.966949
82.68824 13.485878 72.725525
81.43399 14.520624 70.910194
83.140091 10.182274 80.246239
73.677979 7.032774 74.466721
74.774117 6.6326084 76.187653
84.524277 10.668882 76.891136
77.786484 12.658663 72.033249
80.773491 14.43272 71.155991
76.615433 6.1409283 74.89817
74.156685 5.8012753 74.936043
77.9981 6.1595306 75.687134
75.552795 5.0720348 77.779716
79.62854 7.7229805 73.915817
75.302948 5.4445496 77.543358
78.168495 4.2682362 81.735123
79.110825 4.004528 82.970154
79.253838 4.9819279 82.891212
83.52401 7.2711926 78.474213
75.523727 7.5128479 76.284897
79.628891 8.1599426 80.064102
82.283234 13.130888 74.070778
74.622749 5.7266483 75.065201
74.592628 5.8388309 74.758705
76.64463 6.6414986 73.914108
73.620987 6.0333805 74.671974
76.298752 4.9279652 77.586304
76.126205 4.8241692 78.040878
76.009781 4.9016266 77.720963
75.613472 5.0809174 77.931198
73.422142 6.2692757 74.49324
73.563492 6.2678947 74.731644
77.115692 4.4280663 79.992477
73.925995 6.4456921 75.204514
76.183395 5.4956493 78.766609
82.49437 5.7873821 79.910027
83.164284 5.7432346 80.693642
76.559952 5.961031 78.952271
77.713867 6.2122383 80.119545
73.608269 7.2700462 74.183975
84.544525 7.7303085 79.292747
81.335587 7.1249866 83.002083
84.086281 9.4926281 76.270798
83.785339 10.878408 74.409325
83.674294 11.188345 73.930931
78.62458 11.170559 75.033867
78.747894 11.405945 74.809364
78.720161 10.874172 75.551964
82.914429 11.932322 71.639351
84.217865 11.136274 75.709686
83.110779 12.278343 71.891533
82.49205 11.86203 76.866524
81.130783 12.162191 75.655937
80.096077 11.478226 75.928909
84.788864 10.341587 78.801666
84.216812 11.36978 76.524612
84.163635 10.39942 79.869324
83.267052 12.852867 73.530136
83.368332 12.715357 73.687828
80.854065 12.982321 74.053116
82.638458 13.381907 73.200378
74.150833 5.7670498 75.130814
73.693207 5.9923134 74.646767
75.797485 4.9292603 77.868767
77.431488 5.5182819 80.36895
82.271339 8.6812668 74.741287
83.794235 11.81744 74.223152
75.918549 5.6599064 75.609726
76.495514 5.9891567 75.155121
81.397507 7.8888626 75.151665
83.575378 5.3183098 82.026321
80.408859 9.2978916 71.905479
80.693085 9.5184593 71.81591
81.923218 9.6358757 72.902809
82.13205 9.6561584 73.113884
82.313599 9.6779041 73.307297
77.919357 6.8376751 79.728989
78.16851 7.1378746 79.682663
76.843048 10.559839 74.047119
82.594131 11.985981 70.920731
82.002274 10.551773 78.930054
83.500832 12.515797 73.957367
82.710327 11.742928 77.148445
83.140732 11.740761 77.120811
83.304626 11.788437 76.948029
82.340515 14.204721 70.293961
81.190308 13.534374 73.141312
82.503143 13.011768 74.280983
84.447914 10.872211 76.678825
82.592773 13.701086 70.354126
82.612534 13.753424 70.588432
76.425598 6.5107708 74.047935
74.719582 5.6139412 75.414925
78.16684 6.3806858 75.366936
79.087685 8.3068218 72.489494
78.724243 8.0939121 72.596375
80.78521 3.7257404 84.694756
77.777809 8.2548637 77.980927
79.724503 7.3478088 81.113716
82.645462 9.3738995 81.217735
83.283646 10.782679 73.401123
78.85025 12.795158 72.781891
82.162308 11.54661 77.35788
82.025482 13.805248 72.48687
73.468971 6.6827984 72.409653
74.867477 5.8049316 76.813293
75.936317 5.4104824 78.467804
82.25563 6.3721294 78.583672
81.95372 7.1628609 76.903839
81.694199 7.9943104 75.258369
81.943863 8.0354252 75.434341
72.865417 7.8300667 72.75769
74.408623 7.3363285 75.127533
75.9077 6.4821301 77.723854
77.691666 6.5077591 79.806641
83.777542 7.2935848 78.766388
75.337227 8.277647 75.233673
76.374054 8.3285122 76.348068
83.492493 8.4612408 76.637299
79.2295 9.8493729 77.487152
79.550087 9.9079266 77.728966
78.72702 10.523842 76.05056
77.533737 11.431381 73.558853
80.037186 10.867004 76.814507
80.103882 11.153725 76.438087
80.567673 13.117481 73.639542
81.403389 8.8346634 73.603607
76.618851 7.7327213 71.848488
77.24015 7.8913956 71.950706
78.102173 7.2926521 73.609962
78.254669 7.567503 73.209953
78.463036 7.8017559 72.930801
80.489761 7.7099209 74.64257
81.623199 11.122496 70.431931
75.405518 9.7618656 73.525909
75.933121 9.8995857 73.934814
82.944069 10.899185 72.662231
82.784966 11.853058 71.429642
83.051117 12.759443 71.648666
84.211266 10.728926 79.005493
80.21965 12.32589 74.689461
79.696732 8.7011337 72.281525
83.209869 10.639509 73.412819
76.059944 10.922626 72.725769
76.115158 10.246132 73.683319
76.297913 11.248779 72.540268
81.910599 12.578512 69.016731
79.500023 8.3839664 72.667137
73.518089 9.1089458 72.205772
49.862549 30.082645 20.737503
46.711403 29.772211 18.035679
46.401642 29.668331 17.844646
47.179935 29.032429 19.448105
47.019703 28.654202 19.747969
44.204304 28.31543 17.008476
41.052948 28.199806 12.492494
41.753345 29.664541 12.458264
42.137051 28.785959 13.873309
41.805466 28.780718 13.407899
42.187378 28.42757 14.28721
44.474098 30.616169 14.634684
44.217659 30.323959 14.712893
44.812733 26.749744 15.482473
50.257427 32.401382 17.539688
50.268627 32.177261 17.922112
43.347527 28.935394 15.301315
43.072018 28.964521 14.92961
41.384064 27.736719 12.836382
41.453262 27.690832 12.808037
41.985313 27.159164 14.018429
40.770912 28.812231 11.656649
40.695351 29.706848 10.846418
40.979362 29.733044 11.257757
45.379204 29.397951 10.960314
45.709419 29.477346 11.054356
45.820896 29.990206 10.358134
46.611736 29.537144 11.589053
47.148758 33.702148 12.807498
42.517483 33.326454 8.8619423
52.619293 33.05584 17.289968
47.404369 33.963821 12.41641
47.73732 33.965267 12.626114
49.003716 32.997978 10.51259
48.834915 32.867439 10.345113
49.897583 32.906071 11.561871
48.910763 33.151882 10.406028
49.256649 33.288185 10.865745
53.622082 32.833519 17.237221
53.643913 32.797295 17.084236
44.266552 30.475456 8.6456165
51.462803 33.289745 14.036223
52.830826 32.816017 15.531144
52.725739 32.924213 15.535897
42.831154 33.746834 8.5540218
49.091961 33.975723 13.171115
41.785446 29.52792 8.8814554
42.816914 29.753914 8.9233551
50.903938 33.60257 13.868676
50.586678 33.706161 13.68189
51.373405 33.521069 14.696456
46.088669 34.577015 9.8953171
45.895481 33.698875 7.2455335
45.807106 34.662987 7.9325681
44.450058 26.694508 19.045364
44.492695 26.34309 19.445755
45.183132 27.961794 18.546513
44.187683 25.243307 18.940681
44.270996 27.487808 17.994755
46.094997 28.035734 19.482449
47.123337 27.532951 21.246359
43.884731 25.716967 17.531132
46.803238 28.252481 20.002411
50.0518 32.08947 17.889929
42.890015 26.746822 16.716595
43.462887 27.852472 16.5889
43.272537 27.761009 16.428093
43.077988 27.67576 16.248341
42.887859 27.58852 16.0595
44.181297 29.964577 15.104568
47.224209 26.269011 17.81852
47.511814 26.838573 16.89994
47.86417 27.100031 16.641415
46.097916 31.234894 15.538101
46.495289 31.372242 15.751247
47.216087 30.940392 17.032719
41.241077 28.237694 12.919276
42.222466 29.549826 13.21913
42.786724 28.801193 14.734296
43.517815 27.429495 13.504582
43.535995 27.182808 14.023667
52.385746 30.578484 15.307222
52.276978 30.804882 15.013052
52.893425 32.6493 18.861973
45.973969 32.18269 14.133045
46.29332 32.252945 14.337036
41.9828 28.010204 11.790657
52.096844 31.009323 14.679325
51.88102 31.208143 14.325317
50.30806 31.662048 12.402003
51.296436 32.282291 18.541874
40.623199 29.385952 11.012857
42.045856 32.447742 9.5367422
42.167854 32.710613 9.3246346
45.081589 29.274239 10.966944
44.876888 28.967937 11.342102
45.704956 28.432007 12.79172
50.956207 30.715706 13.780768
51.670521 30.286205 14.882036
50.728195 30.632832 13.647487
50.501114 30.528587 13.546928
52.282715 31.213991 14.752332
52.752747 31.210844 15.270899
52.572269 31.365875 14.996613
52.407864 31.537552 14.743256
41.661682 31.198503 10.643143
42.257019 28.356153 11.156857
44.015209 27.851748 12.892393
43.80526 27.643721 13.203769
48.915791 30.677034 11.961652
49.11446 31.449804 11.372929
50.22332 31.17654 12.667209
51.729424 32.458138 13.770348
51.866825 32.279388 13.939533
52.13932 31.719345 14.371695
51.795395 33.194641 16.713566
45.643021 33.528034 11.791641
45.557686 33.314491 12.054224
40.080185 29.613863 8.8313389
42.578915 28.463984 11.063432
51.581398 32.615494 13.602941
51.477814 32.75032 13.507496
53.690434 32.479454 16.50267
43.571739 33.361629 10.004505
50.693573 33.100147 12.64502
47.564297 33.798019 8.9930668
51.831738 32.824139 14.043013
51.277153 33.518417 15.167826
47.702911 34.070831 12.329555
47.656956 34.16634 12.034111
49.624249 33.616859 14.597792
49.484154 33.72757 14.202984
44.837502 34.133392 9.9333477
45.60183 34.268814 10.326458
45.94849 34.334702 10.445812
42.142487 30.275045 7.8241897
43.052631 30.289455 8.2300386
45.176567 31.207382 8.3456917
44.970703 31.821907 7.5567107
45.837467 32.347267 7.7757611
48.7715 34.173157 11.637628
47.631405 34.286743 9.7337999
47.478615 34.381393 9.7404575
43.550293 25.963312 18.282536
43.473709 26.162062 18.04789
48.924522 29.931305 20.04808
43.925831 25.377142 18.860149
43.479317 26.427086 15.654928
43.674824 26.504084 15.539254
45.253448 25.804411 17.677858
46.657795 32.393723 14.474686
46.071957 32.814056 13.309689
46.05439 33.047424 12.937781
50.741268 28.777596 15.973598
45.722919 27.132711 15.201078
54.175343 31.966707 16.870108
52.431767 32.492496 14.681986
52.633156 32.364571 14.908942
53.600517 32.830429 18.092855
46.801914 31.725445 9.1006603
51.490555 33.476696 15.263949
46.152069 27.005793 20.766956
47.625122 29.163387 19.749226
45.284767 24.985176 19.61665
45.219791 25.37491 18.63069
43.471359 26.297794 15.957254
47.427715 30.101206 18.34354
47.311508 31.696585 16.082411
42.719597 27.422363 15.960763
42.476933 27.458988 15.553211
42.755577 27.175001 16.218258
48.54776 26.723736 17.821701
46.326286 26.777689 16.250168
45.743378 31.108686 15.346315
45.44146 30.951637 15.237972
45.288044 30.574284 15.553349
44.836906 30.631004 15.006486
45.204781 30.138479 16.00469
48.30415 31.58427 17.15048
48.42205 31.824041 16.905508
53.018959 31.832428 15.383631
52.957237 32.022255 15.296148
48.004147 33.424294 13.994659
49.056248 32.996941 15.581613
49.074131 32.837212 15.87656
46.809486 27.438131 15.300545
47.352623 30.080822 11.378557
51.169655 33.014252 16.985289
51.02319 33.124599 16.633316
53.138802 32.476696 19.4494
44.468113 28.952484 11.117762
50.033054 30.192974 13.496842
50.594276 30.254574 13.928239
42.90638 32.431252 10.581688
47.237068 30.624697 10.604559
46.251747 30.87945 9.5226974
50.070679 32.52541 11.78447
49.7313 32.505959 11.408906
49.074226 31.970684 10.95867
50.382923 32.558067 12.14304
50.104958 32.741165 11.801948
47.015053 32.961315 8.4436922
46.556393 32.719513 8.1372852
50.539394 33.56469 13.017536
42.008717 27.196499 13.803905
54.978752 32.266674 18.417942
54.748573 32.410519 18.30271
43.864445 31.306667 13.113289
44.173389 31.4902 13.217969
44.498131 31.598587 13.429371
44.771618 31.733261 13.54199
43.852562 32.122005 12.057564
47.982994 28.34523 14.502793
48.197197 28.55414 14.310077
49.101448 30.187658 19.866791
46.197971 29.369076 17.998844
43.706177 27.853447 16.900646
46.66103 25.914804 18.182484
46.287212 25.889181 18.017288
41.102398 28.072245 12.570098
42.441101 28.779512 14.298487
42.068207 29.114113 13.45426
45.122742 29.712978 16.434078
44.962166 29.390068 16.645756
45.570141 26.716957 15.932268
48.16571 31.302189 17.431496
43.050037 31.191988 12.338593
41.511921 27.682074 12.701866
40.361221 29.253935 10.615736
48.032143 28.069221 15.013583
40.697235 30.516314 10.063898
41.399212 28.292234 11.128132
42.76466 33.552822 8.807642
50.433399 33.383324 12.522811
50.42474 33.294415 12.426162
48.121094 34.246811 11.944
50.63456 33.711689 14.122649
44.170895 25.209972 19.127842
43.865139 28.198551 16.727867
46.435677 28.141428 19.732891
49.847881 31.999414 17.865505
49.835426 31.732794 18.270279
42.741451 26.378891 16.135178
42.661606 26.5058 16.221148
42.635162 26.489719 16.029636
45.648582 29.531826 17.21657
46.676537 31.592638 15.628628
41.76506 27.725559 14.14146
41.56295 28.286068 13.463723
41.181221 27.957041 12.670368
41.296219 27.825161 12.798086
42.453217 29.625851 13.441225
48.586769 32.299938 16.335293
48.521114 32.040672 16.670811
49.169109 31.899616 17.445475
45.689411 32.102852 13.967163
50.676525 32.674889 17.370686
50.242096 32.706261 16.993444
41.57518 28.658556 13.181972
41.893539 32.133911 9.7670193
46.598663 29.972847 10.93965
44.159058 28.103075 12.481944
44.932571 33.790066 10.673815
44.264996 33.585762 10.361303
45.969948 30.684021 9.5448198
52.668648 32.775444 15.229901
47.100605 33.953232 12.231365
50.69656 33.626625 14.811515
44.924759 30.041298 9.6822262
47.497543 33.392715 8.820241
44.913124 34.471748 9.2376871
44.161564 33.960102 9.6016254
48.347282 33.764412 9.9611473
48.519451 33.625732 10.087836
48.264206 33.994339 10.128449
44.124458 26.370495 15.992684
54.0611 31.522667 16.695286
53.99535 31.658798 16.598881
46.237968 32.558037 13.845097
46.932671 32.864525 14.026903
53.844414 31.40663 16.457497
52.894672 32.2141 15.226047
43.666683 29.735401 9.3829384
45.970795 31.460857 8.6786013
47.066032 29.934122 18.191711
42.523186 26.684319 15.959652
42.437412 26.832901 15.781669
42.916779 26.913101 16.664961
48.002766 27.774591 15.506139
47.750057 27.572159 15.691027
48.147289 33.089272 14.711945
44.892334 32.023724 13.283506
53.815735 32.649719 16.990255
53.974258 32.539356 17.056198
50.950592 32.95874 16.979374
41.00872 30.616089 10.425557
40.861034 30.573784 10.255831
46.99678 31.167074 9.8020945
50.052956 32.315868 11.820058
49.505417 32.408249 11.194579
52.013279 32.108105 14.130544
50.455639 33.44825 12.63755
51.713058 33.342842 14.650862
48.019615 34.307636 11.647449
47.832428 34.378101 11.240973
44.261326 26.220882 19.234015
41.979511 27.313763 13.449163
53.934807 32.673931 17.309822
42.244087 27.198639 13.683554
48.481407 28.644863 14.376019
48.523476 31.34034 10.928184
45.948509 28.974531 18.207821
45.6366 26.300991 16.807617
43.355713 31.318865 12.531612
43.668701 30.641451 13.718617
43.378605 30.515156 13.544053
43.688343 29.018829 15.620378
42.34359 27.246902 13.54797
49.164074 27.64554 16.574024
41.592533 31.998199 9.569128
50.391315 32.123428 12.262736
41.365997 28.013981 11.815552
51.745071 33.253635 16.472095
47.610298 31.958471 9.5920906
48.346836 33.86998 10.076242
50.359013 30.36866 20.775629
44.022858 29.12595 15.896873
41.557541 28.492727 13.297742
42.143921 30.87504 11.637089
48.436665 32.604637 15.735703
43.617702 31.378038 12.752679
50.918282 32.711536 17.474083
50.190563 32.582024 17.17771
46.661419 28.546824 13.228209
49.042484 33.28363 15.021581
49.080349 33.14241 15.329744
50.976734 32.821037 17.292629
44.469749 33.280571 11.05471
49.95702 33.650688 14.618486
50.533863 33.509129 15.275509
49.828205 33.858433 13.703765
48.609905 33.865173 13.393127
40.663948 29.452326 8.841116
49.597099 33.928963 12.325572
48.681126 34.172504 11.345336
45.269165 27.085522 19.63641
44.049747 26.280966 18.874466
44.19241 26.5975 15.528039
54.057907 30.574396 17.075447
54.007229 31.212082 16.709446
47.465378 33.069908 14.177212
45.310749 27.705448 13.871733
43.230171 30.823343 7.5703068
48.091156 34.342056 11.332722
48.542969 26.435265 18.367889
47.003475 26.00205 18.214928
53.06673 32.338493 19.711071
45.805645 27.84432 13.910534
53.937469 31.793484 16.52599
47.276257 32.915684 14.253663
48.783905 28.758284 14.428733
47.617691 29.081179 13.033753
50.852497 33.386597 15.791704
50.93792 33.300743 16.104336
49.693462 33.507561 14.920975
47.784706 31.293182 10.330762
48.830231 30.892555 11.653843
45.608856 28.738312 18.120613
50.963387 33.217823 16.356291
54.041103 31.915258 16.67664
50.844398 33.570068 13.612301
44.607216 26.580524 15.737791
49.085278 26.717068 18.201012
48.779968 27.435188 16.668972
32.51178 3.6102276 50.208729
32.543922 3.2694631 51.911133
32.599613 3.2885628 51.584351
29.998894 4.7318306 49.215885
30.979954 4.3740168 49.100746
30.266106 4.6774578 49.953606
34.192497 2.3064585 53.802826
34.3465 2.2807598 53.6353
31.147709 4.1720729 50.981449
29.769207 5.0852003 49.797424
34.647423 3.1523542 50.904648
35.708706 1.7525902 54.547016
34.451622 2.3878012 52.982677
33.416264 2.6879325 53.698593
35.556534 3.9589167 49.730568
30.917952 4.8280973 51.645863
30.116625 5.1930809 50.522396
34.849098 2.6339283 52.007286
35.623718 1.5610828 55.523319
35.884148 1.4893589 55.595612
35.940315 4.352222 49.269012
35.345177 1.6525497 55.43541
35.131851 1.6999607 55.546551
36.349564 4.7368717 48.910442
36.668594 1.8227806 54.200924
37.49321 1.5105934 55.436138
30.839785 6.8381243 46.810013
35.294258 6.2824678 48.004078
32.931511 3.5405102 54.96563
36.473419 1.392684 55.669689
37.711807 5.2950659 48.745804
37.856262 5.1123981 48.915924
34.984825 1.7578678 57.496246
34.908234 1.8890591 57.699856
32.195122 5.495697 54.847187
39.932472 1.8564529 56.459454
37.812717 6.9565859 48.154144
41.546196 6.4216709 48.742752
40.914665 6.6898069 48.401909
40.429218 7.0844059 48.214214
40.655197 2.4560413 55.452953
39.3009 1.3288116 57.53154
35.9813 1.2122707 60.473221
40.61134 2.7909698 54.540512
40.279331 2.8104973 54.231552
40.938286 2.2974815 56.296978
37.936272 0.17246246 62.153645
40.348644 8.5884533 48.078636
41.319031 7.1252947 48.253757
43.469688 7.538352 48.306034
42.968491 8.07407 48.019688
32.344349 8.7037182 57.344074
46.131065 8.8175383 47.778137
46.200485 8.6248932 47.924759
43.969498 5.3635702 51.890675
43.700912 5.4076624 51.607204
45.42062 6.8004837 50.174389
46.615963 7.8878174 48.951797
43.694962 4.1165056 54.502247
43.539543 4.1155596 54.258675
43.588402 3.9417019 55.129135
42.536808 3.1668987 56.156532
31.989717 11.303795 58.106274
31.942005 11.119924 58.298008
45.358437 6.0690336 51.544502
45.565498 5.9753408 51.918709
44.40136 4.5452499 54.753578
44.309502 4.4970093 55.016617
45.534561 5.4554119 53.258694
38.702682 9.78018 51.112328
40.538662 10.539243 50.546074
31.735121 13.802372 60.359451
34.512058 9.891674 55.121056
43.186844 4.6725101 57.925438
46.005997 13.14981 47.585583
55.994667 11.615319 46.487755
55.382782 11.45531 46.515709
37.335125 10.4224 53.673878
54.650665 13.70049 44.366753
54.645256 13.508995 44.451817
57.846802 12.986551 44.707909
57.645157 12.778664 45.008278
39.738285 10.947364 52.275852
39.768547 10.783283 52.002769
36.221798 8.3686171 58.367516
31.627737 15.286284 60.719631
52.268055 9.467557 50.786118
40.966881 11.45118 51.765945
41.007717 11.288092 51.455589
47.037628 13.828184 46.957821
49.286842 14.327367 45.216896
49.266685 14.632907 45.064426
60.11895 12.606833 46.781857
59.647125 12.437583 46.849251
61.088554 13.033272 46.374825
68.460388 19.292549 38.369053
68.637756 19.231049 38.386726
48.81057 13.553875 45.761497
48.534317 15.14716 46.619759
38.869572 7.0824804 57.990257
38.985477 6.8306589 58.171333
43.270962 13.205689 52.030548
45.467621 13.882969 50.339512
37.714699 8.6182842 57.703709
37.612869 8.3455973 57.798134
37.320488 9.6215792 57.870564
39.492443 10.917418 56.904037
64.202576 14.40924 45.103939
63.379356 14.116216 45.252285
65.31662 14.901599 44.651596
73.333847 20.821056 36.932117
72.835838 20.662113 37.044983
46.17794 8.9311094 55.425194
52.996498 15.575201 43.678879
52.713005 15.682361 43.619675
40.281265 9.5023241 56.55291
62.406757 17.972679 40.363754
62.278793 17.726814 40.52879
73.001755 21.395248 36.308388
72.641869 21.098421 36.56918
71.951981 20.874149 36.804226
49.312698 9.6607933 54.432899
42.239098 8.379653 56.34848
42.367229 8.066226 56.495132
51.513119 17.413157 44.340042
33.664707 16.238659 60.680134
33.41954 15.921043 60.754307
54.253464 15.598658 43.477081
54.428879 15.856894 43.258507
57.071342 11.578563 49.040024
57.18927 11.550421 48.78244
71.377403 17.971426 41.335434
70.671127 17.80714 41.295536
72.229889 18.452553 40.778675
52.823715 10.912769 53.137089
48.577671 16.215225 49.644905
48.450779 16.070141 49.426376
51.819679 18.387707 46.330009
51.965446 18.397057 46.005001
36.947758 16.366896 57.686848
62.563889 13.566549 46.508286
63.368629 13.880687 46.161354
74.728882 19.905714 39.088413
74.405609 19.928469 38.877464
50.781914 15.593448 43.787426
52.495075 16.160213 43.063824
66.316505 20.848171 37.814106
66.98661 20.92128 37.66576
78.164337 22.703506 35.566448
78.081032 22.480139 35.900005
51.758209 19.06867 47.959122
51.875053 19.228579 48.117172
73.568787 18.750282 40.895943
74.252373 19.159885 40.395214
74.841461 19.271111 40.495735
75.105644 23.518547 34.679829
51.3353 18.768337 48.864761
51.622444 19.026222 48.906635
57.04612 17.69231 41.375767
57.494003 17.771559 41.289501
39.06839 14.231465 57.420948
71.160828 23.078815 35.697704
71.750832 23.021496 35.624512
