# .PCD v0.7 - Point Cloud Data file format
VERSION 0.7
FIELDS x y z
SIZE 4 4 4
TYPE F F F
COUNT 1 1 1
WIDTH 1588
HEIGHT 1
VIEWPOINT 0 0 0 1 0 0 0
POINTS 1588
DATA ascii
56.332298 -56.991882 33.337265
39.6563 -57.151405 28.421009
39.474503 -57.048477 28.621775
55.722198 -57.486 33.815739
52.869301 -56.332283 32.805042
40.014 -56.624077 29.295282
39.797302 -56.696571 29.464094
37.699402 -57.492416 29.407896
44.366501 -63.715378 32.473721
43.702999 -63.928299 32.077038
49.391602 -56.17572 32.253784
48.7813 -56.4244 32.405266
48.522701 -56.597641 32.542839
47.0215 -56.537041 32.220825
47.1628 -56.278259 31.986731
42.0937 -57.175583 31.585371
43.092999 -57.619522 32.206272
43.1315 -57.354767 32.029625
42.3489 -56.706688 31.198795
26.1516 -42.65715 25.115772
25.899101 -42.548882 24.917826
57.628101 -38.993561 21.375069
57.332001 -38.728741 21.360085
21.9151 -37.44112 37.345608
74.638702 -34.398422 21.599226
54.703701 -11.440149 21.352697
13.29707 -42.888111 27.212828
13.34638 -43.00724 26.875845
43.736801 -37.4706 22.493551
43.233601 -37.402279 22.563732
44.490601 -37.348461 22.441633
49.8372 -38.021469 21.911343
49.388199 -37.942608 21.94628
50.672001 -36.763088 21.912292
50.252701 -36.721695 21.978886
53.423302 -40.467766 21.98719
51.953602 -40.386604 22.096184
52.674999 -40.219482 22.002804
50.4683 -41.593555 22.51762
51.7659 -41.593117 22.400341
52.655102 -41.782719 22.377214
45.292099 -33.117126 30.075199
52.969601 -42.574074 22.715025
52.284401 -42.590298 22.817701
50.3111 -32.999649 23.808455
49.619099 -43.746346 24.665174
50.1437 -43.924606 24.776012
40.787102 -45.139412 27.229546
42.4986 -24.728859 23.482149
44.283298 -45.790169 26.950409
39.495499 -38.357082 32.399723
39.289101 -38.571297 32.368851
53.719501 -32.659344 31.978624
52.2854 -46.356522 31.584223
48.269501 -54.334435 28.209494
53.9604 -7.487318 20.638485
43.694099 -74.284096 32.799946
50.207199 -82.540459 33.608307
55.4786 -68.606171 33.117619
55.479599 -68.614082 32.976013
49.1954 -40.171017 22.291492
49.865601 -39.984871 22.199451
51.846901 -42.639523 22.920887
51.932999 -42.72435 22.985174
37.179501 -37.609779 23.131845
37.008801 -37.424805 23.208805
51.777401 -37.452621 21.719063
49.9827 -37.576275 21.883879
50.792301 -37.424782 21.81126
46.977501 -39.409142 22.348492
46.622501 -39.655914 22.420914
51.9548 -36.028214 22.130032
51.312 -36.208656 22.111004
53.551899 -36.139633 21.854595
54.138599 -35.966938 21.875736
54.681099 -36.062973 21.752083
50.4846 -35.835018 22.451141
49.829201 -35.99828 22.442041
43.888302 -42.096622 23.67041
43.4715 -41.977001 23.602476
48.1973 -42.920967 23.886803
48.0257 -43.028294 24.060165
50.437801 -43.020855 23.581196
50.149601 -42.868855 23.449837
38.2118 -41.135387 31.459892
38.6278 -40.959785 31.717514
51.7691 -45.038612 25.559309
50.647499 -45.251961 25.861618
50.643101 -45.502903 26.009451
45.963699 -71.225586 30.770775
43.148499 -73.861916 32.1651
49.439602 -83.170914 33.583084
45.1698 -74.887886 33.74025
44.964401 -74.996048 33.658386
45.140701 -73.554909 33.505989
46.104599 -78.372856 34.71394
46.202599 -75.241371 34.247486
50.595901 -74.533836 35.384193
51.4571 -77.421715 35.906502
52.796398 -74.286339 35.364822
52.5723 -75.729713 35.557487
46.333599 -71.211159 30.755274
45.111698 -76.277641 31.745716
43.946701 -76.95211 32.113613
43.0023 -69.317337 31.525526
44.148998 -80.455254 33.055084
44.0271 -70.232597 32.379837
44.5611 -76.87751 33.729885
48.3228 -72.909843 34.568295
54.137001 -72.895355 32.770813
49.988998 -75.894905 35.516655
50.148998 -72.475494 34.946922
49.961498 -72.44413 34.903111
52.216801 -76.576866 35.717121
51.3312 -75.307915 35.601818
53.154202 -68.242867 34.528984
44.346199 -76.782776 33.588772
51.276501 -74.746872 31.776346
44.595901 -74.579857 33.403076
53.795502 -74.887077 33.252998
44.773499 -72.238396 31.039022
45.1362 -72.093094 30.973372
47.478901 -74.166504 31.259493
52.370399 -71.245987 31.291437
46.4758 -72.716393 33.910164
46.113499 -70.366585 33.336044
45.975399 -72.184555 33.618511
47.486401 -75.225067 34.722366
47.901199 -68.329971 33.575493
53.245899 -72.611885 31.958059
48.012199 -75.627846 34.966724
48.165001 -70.653717 34.090656
52.5317 -69.849152 34.794548
54.952202 -70.818703 33.124397
53.653999 -68.842239 34.567757
43.450199 -76.222572 32.76754
43.9515 -78.429993 32.5056
52.0854 -75.917999 32.33242
47.242599 -77.285507 34.987621
49.444698 -72.854355 34.864563
49.635101 -72.793526 34.897396
52.3671 -74.682602 35.494705
52.473598 -74.793083 35.488396
51.9193 -73.013954 35.279373
50.7495 -73.410759 35.214394
52.449001 -71.249771 35.018364
51.597 -71.913849 31.241837
48.084599 -73.446754 31.141487
52.745399 -71.895943 31.561625
54.124699 -71.444199 32.188644
52.5047 -77.428741 35.6875
50.1003 -79.433266 32.61945
44.671398 -73.663193 33.297295
45.619999 -75.633179 34.067509
46.654301 -75.8526 34.527733
46.817001 -75.699501 34.563828
53.707802 -73.106384 32.419395
51.233501 -74.362976 35.438141
50.483799 -70.148926 34.579639
53.2132 -74.123329 35.210674
43.591999 -75.814354 32.892014
48.422001 -80.365952 32.597454
43.568298 -68.740402 31.869164
44.144798 -72.56749 32.836933
44.4249 -75.293427 33.418999
45.185501 -71.334908 33.136162
45.776299 -72.782982 33.644814
49.678902 -71.3993 34.645462
49.958302 -71.230545 34.674194
49.937801 -73.884621 35.15995
50.698601 -71.558929 34.875782
51.6684 -75.750214 35.685394
52.192501 -67.789505 34.423458
54.0569 -69.980385 34.578964
50.486 -76.174164 31.927174
46.814999 -73.506622 34.178909
49.318699 -70.037598 34.294781
44.492599 -71.912704 31.022587
44.7952 -75.018295 31.536768
43.528599 -73.73806 32.595177
45.308201 -72.864494 33.460632
53.747601 -72.244385 32.160885
53.298 -77.922859 34.372726
50.1586 -69.933708 34.474571
53.673 -72.970825 32.34568
50.2757 -73.489372 35.152706
54.679401 -68.365883 31.55719
46.773102 -78.543266 35.01265
51.331799 -72.853981 35.19725
51.516899 -72.663651 35.186539
43.3792 -68.69239 31.733728
49.1665 -9.2522411 23.555252
45.358299 -4.1816235 21.358749
51.883202 -6.4451847 23.560492
51.728199 -6.6835823 23.585976
43.451099 -1.3638077 19.143394
49.546101 -5.9780865 19.323196
49.737701 -5.5110016 19.261511
54.079201 -6.651165 23.402967
52.2645 3.7985163 20.533829
51.452999 -7.708477 23.727497
43.917702 -4.950696 20.770267
43.7215 -5.0327759 20.656055
43.963402 -1.1359215 19.976824
46.8424 -7.7266521 19.554699
47.797699 -4.091217 22.27113
48.4147 -4.6856365 22.564884
45.150902 -2.1076975 18.675846
53.662701 -6.1011658 20.374126
54.052101 -8.6473083 23.968384
53.919701 -8.6116047 23.992348
50.368 -2.7656012 22.708088
53.725601 -5.2340689 20.371943
52.6152 -7.3193417 23.769665
53.062801 -5.4865313 20.02108
54.4235 -7.2491741 20.966888
54.5508 -7.3540859 21.080219
53.923302 -5.2118483 20.523891
54.201199 -5.9393787 20.765314
54.241299 -5.8303413 20.80608
54.176701 -5.1037941 20.765245
51.682098 -0.97183514 22.495678
52.842999 -2.8678627 22.792122
48.223701 1.4892225 18.092281
54.0173 -6.6479893 20.635471
51.2453 -7.0351639 19.706631
54.821098 -8.2601795 23.507963
44.178101 -6.5503559 21.236975
50.6059 -8.9551067 23.809315
50.908401 -8.8153057 23.839701
50.174599 -5.484724 19.306297
47.0993 -2.47962 21.758675
49.922401 -4.3057003 22.8843
50.071999 -2.9118137 22.675888
52.9049 -5.0164042 23.293125
52.083801 -3.4307728 19.445934
53.377899 -1.4518557 20.129808
53.8237 -2.416563 20.585613
53.902199 -2.5105324 20.692484
53.455601 -1.1807108 20.252043
55.131901 -6.9528694 22.332302
54.674099 -6.5407238 22.9916
44.844398 -5.9440336 19.334921
43.751999 -2.3247652 18.982964
47.032902 -4.818265 22.136364
47.258099 -4.7939816 22.210728
46.495098 -4.1809082 21.828693
49.918598 -5.4840202 23.081713
48.578999 -4.127883 18.93733
51.135399 -5.4586554 23.298706
50.980999 -5.6440372 23.307529
44.2519 -2.8870182 20.548706
44.1077 -2.8620005 20.456785
46.8829 -3.8146915 21.9102
48.373199 -2.046895 22.106224
48.134998 -1.9999046 22.025467
50.717701 -4.6622601 23.09654
52.2598 -5.1454716 23.346649
45.411999 -2.0454025 18.640999
54.718899 -5.1807308 21.739243
53.186699 0.41545773 21.385479
44.441002 -3.5707617 19.001583
50.5443 -4.6910667 19.230286
47.716 -1.8140459 21.856932
47.512402 -1.9583073 21.813351
50.452099 -5.0804052 23.120211
52.1954 -3.1974115 19.463306
53.091 -6.0364323 23.499689
52.965199 -6.0431519 23.512245
47.528801 -0.49428177 21.559284
45.245998 -8.4418297 19.75157
44.209499 -8.5830536 21.650938
44.496101 -2.0375195 18.757114
50.9487 -4.0052204 23.022017
52.387798 -5.2500229 23.36874
52.872799 -6.5602951 23.624046
52.7276 -6.4915924 23.613455
51.942402 -1.7708387 19.236986
54.049801 -3.8622789 20.703938
54.083599 -3.7876253 20.753578
51.6395 1.33146 21.939972
53.4366 -1.0880194 21.860949
55.1861 -8.9490185 21.719429
54.366699 -8.5406303 20.965519
53.4422 -5.0447235 20.180008
52.0173 -3.5313263 23.026594
50.702599 -6.1546555 23.347506
53.3195 -7.3908215 23.773739
51.766102 -5.1913834 23.326414
53.8881 -4.3473663 20.504005
53.900501 -4.1250715 20.523113
52.5616 -5.0296478 23.320539
52.6465 -4.9180126 23.29253
52.540501 -3.4740982 22.984314
51.779099 -1.7895718 19.177973
53.028999 -4.291214 23.105242
44.683399 -4.4172001 19.1019
14.19053 -34.985359 24.146809
13.30858 -33.063854 24.763655
14.11675 -36.799179 24.468941
14.30816 -36.632271 24.288517
16.30188 -33.993515 23.432577
15.99822 -34.988537 23.453316
16.529991 -36.347935 23.436335
13.88673 -38.662064 24.99308
13.19421 -35.032806 25.893291
13.20188 -35.134426 26.133598
13.1228 -33.096336 26.415327
14.371469 -42.053078 25.229769
14.63303 -42.190193 25.083315
14.13787 -41.867161 25.367945
15.82131 -43.057392 24.866093
19.328831 -33.316483 24.038689
13.26386 -37.040543 26.231144
13.25211 -36.789612 26.336643
13.30216 -39.025154 26.570555
13.29626 -39.236115 26.795395
14.89463 -42.227921 24.948263
18.106659 -42.231983 24.334951
16.99329 -43.012882 24.66185
20.5257 -40.916191 23.941072
22.7635 -35.735172 23.38826
24.313301 -36.132877 23.470245
20.2812 -42.945503 24.518187
18.0082 -44.220161 25.105623
24.009201 -34.63377 24.519093
15.757589 -31.159065 26.910822
26.6346 -37.072601 23.517769
26.4576 -35.598141 24.200523
21.6873 -40.315403 23.829105
22.6716 -39.361645 23.669979
22.7999 -39.741879 23.742794
15.608971 -46.446533 26.367641
25.735199 -40.1175 23.874592
25.5854 -39.749146 23.800634
24.2283 -40.775173 23.987553
24.0569 -39.567635 23.739902
26.0341 -38.345467 23.572906
27.6542 -38.650623 23.624603
21.3953 -43.197357 24.672951
21.8368 -43.680275 25.099184
20.0289 -44.375191 25.387375
19.652859 -44.302349 25.247623
16.023029 -46.927143 26.789732
14.79914 -36.700516 33.519779
16.576 -32.280025 27.447346
24.510399 -41.18528 24.095963
24.436901 -42.98156 25.038736
24.868099 -42.554428 24.708439
19.89072 -33.642605 27.366274
21.2819 -33.858513 27.055161
17.500141 -34.81493 28.922205
24.1936 -42.013668 24.336678
24.7304 -34.971786 27.210293
23.474701 -35.084167 27.566328
19.524399 -45.955738 27.229977
15.05526 -37.311268 36.888817
18.3521 -36.229069 31.613554
17.08729 -36.197308 32.270519
37.313698 -39.755989 23.232592
36.511398 -39.567036 23.269348
15.20504 -46.398247 29.505363
32.346298 -34.704273 25.681597
31.0333 -34.889595 25.555462
20.105 -36.12468 30.12146
41.0186 -36.444572 23.388144
40.7239 -36.205807 23.599108
40.8167 -36.699623 23.232193
44.282799 -38.636639 22.468094
44.331799 -38.442497 22.439234
31.2987 -41.794357 24.777674
21.5571 -36.114895 29.682287
21.6549 -36.019783 29.384346
23.090401 -36.212776 29.688072
23.2276 -35.847275 28.777876
16.71435 -39.526253 32.825821
17.546329 -39.928467 31.898071
24.7003 -35.799175 28.55311
24.5326 -36.224941 29.516581
25.834099 -36.114006 29.133904
33.4104 -34.192307 26.925442
17.368229 -42.50259 29.948036
45.735001 -41.400841 22.88784
44.998299 -41.267612 22.91321
43.488998 -41.404041 23.102924
41.518402 -41.073479 23.168243
52.792702 -36.415688 21.808205
52.5742 -36.531124 21.782387
52.9953 -36.289551 21.845753
35.076302 -34.185989 25.677628
35.316498 -34.439556 25.508245
18.814999 -42.240356 29.707039
20.1719 -42.077801 29.448383
20.1112 -41.75906 29.598108
19.754829 -40.523735 30.555542
19.81332 -39.919689 31.477356
21.181499 -39.780087 31.514679
22.5292 -39.655174 31.554493
23.380199 -36.572987 31.470198
21.5986 -36.456882 34.970612
21.1346 -36.405422 35.303333
20.225601 -36.37923 33.970741
20.137901 -36.357273 34.519669
50.8811 -41.408775 22.427097
50.038502 -41.235035 22.454727
48.297199 -41.417461 22.661152
46.1908 -41.259224 22.804138
44.424599 -40.932949 22.872793
45.795601 -40.915905 22.747723
59.3862 -36.649014 21.055059
58.549599 -36.80566 21.119144
62.300201 -36.443851 20.8284
62.7617 -36.60458 20.783588
60.647598 -36.963387 20.938723
37.108002 -34.377071 25.290781
36.811501 -34.160797 25.427197
36.6199 -33.865234 25.575588
47.076099 -35.353382 23.267265
47.460999 -35.167652 23.328341
58.495899 -35.947205 21.340366
57.953899 -36.110386 21.330006
61.278099 -35.749825 21.111057
60.555302 -36.143036 21.034262
21.7374 -41.604336 29.345707
21.545101 -41.88176 29.243731
37.808701 -32.806248 26.718723
38.6712 -33.23875 27.551247
39.883598 -32.771851 27.433228
39.4739 -32.631138 27.134228
18.19264 -37.570831 38.374462
42.074299 -34.561821 24.480259
41.6572 -34.777744 24.425907
40.921402 -41.999176 24.071585
41.121002 -41.865715 23.859882
38.7803 -42.076202 24.542919
39.320198 -41.699303 23.929451
58.781502 -40.289215 21.502502
58.3979 -39.951988 21.47201
56.820599 -40.704308 21.74791
55.094501 -40.585419 21.869329
53.654202 -40.007027 21.880291
54.9104 -39.759716 21.729736
34.873802 -43.061333 26.670986
35.052002 -43.287117 26.976454
35.0518 -35.765247 30.008427
35.299698 -35.925346 30.286758
38.968201 -33.987171 28.757971
36.8951 -34.31155 28.446161
36.620102 -34.52845 28.694904
38.258102 -34.507023 29.359478
20.882801 -36.30875 37.957573
42.877602 -41.573181 23.277597
43.7896 -41.578732 23.166656
42.286499 -41.618374 23.395029
62.1311 -39.072289 21.0236
62.438301 -39.403336 21.053448
60.839401 -39.852409 21.254717
32.5154 -43.246174 27.642309
36.5112 -33.578083 25.685555
38.0728 -34.656773 29.546221
36.4445 -35.080872 29.567184
40.352402 -33.072739 25.093904
39.255798 -33.673023 25.206432
55.292599 -34.419529 22.635351
55.9361 -34.128948 22.704807
52.620499 -34.488827 22.959297
52.175499 -34.323048 23.105339
53.764 -33.82185 23.121939
63.966499 -37.330112 20.710396
63.8326 -37.701374 20.743649
66.057205 -37.023293 20.567921
36.730801 -35.547195 30.40773
36.5606 -35.389717 30.122042
37.7085 -32.677135 25.572411
39.467598 -32.046177 25.242298
39.193501 -32.373234 25.299948
60.6703 -41.198406 21.532
57.566101 -40.995316 21.746258
64.642899 -34.596153 21.440735
63.059299 -34.427544 21.727217
66.264198 -38.595154 20.71714
39.089302 -35.479866 31.290043
39.460602 -35.560257 31.515934
40.770699 -32.681099 25.055281
39.4622 -32.606655 25.253445
44.974499 -33.704094 24.380033
42.1553 -33.850468 24.742548
41.6479 -33.62112 24.858099
23.297199 -38.062294 35.045937
22.551701 -37.826504 36.054314
60.899101 -34.327076 22.031525
61.337502 -34.086201 22.152546
58.378399 -34.331734 22.309719
58.011299 -34.031635 22.524185
59.673302 -33.549732 22.639282
66.179504 -34.626503 21.30488
69.275803 -35.346874 20.610806
67.583 -35.326851 20.723776
63.854401 -39.321697 20.941154
30.1777 -41.958969 28.930225
53.3293 -33.657539 23.245829
51.062599 -33.802097 23.491949
50.831902 -33.586033 23.596083
56.7766 -42.143547 22.114328
58.503399 -41.994499 21.910368
60.023102 -42.118141 21.810957
60.730099 -42.616035 21.915007
42.595299 -43.589863 25.889523
41.5313 -43.311367 25.75514
34.759598 -37.823376 31.042934
36.242798 -36.914867 31.158733
40.867798 -35.071682 31.521984
40.516098 -34.989647 31.269707
47.6959 -32.967361 24.138409
63.021301 -42.231304 21.594734
60.728802 -42.020447 21.723475
60.020802 -41.786949 21.723175
61.240398 -41.488346 21.550224
68.695404 -38.356247 20.625471
38.505402 -36.227234 31.586525
40.747902 -29.213566 24.732546
43.995499 -33.041412 29.367805
44.4198 -32.835197 29.202991
46.536701 -32.603367 29.690239
47.041698 -31.671474 28.672859
62.635601 -42.957642 21.880959
35.804501 -42.649815 29.507002
45.9291 -43.024231 24.484018
31.9538 -41.834339 29.27944
30.480101 -41.72356 29.150402
34.609802 -38.210064 31.091824
45.967999 -31.347683 28.090488
44.151402 -30.242867 24.389511
43.285599 -31.360527 24.644159
42.714699 -30.266609 24.55834
70.049896 -37.61454 20.534138
71.592606 -37.175171 20.521997
39.0424 -44.225918 27.115601
71.334999 -34.796894 20.947245
72.234802 -34.413181 21.371002
74.842102 -36.176174 20.709858
74.887802 -35.855629 20.707409
73.294495 -36.679291 20.581005
73.377502 -35.747425 20.551105
73.173904 -37.095467 20.602562
38.144798 -45.234356 28.541973
43.919498 -43.701706 25.759111
46.404202 -43.982986 25.565006
45.041302 -44.073124 25.913605
38.293301 -39.233387 32.140049
35.933098 -38.627876 31.467484
36.196098 -39.034184 31.576698
44.546101 -35.262543 33.026993
45.3382 -34.449314 32.472858
44.866901 -34.6073 32.512085
44.543499 -34.785587 32.622219
44.6427 -28.956158 26.390465
46.576 -33.078125 30.588932
48.080101 -32.889416 30.892069
48.362099 -33.654388 32.397678
47.9981 -33.892754 32.638733
46.582699 -33.700523 31.772085
45.2113 -34.16449 31.977573
45.675098 -34.232338 32.275787
48.8494 -31.874653 24.060135
49.2299 -32.060341 24.020588
48.556801 -31.545952 24.082619
59.518799 -43.952305 23.070969
59.2892 -43.801685 22.931232
50.2981 -43.364403 24.042877
49.972099 -43.646992 24.4702
33.5326 -42.028152 29.446026
35.592598 -42.357002 29.689325
36.151398 -42.196064 29.971466
34.868698 -41.532188 30.166649
32.0737 -40.89959 29.994385
33.487198 -41.12376 30.128752
35.8228 -39.298492 31.467333
40.4594 -42.991756 30.50758
40.0499 -43.197124 30.215912
39.6964 -43.328716 30.016127
34.9687 -39.717102 31.192345
40.185402 -39.962975 32.626633
41.261902 -37.944275 32.854855
41.196602 -38.214043 32.876934
47.123901 -29.2029 27.154123
47.542702 -27.976112 26.788115
46.778099 -27.91198 26.573111
41.390602 -26.179501 24.162231
44.231998 -27.749329 23.936014
45.0392 -26.645504 23.632862
47.981201 -34.43676 33.386559
49.569099 -34.320988 33.710274
50.752201 -30.29385 23.798628
52.113098 -29.861351 23.665747
67.171997 -44.05051 22.197859
76.034798 -34.698677 21.431129
76.011703 -34.482277 21.704191
72.131195 -41.712795 21.29546
47.9216 -44.700329 25.899332
48.3363 -44.868198 25.943573
40.777702 -38.672157 32.806923
39.9408 -39.177597 32.60157
49.808498 -33.481224 32.602318
52.870098 -31.806137 30.347992
51.331799 -32.047298 30.411333
53.734001 -29.661411 23.579384
55.189899 -29.730915 23.558374
44.2183 -45.150333 30.212837
40.6031 -49.231579 28.57999
39.9645 -47.910744 28.465765
40.2108 -42.702721 30.694429
39.902702 -42.470036 30.81739
43.1674 -37.067421 33.246643
46.340099 -25.718189 25.793711
46.579498 -27.058098 26.241447
47.073502 -26.745266 26.277603
49.949299 -33.674095 32.943592
50.772701 -30.233128 28.477018
52.253101 -30.014957 28.623053
59.658699 -30.236053 23.648411
58.965099 -29.063366 23.686249
59.301201 -30.464409 23.599541
73.3927 -33.196053 23.31481
74.672997 -33.469788 23.113972
78.192902 -35.933208 21.279236
78.070801 -36.247982 21.236681
73.136703 -43.056103 21.707247
74.411102 -42.721783 21.746033
41.1437 -48.494942 28.835943
40.059898 -47.65062 28.54567
42.691299 -49.833729 28.016756
41.677902 -48.953327 27.998499
43.003399 -38.122307 33.39315
42.7542 -37.838676 33.279266
45.573502 -47.330967 27.237852
45.4632 -47.003658 27.169487
46.5163 -37.88892 34.354527
50.645302 -35.429306 34.844868
47.3904 -39.062786 34.667622
46.879101 -39.341099 34.523155
46.272099 -38.511036 34.342064
44.0942 -39.135651 33.765469
44.576199 -39.337173 33.897572
42.056599 -20.582094 21.779646
48.577 -26.86779 23.411121
49.228401 -26.764214 23.3587
47.913101 -25.598896 23.196966
48.282299 -24.847519 23.022835
49.766399 -25.450722 23.095758
53.041801 -32.386982 31.371201
54.381699 -32.314903 31.417183
66.462097 -45.28997 24.173544
53.4147 -44.723854 25.047232
53.638302 -44.929951 25.2006
55.595501 -44.810875 24.786907
49.392502 -24.940647 26.344997
57.3242 -30.448086 29.362194
57.192402 -30.742828 29.576632
67.688797 -32.055653 23.816229
61.520199 -45.475239 24.743351
60.020901 -45.669498 25.098581
42.3419 -49.284668 29.165768
45.191601 -43.336872 31.61747
45.261398 -43.068588 31.887589
50.655499 -46.427723 26.450159
50.456699 -46.738335 26.581501
48.838402 -38.224041 35.055771
46.805599 -38.226917 34.472816
46.4506 -24.637577 25.542032
45.850201 -24.564167 25.357145
47.060799 -23.146973 25.392063
45.757099 -22.984097 24.995281
45.311001 -23.383949 24.92975
51.1889 -27.627254 27.463413
52.248798 -26.717205 27.376568
52.085899 -26.147213 27.190157
55.411499 -33.498112 33.863308
56.621101 -26.650532 23.401072
58.018101 -27.817192 23.602409
57.039902 -26.688408 23.444824
67.375801 -30.856472 25.035172
66.674805 -45.425362 24.46357
68.333 -45.423248 24.535456
82.380997 -34.438438 23.928614
79.756104 -36.407608 21.653603
79.479599 -36.724525 21.585075
80.607697 -37.366131 21.929104
73.1763 -44.702835 22.901503
75.928299 -42.5121 21.886547
77.261597 -42.471737 22.091835
49.8302 -46.778564 31.092236
43.6516 -47.539707 29.591618
44.472099 -48.519966 29.758251
44.951801 -47.47781 29.931137
44.187599 -48.900307 29.676685
44.529202 -49.316845 29.769924
42.577 -48.885403 29.238308
45.740002 -50.932751 27.870354
43.929199 -50.765968 28.020363
43.887699 -50.049751 27.916323
45.3125 -49.403297 27.665436
45.947899 -49.663792 27.647375
45.867699 -41.541233 33.479042
45.682098 -41.773167 33.238258
45.4422 -41.934135 33.033096
52.1782 -35.874924 35.599003
53.335499 -35.780762 35.960243
73.332901 -32.118748 25.52062
72.914398 -32.107994 25.326504
75.142998 -32.583519 25.188288
73.900299 -32.588955 24.618443
50.377499 -45.303383 31.594807
49.584499 -48.686321 27.165487
49.7295 -48.299564 27.068058
47.452099 -41.097343 34.180725
47.747501 -41.338413 34.091427
47.453098 -40.850628 34.326801
46.267101 -21.441185 25.049837
59.248901 -31.645863 30.438639
51.335999 -20.444658 21.964783
51.2467 -20.104534 21.837273
69.987 -31.298058 25.69581
69.818405 -31.376301 25.430597
71.488205 -31.654209 25.720936
82.6735 -35.957653 22.60738
81.536499 -35.651775 22.254534
81.864197 -35.40696 22.423803
75.540703 -44.752361 23.509205
75.263702 -44.878662 23.858301
58.4244 -46.210484 25.694252
53.515202 -48.279427 26.844221
53.5555 -47.88623 26.726301
52.183701 -49.004669 27.083633
46.216 -51.185139 27.870037
47.546299 -50.740192 27.696629
45.0709 -51.939281 28.080896
44.1889 -53.037819 28.31039
47.5648 -41.620644 33.841843
46.876999 -42.034367 33.328487
50.974602 -39.137466 35.656715
50.717999 -39.494343 35.523361
40.9655 -19.534672 24.265203
56.8148 -33.441532 34.104141
65.012299 -45.600357 24.75473
80.484901 -33.638958 25.15659
75.744499 -32.49794 25.901106
77.427498 -32.912163 25.595146
79.053802 -43.950386 23.06863
48.9366 -52.602612 27.93203
49.389702 -52.069675 27.818787
44.179901 -54.102425 28.42308
49.820499 -42.058201 33.944283
51.446602 -41.987873 34.267685
50.656399 -41.211163 34.748615
54.9729 -22.308453 22.75617
56.120899 -25.154751 23.219423
55.4366 -23.719505 22.990456
51.665798 -48.832767 31.31513
52.068699 -43.999599 32.627193
50.5345 -43.910671 32.473312
54.241402 -50.38628 27.399113
54.029202 -49.761116 27.241114
53.220699 -51.506775 27.645151
52.478901 -51.51347 27.644049
51.806999 -50.254005 27.383932
52.372601 -49.610626 27.225595
49.257198 -40.186878 35.006161
43.6856 -20.183964 24.737253
45.041801 -20.324673 25.039764
43.873402 -18.213776 20.161091
59.295502 -32.746075 32.948318
60.530399 -32.381073 32.002464
55.053699 -20.299742 22.442841
54.57 -20.16383 22.317587
58.586498 -24.140011 23.870861
69.575195 -30.929123 26.793612
77.25 -44.717873 24.130383
50.0979 -52.540348 31.35627
49.680099 -51.100246 31.116863
49.365002 -51.554504 31.095215
44.919201 -19.579679 25.410479
46.239799 -19.678505 25.653938
53.460602 -25.80785 27.300808
52.905701 -25.443642 27.134232
54.593102 -24.524673 27.099123
53.098099 -24.074421 26.836039
39.784203 -18.59609 24.265902
40.504402 -15.070597 19.945295
45.169701 -18.014692 20.210381
45.464298 -17.724977 20.171877
53.0056 -18.359034 21.512962
52.876598 -18.749485 21.611319
54.4846 -18.573608 21.88661
72.589798 -45.465351 25.557259
72.338699 -31.646244 26.642015
72.143997 -31.559635 26.999569
51.727501 -49.71246 31.367382
52.026299 -49.222012 31.382343
53.557999 -49.070881 31.580612
52.909401 -40.313034 35.749969
63.372101 -32.774979 33.608467
63.027802 -32.894321 33.95211
60.698898 -32.799625 33.291328
61.029701 -32.925819 33.733154
62.203999 -27.718655 27.071735
79.352097 -33.201275 26.351147
79.694801 -33.298443 26.133522
79.622803 -33.308819 25.897875
70.227905 -31.11681 27.412495
73.435799 -31.850704 27.074764
82.5755 -42.117367 23.373085
50.576302 -52.501705 27.86105
50.395302 -53.151154 27.982653
52.0947 -52.190388 27.784376
52.4841 -52.712879 27.890011
38.9739 -17.03149 24.145147
40.332298 -16.918612 24.595842
40.531898 -16.592062 24.633785
59.880798 -25.986454 27.024424
48.778099 -17.243876 20.521385
86.449097 -40.758064 24.639738
85.304901 -41.372784 24.253445
50.983101 -53.533249 31.666599
51.895901 -54.334282 31.972038
55.346699 -44.459866 32.551365
54.454498 -42.289825 34.393425
53.0816 -42.109592 34.392818
53.122501 -41.792641 34.677505
52.957802 -18.706276 26.9235
47.019299 -16.797937 20.241871
59.2617 -36.270435 37.44696
57.835602 -36.520489 37.323402
53.7677 -17.916315 21.534788
56.286201 -19.135138 26.924385
45.771599 -16.660854 25.934998
42.8316 -14.412643 24.637287
43.1689 -9.2901325 21.133013
60.266102 -25.952114 26.818939
58.716202 -47.365093 31.856903
59.794701 -46.702568 31.879702
56.399101 -51.836918 32.00843
56.967602 -50.594936 31.914635
54.875 -50.474537 27.435297
47.350899 -16.420605 26.206808
47.070202 -16.753721 26.194973
48.195 -17.319094 26.433475
45.6427 -12.046307 20.297413
49.823799 -10.731539 20.142452
47.8801 -16.212154 20.369621
64.936798 -32.888451 34.16391
64.553604 -32.994019 34.462982
65.5812 -33.24382 35.296829
65.305298 -32.286663 31.763338
64.377197 -32.474556 32.582001
65.697205 -32.547638 32.918503
70.708405 -31.576786 28.452572
59.4814 -15.55052 23.203411
75.378502 -32.297031 27.263384
75.722801 -32.395981 27.449099
82.125198 -43.973488 26.486153
56.007999 -53.272846 32.161499
52.8298 -55.008286 28.307323
53.1978 -17.721661 27.083351
50.351799 -12.409107 24.649359
49.680199 -10.433144 23.913658
49.254398 -10.615772 23.853456
44.298401 -15.933971 25.506771
44.2757 -15.554863 25.412609
45.6968 -16.255177 25.86367
60.7645 -36.120899 37.549858
62.324501 -36.139957 37.645618
61.386101 -35.251198 37.292931
66.998795 -32.633881 33.260376
69.277496 -32.071537 30.010147
69.033295 -31.90826 29.702011
70.848602 -32.291073 30.118414
55.688702 -14.774212 21.866894
54.982399 -13.371235 21.565489
55.233398 -13.008621 21.697395
53.4827 -13.317707 21.077805
76.927696 -44.963219 26.644543
75.588799 -45.175045 27.068346
60.073898 -49.713223 27.724663
59.834801 -50.938416 28.297194
58.936501 -50.346443 27.778782
61.716499 -38.893681 37.962414
61.166199 -17.16741 27.020756
52.781101 -11.028379 24.529882
53.0882 -10.801542 24.507959
48.948601 -12.914928 20.408403
50.502701 -13.22134 20.55378
50.9674 -13.48798 20.639057
51.305401 -13.177748 20.648388
48.300999 -9.9046631 19.946163
48.6022 -11.39924 20.196833
64.186005 -34.49242 37.11182
55.280701 -12.578056 21.749348
55.090099 -11.929918 21.628372
60.214298 -50.980526 28.502354
79.2537 -33.519802 28.414597
80.940804 -33.871552 28.100708
78.840797 -44.60873 27.052851
83.023499 -43.537502 27.681435
82.776398 -43.66655 27.431026
59.672901 -44.369297 32.657246
58.980701 -43.944523 33.014412
53.115898 -55.363586 28.375851
52.453999 -56.742699 28.513737
57.807999 -14.862936 26.604769
57.929001 -15.18408 26.790962
49.421001 -14.039995 25.740028
46.707699 -9.0599327 19.801601
76.140999 -32.743038 28.398264
76.313904 -32.687923 28.106155
78.5411 -33.139072 27.841272
82.481903 -34.324234 27.870903
80.7425 -44.184986 27.351212
80.888199 -44.102146 27.599863
60.043098 -50.110203 31.514788
59.780701 -49.869583 31.615942
57.611301 -52.249249 31.976341
53.0299 -14.353481 26.260471
64.010605 -36.077888 37.665344
76.146896 -44.986198 28.309235
81.4897 -43.494759 28.857357
83.1987 -43.163692 28.440058
59.114899 -51.314938 31.697159
58.520302 -52.583061 31.81719
58.729401 -41.88995 35.268177
58.218399 -41.021156 36.132545
54.059299 -56.271179 28.618216
52.8643 -57.020638 28.587318
52.740799 -16.567654 26.982428
52.442402 -16.292744 26.907757
53.519402 -15.674612 26.8671
51.634899 -8.5006199 19.99518
52.0326 -9.9955559 20.291626
50.140099 -8.473259 19.785248
50.105099 -7.1190033 19.562866
50.424702 -7.269598 19.622705
50.956501 -8.9529076 19.957079
76.1203 -44.944592 28.555561
79.156601 -33.588284 28.587717
87.786201 -38.953255 27.117104
59.773602 -40.983871 36.387749
59.666199 -40.633537 36.743721
61.585499 -41.404415 36.155952
61.2169 -40.499374 37.124508
72.542603 -45.464622 29.646091
72.319305 -45.416328 29.873917
80.482597 -43.317699 29.578159
81.254204 -43.425011 29.097441
52.265499 -8.2672577 20.088573
51.876598 -6.7319317 19.785667
63.036301 -49.415733 29.860981
65.135895 -46.778503 30.969357
72.553696 -45.218208 30.107216
74.872803 -44.615723 30.063635
72.0644 -44.730686 30.866291
79.867996 -43.091228 30.056908
64.181999 -47.467133 30.860687
66.848404 -43.112709 33.938
66.667702 -43.357952 33.568775
68.092606 -43.58316 33.094883
56.801201 -56.694687 29.345739
55.933701 -58.31456 29.390842
55.886101 -57.88176 29.293123
73.521896 -33.116634 31.327642
62.794498 -49.519302 30.136856
55.516602 -11.021967 24.0975
66.4478 -42.910656 34.28458
68.929298 -41.415619 36.27034
67.444504 -40.727383 37.120235
67.560699 -41.06955 36.790443
85.0271 -40.335274 28.657419
85.311897 -40.648388 28.561523
83.685799 -40.533657 29.14077
84.304497 -41.401974 28.962688
69.766403 -42.391861 34.790276
68.414398 -42.245655 35.188129
79.6063 -36.739136 29.593842
79.611198 -36.178425 29.478626
78.425797 -35.363144 29.60416
82.270103 -40.701176 29.594149
82.4692 -40.985516 29.557161
80.781998 -40.847374 30.029043
81.347504 -41.63599 29.933838
80.7957 -40.45623 29.97551
55.479801 -9.891058 23.579357
72.485901 -44.241821 31.315121
71.326004 -43.54567 32.575584
73.697495 -43.323536 32.125576
75.382599 -42.23465 32.289379
74.912804 -41.572399 32.887062
45.3484 -66.241608 29.919979
45.031502 -66.470932 30.000971
45.0728 -67.812531 30.254255
47.454601 -68.972473 30.365852
51.143101 -65.21138 29.806986
51.032299 -68.731026 30.521175
51.409302 -68.46653 30.522812
51.702702 -68.15477 30.503948
52.785301 -65.291092 30.085133
53.252201 -68.098526 30.819504
53.802101 -68.526596 31.121426
54.0271 -69.186729 31.409351
48.2113 -66.984451 33.445778
55.612598 -65.336304 33.848934
55.068802 -66.430054 33.997314
53.556702 -59.224159 28.914143
53.4389 -59.646156 28.918831
48.205502 -60.307632 28.085941
48.295101 -60.612297 28.127802
49.5662 -59.837982 28.263994
49.687099 -60.807823 28.361881
53.030499 -62.22197 29.307674
51.704498 -62.202217 29.052883
57.643299 -62.241203 30.611807
59.1731 -62.322723 31.234989
59.225201 -62.577759 31.42354
59.867599 -61.441254 31.021267
51.228001 -57.814667 28.483299
51.367699 -57.276215 28.486578
49.8652 -58.29435 28.342791
50.087101 -57.077271 28.4147
49.2985 -59.517982 28.21756
48.823002 -61.900734 28.49604
50.185001 -62.116051 28.775021
44.423302 -58.733902 27.69912
44.556499 -59.027069 27.667395
46.1917 -59.191673 27.830364
51.5868 -65.361397 29.898354
45.2118 -60.278862 27.702093
46.807098 -60.431404 27.906357
46.424599 -59.455551 27.842623
45.0149 -59.98037 27.670147
47.4702 -61.718506 28.247574
46.108398 -61.53019 28.018745
44.188801 -62.277649 28.132133
45.5774 -62.524811 28.346905
39.7113 -60.764175 27.506618
39.8979 -58.645897 27.576859
41.2052 -58.330917 27.641333
42.5956 -62.12429 27.988308
41.2719 -62.104485 27.932491
38.4277 -60.05806 27.509995
42.8643 -56.464211 28.406956
57.8773 -57.975578 34.041279
57.164501 -62.340477 34.67598
56.226799 -59.844063 34.86018
56.1782 -60.226074 34.907333
52.990601 -55.075729 32.304947
53.672501 -56.711823 33.138618
52.135601 -56.528389 32.888363
48.815102 -63.893768 33.48278
53.844101 -61.005135 34.791454
53.214901 -60.022476 34.679924
52.348598 -60.886215 34.657368
50.8274 -59.781158 34.38768
52.7995 -59.729767 34.599674
53.069099 -59.331451 34.550461
50.561401 -56.201805 32.469284
50.1217 -57.270821 33.35741
44.986198 -63.466751 32.840874
43.736198 -63.37059 32.584015
38.088402 -59.878998 31.417515
38.0145 -59.531395 31.30595
48.1698 -62.186508 33.948795
49.473598 -62.004585 34.170269
48.400002 -61.276108 34.11097
42.8475 -61.978737 32.911152
39.909698 -57.93084 31.389648
43.094898 -57.913857 32.384998
45.221199 -58.92688 33.285995
46.8153 -58.873421 33.569016
39.204102 -60.214073 31.887541
39.274498 -59.815903 31.855442
44.8531 -60.939705 33.498245
46.5093 -61.022346 33.813889
48.938202 -59.841812 34.138119
48.264099 -59.085876 33.878712
47.292801 -59.837776 33.884567
48.279202 -60.683395 34.108711
43.0797 -59.698509 32.991718
43.645901 -59.141678 33.002487
14.06083 -35.2057 24.286798
13.49819 -36.557865 25.183289
13.41716 -34.75824 24.949404
14.023701 -38.524147 24.831394
16.698629 -33.079552 23.597748
13.444139 -36.698582 25.346972
13.59993 -40.204285 25.665184
13.86118 -39.982796 25.24436
13.53045 -40.202259 25.831001
13.43906 -38.592831 25.788239
17.01944 -38.862061 23.640581
15.384291 -41.232414 24.481678
13.33371 -39.313545 26.441504
19.949139 -36.150635 23.232468
20.1768 -35.883347 23.218258
18.461029 -35.759415 23.243286
18.515781 -37.513294 23.389355
18.85585 -37.143032 23.337734
18.16321 -36.016212 23.269791
14.14776 -43.50695 25.726274
17.10107 -39.88641 23.805351
16.43124 -41.64101 24.310154
18.39143 -41.163223 24.02869
15.69124 -43.562096 25.057053
15.99815 -43.91029 25.109451
13.39353 -37.061222 27.573711
13.31892 -40.786983 27.400593
13.33857 -40.766479 27.716726
26.389 -37.288849 23.488617
24.5345 -36.924961 23.400846
19.203671 -44.231491 25.164017
18.62533 -44.326797 25.199415
18.107651 -44.66692 25.377014
18.076111 -45.008709 25.597607
17.07324 -31.788185 26.993971
28.5506 -37.166691 23.598057
21.565899 -41.145218 24.001816
16.83614 -46.014664 26.187481
18.02594 -45.269726 25.79426
21.615299 -41.902821 24.189016
17.08112 -32.201138 27.261271
18.36591 -33.095173 27.475208
22.8864 -42.117786 24.30595
23.5145 -41.846081 24.252832
18.437359 -33.517284 27.735512
27.2293 -39.895561 23.83754
28.973801 -39.996132 23.836132
31.5861 -37.680367 23.457115
33.250702 -37.757721 23.362785
24.2136 -41.602535 24.204691
14.82362 -36.873051 34.985306
17.92885 -35.345978 29.311634
33.357498 -37.561436 23.400827
31.2528 -36.423309 24.046017
24.3776 -43.126038 25.222517
22.735901 -43.716869 25.528004
29.1924 -40.33131 23.912811
27.6096 -41.266865 24.243704
27.5492 -40.899338 24.089634
31.0044 -39.692577 23.691269
35.211998 -37.889786 23.22541
37.644798 -38.201691 23.020012
37.1385 -38.436562 23.066067
34.1217 -38.476192 23.301434
24.8976 -35.634338 28.240028
26.3004 -35.465332 27.887232
15.251471 -36.403324 34.875267
15.551889 -36.29311 34.9855
15.93051 -36.210754 34.840397
16.25219 -36.211605 33.395897
32.136398 -35.660461 24.75238
33.8433 -38.732517 23.351362
22.661499 -43.849773 25.786663
16.22427 -47.941696 28.537855
30.8549 -35.077728 25.336199
32.127998 -35.413452 24.987072
15.170321 -45.926613 29.610558
23.2764 -35.696037 28.475216
17.985849 -36.015701 30.494198
19.665249 -36.055004 29.997173
19.785671 -35.978825 29.691502
40.6073 -37.116463 22.996637
41.0989 -37.213451 22.893454
41.3908 -37.338707 22.801008
34.544998 -40.254997 23.559532
34.097198 -40.012093 23.535416
30.9044 -40.247841 23.818951
31.3857 -40.013363 23.72863
30.173 -41.56588 24.524321
17.4771 -47.411949 28.476818
18.62528 -46.802639 28.382092
17.17881 -36.106056 36.562881
17.283081 -36.170685 35.252499
34.927399 -35.887997 24.462273
33.557098 -35.703316 24.690147
37.9128 -36.861198 23.440556
40.3139 -36.907475 23.151033
35.579498 -40.619194 23.579903
35.1348 -40.388985 23.548885
41.6203 -38.244396 22.66667
45.3717 -37.992283 22.312408
46.213902 -38.05228 22.238199
16.31962 -39.034256 34.113045
16.30312 -38.512943 35.62986
15.97546 -38.420242 35.83366
15.99316 -36.13319 36.65662
16.17314 -36.062294 38.114864
32.742302 -41.282318 24.192348
40.7453 -38.843731 22.80933
40.539398 -39.16518 22.86997
49.098099 -38.159393 21.988333
45.983501 -38.433495 22.292774
23.1521 -36.293293 29.938051
15.80172 -38.286179 36.133839
16.65727 -38.410973 35.933468
21.120701 -36.378876 31.108902
20.9991 -36.404552 31.442427
36.3545 -36.069492 24.203457
37.9002 -36.241657 23.913509
46.661098 -36.789108 22.414318
46.344101 -36.60994 22.553368
41.7299 -40.318859 22.968166
42.220699 -40.056355 22.87381
42.7075 -39.800606 22.78376
40.052002 -39.450779 22.951412
23.3116 -36.370941 30.222153
15.81517 -37.939606 37.18716
22.3015 -36.434078 30.897171
40.8797 -35.906475 23.797695
42.353699 -40.828377 23.027018
40.7533 -40.96479 23.204166
37.683998 -40.803303 23.434128
38.0807 -40.673462 23.361376
37.236702 -40.890488 23.508081
36.938202 -41.017063 23.590117
36.654198 -41.439823 23.93775
35.0191 -41.569225 24.267521
54.480202 -37.983742 21.506247
54.858002 -37.805698 21.458668
51.2911 -38.178852 21.798527
50.506401 -38.103367 21.859211
52.706402 -37.802696 21.642704
19.806641 -45.957005 28.32214
24.5389 -36.346466 29.876043
43.3195 -35.96785 23.409903
43.32 -36.21151 23.239677
38.431198 -34.782524 24.899776
37.179298 -35.238483 24.77523
36.923698 -34.646881 25.183006
50.499599 -36.619293 21.995852
52.581001 -37.12146 21.656435
51.667301 -37.272881 21.734648
56.170898 -36.876144 21.332748
56.966499 -36.913628 21.256634
55.039101 -37.241177 21.422663
53.515202 -37.338596 21.560625
59.2253 -37.225533 21.058716
58.6171 -37.14098 21.107494
57.531898 -37.625504 21.221159
55.026199 -37.455631 21.425556
55.811199 -37.295624 21.353424
50.483299 -38.345592 21.887159
55.423401 -38.096275 21.438713
53.533401 -38.528179 21.649261
52.097698 -38.577679 21.777971
29.378 -42.926365 26.691246
32.224098 -35.150917 28.119553
42.9977 -35.799568 23.574156
49.283199 -35.673 22.729027
48.6119 -36.090305 22.557648
46.057598 -40.102852 22.550209
45.3979 -40.237309 22.634212
48.751499 -40.340141 22.362003
48.7948 -40.505379 22.391769
55.961899 -36.557552 21.398708
55.214199 -36.694397 21.447258
58.7817 -36.344578 21.15933
58.595798 -36.61412 21.129704
56.997799 -36.730488 21.267342
58.419498 -38.43425 21.231197
54.173698 -38.734333 21.625498
57.083801 -38.02095 21.293486
26.8277 -43.2034 26.669199
24.565399 -36.451908 30.250137
33.380302 -34.98951 28.220661
33.5774 -35.161343 28.567772
36.6777 -33.676754 27.400087
35.0051 -33.93198 27.154486
20.483299 -41.535633 29.629387
20.6028 -39.245949 32.871544
19.2416 -39.358791 32.857018
55.114899 -36.544716 21.49164
24.4228 -36.662842 31.347027
36.971298 -33.476368 27.230434
22.113899 -36.513073 35.078102
23.144199 -36.659153 34.140221
44.245098 -41.522224 23.081123
47.758598 -41.552109 22.751537
47.950699 -41.784821 22.825977
55.591599 -35.50526 21.953276
54.8465 -35.752193 21.906736
58.454601 -35.287537 21.710926
59.172298 -35.431923 21.534172
57.8591 -35.854153 21.465549
60.805401 -36.223511 20.98904
62.7925 -36.237209 20.815746
61.5485 -37.887608 20.923298
62.109798 -38.037331 20.894236
62.446701 -38.308266 20.896994
33.5103 -35.368748 28.882469
33.198502 -35.543671 29.053137
38.4604 -33.597515 27.957748
23.3633 -39.031727 32.767155
21.992901 -39.132484 32.860878
45.552101 -34.826168 23.822439
45.906101 -34.645538 23.868441
51.034801 -40.681515 22.235397
50.771801 -40.832405 22.291248
51.299599 -40.524189 22.179733
54.8349 -39.377857 21.67132
61.709301 -35.528053 21.173843
61.751499 -37.347466 20.867668
60.2561 -37.133511 20.972467
39.7715 -32.329472 26.944067
39.0266 -33.371208 27.857937
41.593002 -33.114735 28.491829
42.066502 -32.868408 28.344315
21.554699 -38.344669 35.1203
20.1378 -38.595699 34.782154
19.302521 -38.427464 35.479435
47.502499 -34.932953 23.464462
45.651798 -42.017056 23.294697
40.291298 -42.428173 24.788673
38.623299 -42.231773 24.79743
64.879501 -36.446888 20.636126
66.377106 -36.717926 20.535788
63.613499 -38.678009 20.861713
63.976601 -38.943604 20.875769
35.6245 -42.33667 25.394577
35.731499 -42.543018 25.723894
40.210602 -32.10178 26.895308
40.8405 -32.040218 27.055561
40.451302 -31.756958 26.685034
41.9044 -33.279827 28.857046
45.946098 -34.121513 24.10836
48.366402 -33.965855 23.812313
48.9464 -34.06921 23.686275
47.518799 -34.407158 23.748981
56.700901 -41.163372 21.856819
54.953602 -41.087284 21.988895
58.490398 -41.666245 21.823812
57.686199 -41.774902 21.922245
54.073299 -41.51429 22.171883
53.210999 -41.31768 22.19622
62.882301 -35.153522 21.249525
63.2048 -35.361645 21.096581
38.8871 -42.766945 25.53718
40.413498 -42.57217 24.97117
27.880301 -41.920204 28.753876
36.826698 -36.41571 31.146467
42.623699 -32.702152 28.339878
41.807301 -33.37294 24.875416
44.0229 -34.171154 24.369873
41.810799 -34.067883 24.725218
24.578701 -40.139023 30.489128
22.422001 -38.602097 34.121628
23.401699 -38.84803 33.181248
47.980701 -34.541649 23.611082
63.1922 -40.378891 21.170734
61.1954 -40.186058 21.287075
61.366501 -34.54829 21.826778
63.5854 -35.554234 20.96204
64.482101 -35.158833 21.069695
67.3647 -35.988598 20.507877
65.273895 -36.194252 20.630917
64.812302 -36.042461 20.692444
43.808601 -32.60191 28.638304
44.1945 -32.677498 28.878782
43.348999 -32.868744 24.708628
25.508999 -39.294312 31.721973
55.342499 -33.437798 23.084621
57.005699 -33.160645 23.030735
53.414001 -42.521008 22.626698
53.503399 -42.404236 22.552402
49.422199 -42.207706 22.911419
47.9622 -42.007278 22.953342
62.8689 -34.21389 21.911537
69.489304 -36.43454 20.422842
67.909599 -36.74622 20.469788
36.5238 -36.685631 31.160757
40.7649 -31.7164 25.011761
41.288498 -30.473965 24.785202
41.5858 -30.813503 24.788198
49.130402 -33.613811 23.815186
48.649799 -33.765236 23.839226
49.4683 -33.408646 23.824673
61.037102 -33.331085 22.668793
62.541 -33.334347 22.591536
64.7192 -40.623985 21.115627
68.317398 -38.021172 20.589684
66.5746 -38.226807 20.660427
41.2682 -43.108753 25.543421
39.152298 -42.952259 25.745647
36.6656 -43.450233 26.877201
38.736 -36.01857 31.570953
40.730202 -35.718552 32.065975
41.4869 -32.68108 24.960953
40.272598 -34.88689 31.013979
51.026299 -33.357441 23.636513
59.4827 -33.244293 22.808565
53.665298 -32.862713 23.448853
42.9575 -31.655426 24.716021
42.2314 -34.225552 30.742107
40.7281 -34.546783 30.628971
47.4627 -32.790192 24.187218
64.593002 -42.009949 21.429413
64.595299 -42.741657 21.648869
56.337299 -42.923794 22.537048
59.713001 -43.315182 22.397451
59.998402 -43.477886 22.494591
46.199402 -42.926815 24.297651
70.840302 -35.798573 20.457993
71.002502 -36.102879 20.430424
43.956402 -43.585117 25.611778
38.637802 -44.661854 27.419598
39.137802 -36.79324 31.955618
42.8885 -34.933723 32.167332
42.8507 -35.05835 32.30537
43.057899 -32.033401 24.734282
44.1637 -33.705528 30.66798
44.346199 -33.857121 31.045235
46.238602 -33.617268 31.470852
48.400299 -31.6931 29.106503
44.8638 -32.013317 24.515318
44.712799 -31.713539 24.513729
53.166 -32.378044 23.587669
53.448101 -32.662003 23.512516
64.944199 -42.423744 21.525539
31.1362 -40.261517 30.270679
36.117302 -38.277031 31.453751
45.8941 -30.702267 27.611433
44.740799 -30.341084 27.070641
43.923599 -31.181797 27.364098
46.956501 -31.236088 28.282829
47.2962 -31.040676 28.221466
42.4478 -29.836475 24.520908
43.379299 -28.945751 24.253656
43.3778 -34.455204 31.683895
49.673698 -31.598881 29.353495
44.585602 -31.402664 24.500778
49.261398 -32.400707 24.003361
49.4431 -32.66333 23.961111
49.457298 -32.857452 23.937077
65.808304 -43.022362 21.674541
53.029701 -43.258244 23.384926
54.064999 -43.770439 23.831148
51.092499 -43.345646 23.863626
50.726299 -43.180725 23.7255
54.434601 -43.960358 24.001404
52.237301 -43.922302 24.370432
70.813705 -34.12756 21.65309
69.725494 -42.429592 21.381243
68.337502 -42.539623 21.422354
38.2948 -45.705097 28.240841
42.4231 -44.381763 26.606659
44.500198 -44.600777 26.388487
44.620201 -44.800797 26.477268
34.986 -40.522633 30.918261
33.507401 -40.325302 30.647785
45.032398 -30.027485 26.983326
46.8885 -29.669312 27.303688
47.453499 -30.724602 28.041039
49.178699 -30.453091 28.280531
48.251301 -32.416576 30.046413
49.722 -32.256683 30.301321
48.3452 -31.1772 24.082918
48.467899 -30.10696 23.950918
47.252201 -30.359966 24.092239
52.893398 -32.096107 23.649593
60.446499 -31.349133 23.489651
60.788799 -31.084656 23.58674
55.3232 -31.115532 23.552128
56.681301 -31.085979 23.519325
69.556198 -43.330715 21.644794
68.167404 -42.861233 21.519547
39.592598 -45.259453 28.989315
39.088898 -44.29483 29.263844
40.017502 -45.96484 27.612011
35.258598 -41.344231 30.421177
37.9674 -41.784134 30.852417
37.424698 -41.505692 30.924461
43.4879 -35.880188 32.982876
44.0313 -36.002735 33.187969
41.3041 -36.147789 32.418877
41.115601 -36.377117 32.435349
46.351299 -27.554424 26.337706
44.819 -27.689224 25.965935
48.487499 -29.738365 27.72691
45.5299 -30.116154 24.225893
46.9562 -29.97752 24.065939
43.139702 -25.76199 23.627621
45.863701 -28.662083 23.949944
45.646702 -28.200783 23.886536
52.196701 -31.005371 29.312002
52.046902 -31.237503 29.508904
59.144299 -30.893616 23.549492
64.093498 -44.260651 22.800535
63.910301 -44.471474 23.085463
65.772095 -43.540894 21.937418
65.980103 -43.335495 21.801403
59.222599 -44.46022 23.776995
56.797798 -44.151196 23.805414
56.423199 -43.966381 23.637856
57.9865 -43.929688 23.305769
40.996002 -45.334148 29.318966
51.194698 -44.492355 25.193403
48.598499 -44.113834 25.280769
48.341999 -43.905811 25.1026
47.7383 -44.501053 25.786728
45.434502 -44.22401 25.968918
44.992599 -44.96706 26.502392
42.8116 -45.605129 27.081314
37.82 -41.322495 31.194046
36.442101 -40.829983 31.143555
43.459301 -36.607437 33.210926
46.114799 -35.06749 33.391457
53.078999 -31.626274 30.131065
53.7822 -31.151791 23.627548
52.159401 -31.274406 23.744133
65.542999 -44.264038 22.614325
68.394302 -44.119797 22.158522
66.3685 -32.452271 23.31526
70.223701 -33.229877 22.741179
69.0196 -32.788273 23.188591
75.839104 -34.28075 21.970015
74.181503 -33.999992 22.130074
42.344002 -44.886341 29.836679
41.971298 -44.644402 29.838799
42.2141 -44.205143 30.118572
41.430702 -43.586056 30.302769
46.9576 -45.162289 26.313177
36.8652 -40.676563 31.365181
39.0541 -40.794949 31.95784
39.369801 -40.594666 32.164806
43.283798 -36.82077 33.217876
45.915798 -35.242683 33.426411
48.919899 -29.395256 27.661839
50.578602 -29.342384 27.984154
49.971699 -28.348022 27.465607
48.6768 -29.039753 27.455673
51.056801 -32.426636 31.048992
52.226101 -29.35656 23.606541
52.624599 -29.054977 23.555893
51.9501 -27.908905 23.43412
59.487099 -44.701679 24.04137
77.252098 -34.73423 21.602692
73.283699 -41.765198 21.392757
74.502998 -42.282536 21.640526
52.586399 -44.124844 24.548
55.407398 -44.578613 24.567127
48.875801 -45.537617 26.246782
44.024799 -45.986908 27.050879
47.1231 -45.854057 26.606508
42.296799 -41.428387 32.518658
41.895302 -41.569088 32.276409
40.935898 -41.055454 32.376236
39.782101 -41.549904 31.621632
40.376602 -40.112186 32.651115
40.5429 -40.313419 32.635723
47.509102 -35.392193 33.941601
47.694401 -35.67749 34.124928
40.3027 -39.342415 32.706284
42.401199 -39.371578 33.298748
49.8419 -27.924488 27.289385
48.244598 -27.592403 26.823135
46.990299 -27.84544 23.702505
48.310699 -27.512173 23.545336
48.664101 -28.077286 23.621758
48.103401 -29.312508 23.863861
46.625301 -27.33213 23.634619
46.942299 -25.157131 23.154083
47.257301 -25.745548 23.264784
48.5578 -29.640621 23.878103
59.320599 -44.882023 24.293039
68.976395 -32.516048 23.533482
48.8316 -46.424309 26.63077
42.051899 -40.166142 33.126606
41.902298 -40.005692 33.111717
42.262798 -40.290134 33.161671
47.788399 -36.022224 34.289085
49.173698 -35.285458 34.351696
48.983601 -35.051483 34.163506
42.499199 -38.594517 33.293327
45.382702 -24.938606 25.315981
49.6805 -26.557129 26.831488
48.234901 -27.064606 26.65369
48.4422 -25.59029 26.291019
47.757301 -26.710796 26.436827
48.108002 -25.139019 26.094734
46.713402 -25.225094 25.761488
53.0215 -33.010727 32.523113
55.653599 -31.321922 30.038509
