# .PCD v0.7 - Point Cloud Data file format
VERSION 0.7
FIELDS x y z
SIZE 4 4 4
TYPE F F F
COUNT 1 1 1
WIDTH 1585
HEIGHT 1
VIEWPOINT 0 0 0 1 0 0 0
POINTS 1585
DATA ascii
17.50746 -40.555725 20.033157
38.204102 -41.31229 9.8465548
37.1726 -40.960102 9.9722481
21.4359 -47.826191 12.672745
14.86724 -50.617023 13.637771
15.63167 -49.967049 13.908588
14.712299 -50.005939 14.062798
27.7889 -38.679726 15.665501
28.8461 -38.419647 15.469472
27.9816 -38.194756 15.195992
31.9284 -37.139496 13.910381
31.7143 -37.32008 13.497331
31.0466 -37.246262 13.820444
15.46305 -44.878456 16.733047
15.58385 -45.39389 16.318546
15.75546 -47.42522 15.206775
16.25902 -46.64687 15.501735
21.234901 -39.870731 17.511362
19.68784 -39.922028 17.885414
20.6119 -40.104557 18.09922
16.14443 -42.403973 26.940456
16.00481 -42.618351 26.863178
15.82613 -41.807457 25.186771
15.69525 -41.998058 25.621315
17.830719 -40.78418 20.838409
18.40881 -40.985386 21.549078
18.82844 -40.793205 20.642075
19.883949 -40.787781 20.365498
19.152 -40.601242 19.835136
39.905098 -38.446064 10.939853
39.911598 -38.158352 11.3056
43.201 -40.031849 9.5761738
42.338299 -40.326984 9.6107817
30.730801 -43.703972 10.752804
30.8309 -44.075474 11.02227
23.0317 -46.825443 12.817959
22.6964 -47.021385 12.99118
19.78466 -48.887684 12.422075
22.3612 -39.655342 17.013741
23.8692 -39.407539 16.550674
22.449501 -39.314278 16.533339
26.6423 -38.897953 15.866284
27.5942 -39.15514 16.148643
16.17362 -45.583973 16.104668
15.852819 -42.823513 26.557735
15.8018 -43.027496 26.157433
15.66704 -43.288807 24.332111
15.45706 -43.179081 24.399731
17.069019 -44.183224 17.461815
16.58691 -43.991081 18.091557
16.09753 -43.782379 18.926725
17.075741 -43.826771 18.688349
27.116899 -45.102337 11.520861
27.0695 -45.307068 11.767004
32.8605 -43.932343 10.896267
33.2192 -43.521824 10.567453
25.165699 -46.09536 12.470266
25.2917 -45.868111 12.072318
22.5786 -46.936798 13.381698
16.99489 -48.272293 14.546434
17.258831 -47.561848 14.844258
16.27038 -48.019558 14.826668
25.196701 -39.588913 16.695019
25.34 -39.161739 16.175873
32.361702 -37.098763 14.631214
32.7621 -37.20863 14.903687
32.2103 -37.061417 14.293856
17.124559 -45.412106 16.027653
16.721691 -45.983349 15.758842
17.35663 -46.405426 15.394772
16.04735 -43.159088 26.262867
17.42244 -43.687939 19.470827
18.17569 -43.786228 18.53249
16.423649 -42.244083 26.850048
30.6308 -44.525879 11.416897
31.471001 -44.804264 11.741841
30.3531 -44.998081 11.905752
32.3918 -44.653301 11.586016
32.8339 -44.351738 11.271451
25.109501 -46.191574 13.067472
25.347801 -46.140038 12.828305
24.750099 -46.168709 13.354509
24.1968 -46.077477 13.684034
23.2561 -46.311512 13.734981
22.2141 -46.623787 13.840405
18.61083 -47.672451 14.434438
18.9009 -48.092796 14.116001
20.2313 -47.736038 13.865852
20.5625 -47.950001 13.576152
28.496201 -39.389427 16.421663
29.2432 -39.714207 16.764061
29.607201 -39.21188 16.302685
34.098198 -36.792614 13.905125
34.376198 -36.515209 14.215483
18.509331 -46.346024 15.133454
17.772579 -46.894321 15.048643
18.209061 -47.273228 14.748809
16.87318 -42.049858 26.421043
17.086071 -42.338661 27.32752
44.509998 -43.007671 9.2548714
40.939598 -42.875721 9.5618687
43.139099 -42.786572 9.3620691
54.0616 -37.678772 9.390069
53.901901 -37.853249 9.2639732
35.4534 -43.682148 10.546972
35.819298 -43.928131 10.73793
21.6266 -46.189526 14.33139
21.344101 -46.827137 13.998484
34.694 -36.482548 14.722198
34.3083 -36.51178 14.529728
34.5681 -37.016731 13.528337
33.9072 -37.782585 15.724916
34.8988 -37.300583 15.547392
33.3951 -37.407658 15.260185
19.50815 -45.446648 15.408186
19.538151 -44.953243 15.781911
18.291069 -45.158554 15.944033
19.129349 -47.097588 14.577003
16.729801 -42.931004 27.816154
17.35924 -42.590393 27.950251
17.85516 -42.401676 27.573967
18.913391 -41.988884 25.953579
18.12516 -41.934277 25.906559
18.373329 -42.190956 26.855497
32.116402 -45.484303 12.550238
32.2728 -45.061024 12.034266
33.1604 -45.286179 12.253426
27.351999 -39.996552 17.096416
27.8162 -40.354179 17.43112
29.8563 -40.03339 17.050531
19.249111 -43.946301 17.357164
19.13452 -44.104984 17.007004
19.149311 -43.833622 17.84193
19.500191 -43.680656 18.511009
21.8566 -43.597389 17.929855
22.245499 -43.457382 18.588764
20.859001 -43.570503 18.539318
22.775 -40.606663 19.00902
22.8461 -40.393555 18.39867
18.57464 -42.419357 27.539696
19.70956 -42.017262 25.802931
19.45207 -41.80352 24.9995
21.764801 -41.178833 21.389711
20.8295 -40.963482 20.823727
20.719799 -41.224167 21.93885
49.599201 -42.913857 8.8090506
45.331501 -42.683731 9.1733627
47.9744 -42.593288 8.9472961
60.848598 -37.79245 8.5174408
61.6558 -37.998981 8.3837118
59.099998 -38.160782 8.5533552
26.643499 -45.693668 13.754613
26.170799 -45.511166 14.034494
20.002201 -47.00267 14.358383
20.181999 -47.390087 14.089223
30.051001 -40.593163 17.387226
30.7999 -40.128544 17.139978
37.9921 -36.705959 13.229033
37.580002 -36.382965 13.532309
21.028999 -43.876106 17.029839
21.5984 -43.73317 17.379827
48.314899 -37.045799 11.057562
47.8363 -37.29372 10.876053
59.992901 -37.162174 8.9846306
61.295799 -37.285305 8.7249212
58.6814 -37.51059 8.885869
29.7803 -45.639095 12.860046
29.3312 -45.733833 13.261375
26.6392 -45.178707 14.409748
26.947399 -45.832531 13.371803
22.196201 -45.082573 15.023954
22.3134 -44.680939 15.395574
36.4142 -35.601456 14.444082
36.1595 -35.887615 14.688129
37.448402 -36.08115 15.244551
39.265099 -36.041332 15.738329
38.546898 -35.654846 15.275773
17.35923 -43.216721 26.843554
17.99087 -43.153141 27.123056
19.24234 -43.268742 24.441275
18.799751 -43.244846 25.386656
18.45356 -43.311531 24.492041
41.449402 -36.666698 12.662119
40.682602 -37.020233 12.48987
39.398598 -36.804897 12.905027
39.805298 -43.957489 10.350658
38.308998 -43.780918 10.38281
40.09 -43.62265 10.044757
57.8843 -41.795143 8.150919
54.452 -41.658409 8.4445229
56.8036 -41.133442 8.291153
31.9443 -45.813412 13.058026
30.9848 -45.57832 12.75169
34.095802 -45.44836 12.351694
34.474098 -45.844273 12.671858
26.998199 -41.342941 18.528019
26.6793 -40.972828 18.342068
34.138 -39.423775 17.276623
34.488998 -39.740925 17.574314
36.1264 -35.800804 14.22139
37.9697 -37.439583 16.531521
37.4543 -37.934776 16.865534
39.333702 -37.638405 17.139206
19.041981 -42.577377 27.740688
18.79813 -42.792072 27.995144
21.153301 -41.847771 24.416426
21.387001 -42.035927 24.912518
21.856899 -41.816513 23.81707
43.608002 -43.407505 9.4684658
45.069302 -43.353748 9.2773838
61.168098 -40.227299 8.0238419
61.683998 -40.826691 7.9241519
59.275501 -40.6502 8.1327381
31.9272 -45.980686 13.492169
22.112801 -44.385643 15.792921
26.4219 -44.658016 15.036114
26.5686 -44.897072 14.732573
28.6101 -41.260895 17.883919
28.1145 -40.799278 17.761585
30.3001 -41.03001 17.548866
30.5627 -41.447365 17.6035
37.648598 -35.55143 13.902159
37.257401 -35.991745 13.805063
36.507401 -35.866844 14.021605
38.299599 -38.413658 17.626894
37.171898 -38.392216 17.241796
37.268402 -38.649197 17.53903
38.753201 -35.976952 13.541852
39.5923 -35.614471 13.525823
53.949501 -36.24474 10.857809
53.034801 -35.967674 11.248944
55.4044 -35.710094 11.102076
65.047302 -38.313457 8.0633049
66.391205 -38.694199 7.922153
64.673096 -38.918438 7.9690075
35.5485 -46.484058 12.9776
34.9338 -46.210194 12.901649
30.2768 -41.824314 17.645004
31.8382 -41.035896 17.530083
31.7808 -40.631607 17.441078
37.338898 -39.064289 17.959152
37.661598 -39.295982 18.24605
40.920898 -33.635262 15.063543
40.288498 -34.117744 15.035365
37.9771 -34.704414 14.416218
37.7761 -35.038338 14.630238
37.852402 -34.970295 14.077385
38.8517 -34.573677 13.953371
38.3713 -35.10313 13.90446
21.4694 -42.245083 25.336601
59.244801 -42.375511 8.0059443
60.874298 -41.947708 7.8994746
64.582703 -36.246071 9.2529354
62.929501 -36.220196 9.51021
63.883202 -36.017628 9.6295586
66.436401 -40.74548 7.6464734
65.608505 -40.173046 7.7421784
66.823196 -39.982353 7.721911
26.448999 -44.060356 15.989721
26.6108 -44.376995 15.451978
27.9522 -41.878925 18.248541
28.222401 -41.600342 18.102566
29.3692 -42.133064 17.75371
38.086998 -39.524982 18.533283
36.8447 -39.91951 18.335045
38.788002 -39.758545 18.86228
39.1502 -33.943138 14.481876
39.493202 -34.17598 14.795698
38.971802 -34.086151 14.091417
39.023598 -33.882137 14.248175
38.919098 -35.330601 13.738202
43.664501 -36.049438 12.721582
42.727699 -35.821003 12.976713
45.206799 -35.684261 12.670175
21.374901 -43.026581 24.245739
20.768501 -43.136356 24.147697
21.3554 -43.107208 23.371685
22.9569 -43.052944 21.25526
22.9056 -42.934525 22.225174
22.131401 -43.07679 22.307987
23.2535 -42.078949 23.033817
23.3948 -42.27515 22.927715
59.6973 -35.94075 10.302098
58.958801 -35.550934 10.801986
60.929798 -35.502682 10.63596
66.926697 -36.045883 9.2870531
67.241104 -35.803753 9.6277428
68.903999 -36.798645 8.3369999
67.434402 -36.847122 8.4034481
68.475998 -36.538631 8.5719452
64.541504 -40.578487 7.7502022
64.877602 -41.260071 7.6663895
63.5229 -41.008228 7.7731953
30.7857 -45.297009 14.651276
29.632 -45.305973 14.456554
30.5056 -45.584705 14.140699
31.9701 -41.493252 17.581818
25.165199 -41.817444 20.285751
24.870701 -41.532299 20.305679
42.2173 -34.32579 15.66819
42.624599 -33.937248 15.643391
25.578201 -42.897137 19.11068
24.767 -42.959389 19.599613
25.139801 -43.130852 18.775936
24.4799 -42.784706 20.500065
24.758701 -42.564953 20.621479
23.424599 -42.770729 22.173853
22.9163 -42.798683 22.914433
20.134399 -43.061783 25.833309
20.3496 -42.935619 26.284424
27.070999 -43.097652 17.920273
26.548 -43.343578 17.596607
24.453701 -42.191132 21.303055
25.321701 -42.148342 20.166859
52.2285 -35.708622 11.580906
51.773499 -35.441067 11.827231
53.5784 -35.241917 11.702184
57.662102 -43.407429 8.1228313
60.731201 -43.618946 7.8659992
59.4767 -43.833942 7.9930649
41.7929 -45.934525 11.641562
40.731598 -45.673592 11.618164
31.3074 -42.830822 17.333797
31.6047 -42.474197 17.471905
30.0326 -42.756588 17.451414
28.5774 -42.679348 17.811115
34.138298 -41.604866 17.833046
34.7794 -41.122372 17.958576
33.6698 -41.025677 17.743685
31.5112 -42.108086 17.545092
35.604698 -40.79911 18.138334
36.003502 -41.221069 18.237635
41.6166 -38.873692 19.176796
42.168301 -39.078217 19.511244
40.844902 -33.04763 14.881155
44.426399 -35.651134 16.914253
45.047901 -35.318455 16.872787
46.7519 -35.290833 12.617002
47.489399 -35.47921 12.42953
26.08 -42.592934 19.151447
27.4641 -42.78727 18.188745
21.9706 -42.58968 24.891273
21.9377 -42.736557 24.753746
62.0131 -43.372021 7.7571955
60.700298 -42.903706 7.8680744
62.8755 -43.052738 7.695559
65.211105 -35.727215 9.9014053
68.195999 -39.86438 7.7032824
69.312805 -39.920559 7.6822462
68.615898 -40.672207 7.6029339
34.6772 -46.154858 14.511137
34.661598 -46.387283 14.228163
30.3472 -43.954372 16.327242
29.4603 -44.248695 15.872963
30.5919 -44.506039 15.666046
27.3566 -43.861012 16.37195
28.4025 -44.012722 16.139442
28.1325 -43.616745 16.796053
32.7654 -45.729847 14.506592
33.416702 -45.560276 14.91362
32.008598 -45.387787 14.778991
26.6007 -42.000015 19.033674
26.3841 -42.276318 19.157063
27.4396 -42.479645 18.41301
31.5812 -43.194836 17.137926
30.0993 -43.11573 17.20899
28.7607 -43.032188 17.502487
39.131001 -40.265179 19.072323
38.5662 -40.642242 18.928112
40.108002 -32.481606 14.221748
40.4837 -32.243736 14.072994
40.545502 -32.551434 14.660793
40.109398 -32.658436 14.42207
44.727699 -36.718464 17.923569
46.547298 -36.589939 18.347683
45.577 -36.294476 17.75749
47.502399 -35.173809 17.413252
47.389999 -34.792469 17.187328
63.427601 -44.471325 7.7562418
63.507801 -44.068718 7.6785054
36.273102 -47.320091 13.711367
36.636902 -47.258041 13.932687
35.992699 -46.212498 14.870461
34.914803 -45.865788 14.965811
46.772499 -45.047375 10.19853
47.3479 -45.310623 10.31266
45.566898 -45.159836 10.476536
31.972401 -44.693733 15.681849
31.2423 -44.956512 15.192833
31.8116 -43.604671 16.840473
29.3715 -43.270966 17.136084
30.0557 -43.519493 16.821526
28.653 -43.354298 17.151178
33.706902 -41.979813 17.748344
45.525501 -34.941116 16.803913
45.108002 -34.58926 16.537567
40.744202 -30.91996 14.422519
40.9282 -31.150089 14.557364
41.192902 -32.087906 13.915396
42.0093 -31.610088 13.830467
44.260502 -33.280365 13.391252
42.758499 -33.462311 13.541023
43.456501 -32.655773 13.554028
21.6556 -42.882397 24.676744
56.6418 -34.689411 11.703282
57.2519 -34.19894 11.952236
66.669403 -35.03994 10.980431
66.242004 -35.326683 10.492222
70.819702 -38.489048 7.8983727
71.663605 -38.933033 7.8524323
70.350296 -39.35144 7.7619915
67.576996 -42.183342 7.4971972
68.185394 -42.985622 7.4492912
66.962997 -42.848125 7.4805942
66.180603 -43.180378 7.4965372
65.877701 -42.545555 7.5297022
37.8228 -47.742378 12.942426
36.871002 -47.039612 14.223009
38.840698 -46.489262 12.420979
40.620598 -46.468475 12.116833
39.729401 -46.751205 12.366461
33.693802 -43.712433 17.166925
33.300598 -43.331169 17.311302
41.5159 -31.114788 14.775733
40.784901 -30.609394 14.295322
40.989899 -30.149181 14.187903
70.212097 -35.804928 9.5057859
70.562698 -36.078579 9.0274162
72.917404 -35.88187 9.4455404
72.451996 -35.62336 10.014277
73.894798 -35.791988 9.8121901
74.071503 -37.616009 8.2538557
72.780899 -37.334599 8.1983309
74.127098 -36.987984 8.4026279
73.691803 -39.157154 7.9449911
72.804703 -38.830193 7.9230032
73.833603 -38.356831 8.0875158
69.427505 -42.891048 7.442277
69.7397 -42.019268 7.4875002
70.560501 -42.58794 7.4714966
38.646202 -48.196312 13.788121
38.7136 -48.614075 13.483782
37.6334 -46.541721 15.021603
36.594902 -46.637878 14.557957
44.691898 -45.993877 11.226538
45.743401 -46.271614 11.224012
43.617901 -46.138638 11.488308
38.695198 -42.976543 18.823866
36.819901 -42.571682 18.37384
37.302498 -43.151577 18.397789
43.691898 -39.706432 20.299793
44.543499 -39.397343 20.439564
42.7593 -39.508781 19.970467
36.6497 -41.580505 18.390993
36.808098 -42.048714 18.413071
46.168701 -38.775219 20.46187
45.390202 -39.098934 20.49729
44.7761 -32.462936 15.867097
43.984699 -31.886429 15.578965
43.345699 -32.535915 15.504556
41.292 -29.635971 14.120687
41.9254 -29.995262 13.95694
42.431999 -29.911896 13.894348
46.4902 -37.294903 19.104723
47.887001 -37.188408 19.418097
47.361401 -36.883686 18.918253
47.765202 -37.904148 20.119286
45.966099 -38.08757 19.771976
46.911201 -38.360901 20.30418
50.4207 -34.540371 17.707781
50.151699 -34.995415 17.898445
49.4986 -33.681175 12.778397
50.039001 -34.079391 12.620058
56.6539 -33.736359 12.207856
57.8717 -33.643154 12.223349
60.286098 -45.563866 8.6119471
59.979599 -45.196091 8.4034672
48.457298 -45.103413 9.977354
50.6278 -45.403656 9.8706303
49.0173 -45.400829 10.118299
38.928101 -49.183651 12.883778
39.0779 -49.043114 12.736887
41.753201 -48.520332 12.27688
41.455902 -49.003246 12.320215
34.444 -45.44751 15.385925
35.468498 -45.275154 15.973383
33.5368 -44.948067 15.77092
32.7407 -44.462906 16.156269
33.464302 -44.258549 16.595955
32.2715 -44.053291 16.503292
36.500198 -43.424339 18.081413
38.294502 -43.652561 18.527218
38.583199 -41.406475 18.924892
38.887802 -41.774475 18.994884
46.212898 -39.311546 20.85181
41.549 -29.345413 14.581374
41.547798 -28.520798 14.468053
63.673302 -33.368202 12.715494
64.370605 -33.813358 12.409854
63.334099 -33.838264 12.268826
65.067505 -34.205803 12.061675
64.704803 -34.57111 11.604025
73.193604 -36.098705 9.0211267
73.4767 -36.331944 8.7256546
73.808395 -36.617069 8.5104551
74.888496 -36.720955 8.5906563
39.542198 -46.351509 15.945366
38.8778 -46.531986 15.451858
44.660801 -47.941326 11.851124
44.389999 -47.566887 11.833813
42.252399 -49.472553 12.210316
41.2952 -49.653927 12.321381
39.4608 -48.8452 12.632931
35.7313 -43.656223 17.749842
40.236702 -43.841145 19.048866
39.4193 -44.032513 18.722347
40.681198 -42.159416 19.501762
39.467598 -42.183475 19.141094
40.3573 -42.499214 19.372154
46.342602 -32.154224 16.215508
47.686001 -31.640526 16.47543
46.134998 -31.276581 16.067427
41.6875 -27.592632 14.251945
41.560402 -27.987804 14.342167
43.863499 -29.337276 13.772425
44.553501 -28.498695 13.75069
44.716202 -29.545441 13.677982
48.805199 -38.953518 21.266392
49.745399 -38.562 21.184605
48.0476 -38.636116 20.846558
49.800098 -36.674458 19.365391
49.4482 -36.3909 18.953737
52.679798 -34.331894 17.979885
53.347301 -33.961422 17.930988
52.2873 -33.909817 17.764553
50.725498 -33.015144 12.808278
51.407398 -32.305897 12.88345
52.262901 -32.759594 12.738546
62.427502 -32.670341 13.040153
61.952 -32.924194 12.796732
65.310196 -33.777824 12.587748
66.456299 -45.110458 7.7252703
66.386002 -45.508404 7.9344726
75.342499 -35.992706 9.6074972
75.426804 -36.218987 9.1418333
71.424698 -43.956219 7.4642658
71.5103 -43.116337 7.485075
72.637405 -43.592079 7.5393677
40.3699 -49.548622 13.532989
39.513 -49.314438 13.354098
40.2757 -50.112804 13.237411
47.068401 -46.941589 11.317255
47.6693 -47.307133 11.34194
40.02 -42.853989 19.223267
40.597 -43.252094 19.316124
42.2211 -25.345787 14.224436
42.101898 -25.536991 14.343485
50.429798 -37.70311 20.570522
50.426399 -37.280357 20.156996
52.074001 -35.778355 18.841095
51.627998 -36.226665 19.222073
52.980801 -36.063931 19.24143
54.491901 -31.854702 12.828665
55.304798 -32.583977 12.638161
53.819099 -32.598061 12.683284
65.450897 -33.357155 13.091809
66.236 -33.798664 12.72953
71.226303 -45.474285 7.6477451
71.0756 -45.165726 7.5469041
71.275398 -44.664234 7.4783211
44.842999 -48.375721 15.525546
45.149101 -48.768906 15.330336
40.9823 -49.3885 13.79447
40.3013 -51.375847 12.729488
39.847401 -50.804592 12.67009
40.3307 -51.757072 12.512346
38.991302 -45.980862 16.294899
42.1143 -51.125614 12.117027
41.5093 -50.376991 12.250401
42.334 -50.476227 12.144379
43.578701 -41.833176 20.380642
44.8046 -41.856358 20.723627
43.940899 -41.473331 20.495642
45.665901 -29.049969 15.838617
45.914299 -29.838799 15.921533
46.704899 -29.123226 16.110317
42.1017 -25.656559 14.457247
44.058201 -25.191509 13.827572
43.3783 -25.244305 13.894024
43.679001 -24.338528 13.791588
50.678101 -38.187065 21.057196
50.963501 -38.580116 21.439896
54.035702 -33.589016 17.899025
51.517399 -33.560917 17.537699
52.023499 -33.005669 17.497137
50.622398 -33.177044 17.292019
59.287998 -31.86974 12.936255
59.626301 -31.127064 13.266088
60.259899 -32.092716 12.981342
64.617798 -32.923557 13.325278
65.3545 -32.895828 13.601526
58.3167 -31.485268 12.986626
58.6759 -32.387581 12.716786
73.2845 -35.300201 11.17281
74.021896 -35.277126 11.544706
74.474899 -35.508877 10.864007
77.4646 -36.987282 8.957962
77.4245 -37.471428 8.7744484
77.811996 -37.974846 8.7262383
76.551598 -37.770679 8.5359488
73.628799 -44.867916 7.658515
73.805496 -44.207825 7.6392422
74.827003 -44.676071 7.7719173
41.108398 -52.111862 12.800781
40.569702 -50.944332 13.009784
42.219398 -52.922638 11.926411
41.570702 -52.189716 12.086668
42.205002 -51.987499 12.02301
43.795601 -42.585094 20.361835
44.642601 -42.323586 20.635872
43.387798 -42.199032 20.29533
42.593399 -25.061123 14.767383
55.683899 -33.640297 18.048021
55.457298 -34.235504 18.220602
52.189499 -32.2766 17.414566
53.272598 -32.631214 17.616127
62.512299 -32.155884 13.414224
63.1255 -32.099449 13.62394
63.6339 -31.948372 13.9555
63.804501 -32.4855 13.50211
65.056702 -32.415771 14.093448
65.943405 -32.84819 13.9646
68.770905 -45.978092 8.0973969
68.347595 -46.232864 8.3578835
75.770401 -45.067696 7.9283895
76.0895 -44.473743 7.918117
41.922302 -53.619663 11.904286
41.6301 -54.001892 11.926949
44.9188 -49.951035 11.879414
43.570801 -49.592758 12.047911
44.6964 -49.306393 11.920855
45.957699 -42.09866 21.021744
47.286701 -42.413177 21.37076
47.2174 -41.830925 21.403629
49.9375 -40.165031 22.028299
50.107399 -40.644737 22.17495
46.902401 -43.436172 21.075878
44.691601 -43.399799 20.457092
45.691101 -43.905006 20.610645
42.750099 -22.518318 13.352287
42.492599 -22.973412 13.614642
48.232399 -28.467899 13.475567
48.931599 -27.007774 13.540171
49.5742 -28.255501 13.432063
53.6987 -36.440735 19.703447
54.432701 -35.999805 19.313894
54.0215 -28.624973 13.359434
53.405701 -27.842705 13.442119
54.198502 -27.856766 13.466286
61.495499 -31.11211 13.761847
61.993999 -30.974075 14.046301
64.238899 -31.969944 14.227283
71.445602 -45.759567 7.8336182
71.221298 -46.117973 8.1794567
68.771698 -46.538807 8.6960754
67.045395 -46.93116 9.2028074
66.2174 -46.7803 9.0526447
66.980804 -46.617142 8.8273478
76.770203 -40.760761 8.1676645
75.953903 -41.143833 8.0072269
76.0149 -40.189621 8.0991917
76.012299 -42.983318 7.922121
74.853104 -42.815529 7.7701168
75.586304 -42.045605 7.8974948
41.3335 -54.199249 12.061239
41.276299 -53.969738 12.21571
54.452 -46.750362 10.231901
56.219898 -47.18951 10.257977
54.4785 -47.159069 10.445885
43.6315 -46.043507 18.196175
42.066299 -45.793594 17.921211
42.6884 -46.056931 17.766769
50.021099 -27.900513 16.880634
49.4991 -28.880505 16.75635
50.765099 -28.619328 17.0158
40.316498 -22.575409 13.872953
40.6805 -22.411377 13.551577
44.627602 -26.081745 13.815497
45.1992 -26.26561 13.755413
46.2127 -24.074715 13.574595
45.426102 -24.161617 13.620205
45.643398 -23.367054 13.48203
45.114899 -24.761555 13.711444
52.3568 -39.636223 22.410444
52.103001 -40.174507 22.597841
57.958801 -34.191631 18.276741
57.814999 -34.724594 18.502047
62.426498 -30.902679 14.315638
60.438999 -29.379395 14.281301
60.315201 -30.005665 13.914061
67.187195 -33.922333 12.782284
67.277695 -33.554996 13.476028
68.025002 -33.983891 13.001673
60.967899 -47.051453 9.6735954
60.7817 -47.549206 10.03799
59.7211 -47.303444 9.9665775
79.989304 -36.615162 9.8218718
80.165604 -36.885056 9.7021341
81.544998 -36.442806 11.181488
80.957603 -36.416706 10.683517
80.312401 -36.244011 10.944733
78.407204 -40.003319 8.5444641
79.367996 -39.941814 8.7719698
78.983803 -40.735603 8.5972319
73.8256 -45.994198 8.1713247
73.547501 -45.693409 7.9012022
41.557999 -54.149399 12.361135
42.0798 -54.313339 12.534616
41.532898 -53.28207 12.607546
42.735001 -53.540306 12.947783
42.844601 -52.640217 13.207499
41.9818 -52.765659 12.907656
45.881802 -47.241196 17.158138
47.287498 -47.329292 17.570732
46.0168 -46.989693 17.611986
42.516602 -46.235649 17.386246
51.342602 -49.077721 11.259941
51.609901 -48.649242 11.189387
48.905701 -42.585518 21.822659
47.915501 -43.008759 21.460392
46.891602 -26.881115 16.185135
46.433601 -25.870819 16.131765
45.574799 -26.722759 15.829995
43.102798 -23.891193 15.328726
51.754002 -30.522308 17.215906
51.380901 -29.527134 17.127705
50.358398 -30.356636 16.94923
46.811298 -24.788204 13.620243
47.040901 -23.792469 13.546227
53.016102 -38.870342 22.016094
53.9939 -39.737499 22.88191
53.7174 -40.152897 23.045029
55.5434 -38.632893 22.279491
54.7565 -38.329903 21.825872
54.6493 -38.817425 22.27981
55.323799 -31.744446 17.715992
56.477001 -32.189388 17.810673
56.188202 -31.306606 17.719767
52.851002 -27.027092 13.521175
52.4007 -26.108658 13.604468
53.176201 -26.337265 13.604926
55.689899 -29.478119 13.290576
55.696499 -28.4454 13.46279
56.6469 -29.454739 13.350331
58.275398 -29.504723 13.539616
57.521702 -29.534389 13.414012
57.5201 -28.712044 13.6077
62.775398 -30.8778 14.565929
64.665405 -31.944702 14.592814
64.3722 -31.639755 14.97845
66.312103 -32.794815 14.364213
66.183197 -32.627789 14.674098
68.329895 -46.919819 9.1936417
67.492401 -47.295433 9.6627493
71.020699 -34.606041 12.651557
69.995499 -34.458862 12.683466
70.272095 -34.300476 13.274559
79.885696 -36.419556 10.031116
81.739403 -36.408051 11.762939
82.538597 -36.621635 11.490699
80.449303 -37.842979 9.448349
81.510696 -38.507015 9.6079216
80.091904 -38.451576 9.1968699
73.690498 -46.379112 8.6056395
77.2342 -43.048264 8.1148643
76.616096 -43.840214 7.992476
48.981602 -50.206024 15.534056
47.830002 -50.539795 15.146191
49.424301 -50.831291 15.387001
43.886101 -51.24614 13.898512
45.4095 -51.214314 14.317247
44.298401 -50.654858 14.207912
43.3344 -51.90617 13.546465
44.048 -52.705364 13.537909
44.603802 -53.693001 11.572201
44.566399 -52.246029 11.73435
45.8834 -52.905834 11.539301
45.035198 -45.820206 19.093952
44.757599 -46.034939 18.675344
52.7645 -40.94453 23.045233
53.236401 -40.578991 23.095181
52.417198 -40.56435 22.836071
41.654602 -23.206436 15.001109
41.52 -23.271156 14.70479
48.1992 -27.127171 16.499718
49.311798 -27.129349 16.754126
48.793598 -26.243637 16.689373
35.892998 -20.712996 14.386639
35.7999 -20.663374 14.15451
47.9025 -23.583122 13.541082
48.874802 -23.465229 13.562368
48.400398 -24.452328 13.601877
57.543301 -35.162643 18.742785
59.8577 -33.63559 18.040102
58.9147 -33.908676 18.170296
60.2575 -34.180946 18.203995
62.8158 -30.580845 15.000494
60.9758 -29.530529 14.488557
61.466499 -29.691509 14.713041
65.944 -32.447411 15.053955
62.709801 -30.347107 15.365946
59.332401 -27.884617 14.406506
59.104599 -28.228714 14.166593
81.3181 -36.586143 10.453977
81.975304 -36.797024 10.513384
74.277397 -34.893326 13.851654
75.071503 -35.099007 13.166612
73.414703 -34.781967 13.494411
76.011398 -45.558716 8.1274223
77.3918 -44.436703 8.1258554
78.713501 -44.430309 8.3900585
78.100304 -44.96463 8.3119125
73.459503 -46.679733 9.0345201
51.338001 -49.478088 16.399494
51.032902 -49.087021 16.615499
51.673302 -49.915024 16.2122
49.797798 -51.728497 11.344704
50.284302 -51.015709 11.347277
48.219799 -45.497437 20.466909
48.4925 -45.830387 20.181002
45.079601 -24.579071 15.928304
46.037399 -24.890221 16.159676
45.648102 -24.099926 16.275747
34.8512 -19.074598 13.905201
34.8978 -19.141214 14.2742
35.562302 -18.302671 13.234106
55.4226 -40.230549 23.587223
54.9674 -40.590683 23.614338
59.873299 -35.251545 18.75729
60.749802 -35.512913 18.894634
53.920101 -26.094086 13.669686
54.003101 -25.108452 13.786946
54.864201 -26.170155 13.727979
52.0019 -22.766491 13.750814
51.9123 -21.989544 13.708448
52.988701 -22.510944 13.853216
52.121399 -23.549423 13.758276
51.1035 -23.170815 13.688679
61.471298 -29.351917 15.033176
62.5219 -30.183025 15.710669
58.7659 -28.581497 13.929513
57.848701 -27.927464 13.868223
70.7043 -34.123547 14.467208
71.800003 -34.451324 13.775739
70.4058 -34.153412 13.898702
82.546097 -37.181015 10.473576
83.237099 -37.619602 10.524282
82.178398 -39.904469 9.5314751
82.256798 -40.713768 9.4502602
81.416 -40.257515 9.2641678
76.502197 -46.178082 8.760911
76.018204 -46.535213 9.2218399
78.636299 -45.749878 8.7370815
79.083504 -45.948696 9.0441618
42.264999 -55.995422 12.164917
42.6959 -56.048119 12.33478
42.455799 -57.095955 11.403622
57.841499 -48.638439 10.754985
57.849998 -48.171223 10.570955
52.907001 -51.081959 11.208393
51.600399 -50.783348 11.268368
52.8703 -50.166969 11.201464
46.583401 -54.511963 11.313478
46.871399 -53.425125 11.405262
47.694599 -54.122452 11.279819
45.619499 -55.190651 11.306622
44.874401 -56.121796 11.240093
44.583099 -55.050934 11.411197
47.5821 -46.37817 19.18738
48.1763 -46.140732 19.704441
53.192299 -41.33144 23.233829
53.662201 -41.819645 23.393888
50.1693 -44.089664 21.8321
49.7855 -44.53907 21.525665
41.7663 -22.784607 15.808577
41.548302 -22.414089 16.182552
45.095501 -23.528576 16.414812
46.389099 -23.773178 16.65312
43.469501 -23.58783 15.727854
34.9729 -17.976593 14.405132
37.1525 -18.487579 12.758008
36.266098 -18.379639 12.979107
36.7729 -17.811789 12.981518
38.1399 -18.551764 12.597824
37.730598 -19.093439 12.607161
39.412102 -20.84182 12.667127
39.640198 -20.366411 12.50881
50.5644 -23.949463 13.671289
49.967701 -23.233631 13.609272
46.080799 -21.6805 13.023838
45.614498 -22.056084 13.120853
55.683399 -39.799889 23.375854
56.365898 -40.12394 23.753548
57.409302 -38.244621 22.201534
56.564602 -38.552773 22.411274
57.371201 -38.618832 22.66147
61.429298 -29.115372 15.343604
59.521702 -27.588356 14.663143
66.315201 -32.62611 15.335302
66.612198 -32.819252 15.617682
64.335999 -47.709011 10.028787
65.234497 -47.922031 10.250354
64.1297 -48.253662 10.48175
61.9893 -48.731319 10.732353
61.5499 -49.209576 10.954215
60.937401 -48.886616 10.793242
79.814499 -35.94173 13.424996
80.518898 -36.087193 12.883538
78.870201 -35.764729 13.194055
76.572701 -35.323452 14.157862
77.1437 -35.431759 13.617406
75.377899 -35.089752 14.048725
78.562103 -45.395405 8.5073509
79.938004 -42.400097 8.6988783
80.4254 -43.138573 8.7891092
79.419601 -43.126511 8.5433455
51.853001 -51.003147 15.778313
51.788399 -51.487129 15.613504
41.8866 -56.169998 11.847163
41.993 -55.919533 12.039915
44.0961 -56.878082 12.687084
43.784199 -57.595955 12.493582
44.7677 -57.615089 12.838497
44.350201 -54.226097 13.277969
43.499901 -54.339775 12.996239
44.328999 -55.119904 13.082967
46.044498 -56.654167 13.325369
45.881901 -57.508179 13.186047
46.9244 -57.285881 13.499907
46.9534 -54.438858 13.950927
45.958401 -54.264259 13.723348
46.421799 -55.026596 13.702005
50.194401 -48.376328 17.094061
50.776501 -48.179817 17.446732
48.237099 -55.048149 11.157936
49.042599 -53.892914 11.221693
44.5536 -57.159119 11.081391
44.291 -58.104095 10.857469
43.5742 -57.57798 11.06966
50.617401 -46.490807 19.821976
51.2617 -46.078064 20.521009
49.598701 -46.117649 20.098049
48.060101 -24.620384 16.756214
48.691601 -24.191113 17.028854
47.7234 -23.965508 16.898651
49.419601 -24.019787 17.239128
36.063 -16.879875 14.840624
46.706001 -20.757519 12.854367
46.660599 -20.182638 12.769558
55.068802 -41.102192 23.769949
53.915298 -23.182938 13.940792
53.9202 -22.392818 13.980838
55.507099 -23.576664 14.169506
55.654701 -24.553757 14.0705
54.803001 -23.897095 14.0044
55.780701 -26.632275 13.752807
56.021999 -25.839497 13.925359
56.5751 -27.081608 13.792074
57.307098 -26.835697 14.000008
57.6157 -26.866058 14.073974
61.226398 -28.756092 15.66474
60.4035 -28.001617 15.158681
59.987999 -27.774456 14.909732
58.009499 -27.012478 14.157299
58.124298 -26.43261 14.372307
61.660999 -49.747032 11.178045
62.569099 -49.85638 11.331057
61.679798 -50.423462 11.431143
84.945503 -37.488091 11.549927
84.811401 -37.278313 11.858786
84.722801 -39.794025 10.429598
84.887497 -40.598763 10.354706
84.073196 -40.193939 10.105982
80.918999 -45.144726 9.0348167
81.406303 -44.760799 9.1155853
51.0499 -51.889225 15.376759
52.193401 -52.025131 15.524675
41.903198 -58.395317 11.619547
41.910599 -58.077637 11.454536
41.805199 -58.352676 11.194004
45.010399 -59.010773 13.215591
45.109299 -58.614868 13.042456
41.8675 -58.608185 10.970825
52.055199 -48.342991 17.490879
51.258202 -47.954891 17.819956
53.729401 -53.419411 11.154045
52.164799 -53.357868 11.157331
53.2584 -52.071453 11.192694
43.9646 -58.796387 10.617257
44.923599 -58.669807 10.632106
49.858799 -44.96619 21.308813
49.248501 -45.269135 20.933483
50.777699 -45.268909 21.309532
52.343498 -44.688904 22.171263
52.608601 -44.426556 22.427704
52.714001 -43.71928 22.782398
53.0215 -44.161423 22.709682
44.369202 -23.078964 16.555975
44.98 -22.865879 16.960104
43.6549 -22.669716 16.727005
53.142502 -25.45142 17.588882
52.193802 -24.896717 17.531612
52.187599 -25.922737 17.403297
52.039501 -24.101852 17.69521
51.371498 -24.491325 17.478241
50.6824 -24.562088 17.329004
35.999001 -18.717402 15.468633
36.674202 -18.909817 15.821827
36.333298 -18.288948 15.671448
37.238602 -19.569271 15.980677
37.618698 -19.05188 16.248901
40.537003 -15.443037 14.625263
39.176498 -15.838165 14.083977
39.4795 -15.91518 13.881162
44.306999 -20.305569 12.569502
44.527901 -19.756678 12.551102
57.683102 -38.975483 23.122639
58.016998 -39.348274 23.562923
60.457401 -36.997448 20.838144
59.877399 -36.618706 20.246101
58.920601 -36.939629 20.668337
61.829399 -33.871387 17.962053
61.594101 -33.302959 17.78462
54.2369 -21.779224 14.046727
56.2677 -22.244411 14.494356
55.801601 -21.387465 14.401611
56.809101 -21.661951 14.688931
57.695202 -25.418015 14.498103
58.349602 -25.988636 14.642138
69.729996 -33.855095 15.065763
68.5019 -33.501789 15.182097
68.9422 -33.686199 15.626256
85.054703 -37.856934 11.255489
84.3451 -38.984501 10.479563
85.492996 -39.541824 10.815839
80.233498 -45.813763 9.2229118
80.673103 -45.488674 9.1110201
76.674896 -46.702553 9.7198496
78.093903 -46.571804 9.9062748
76.9897 -46.891739 10.277061
50.829399 -55.579597 14.637005
50.3592 -54.600822 14.700653
49.772301 -55.379471 14.458368
48.792801 -55.335495 14.247197
47.9641 -54.729996 14.150944
47.906101 -55.518745 14.002254
43.381199 -58.75351 12.589409
43.560299 -59.032761 12.865782
47.867802 -57.760643 13.711683
47.854198 -57.01178 13.769993
46.362499 -23.038136 17.184978
45.572498 -22.652657 17.329424
49.955601 -23.665825 17.506292
51.658001 -23.583549 17.842846
54.129299 -28.749012 17.517105
54.052898 -27.360516 17.547939
53.0215 -27.931694 17.408024
39.286598 -21.437317 16.093536
39.242798 -20.938629 16.374748
44.175999 -14.070978 16.410137
44.077499 -14.768393 16.532471
40.969002 -15.730995 13.955909
40.766502 -15.518322 14.301681
40.044701 -17.108698 12.931988
39.919998 -16.618292 13.227565
40.158798 -18.659098 12.447789
39.902298 -19.217697 12.410784
39.192398 -18.612013 12.493617
44.806301 -19.238905 12.596973
65.390396 -34.783821 17.998369
64.249695 -34.801823 18.154795
64.807297 -35.09285 18.285828
50.966 -20.15996 13.406438
52.421299 -20.184517 13.666488
52.122299 -20.698927 13.637242
55.5215 -20.346155 14.317297
55.121899 -20.74268 14.23141
57.041801 -25.216511 14.299178
57.136398 -24.308441 14.537709
60.466301 -27.862282 15.476454
60.720402 -28.108513 15.689775
62.276501 -30.091095 16.065422
62.2202 -30.302498 16.335032
59.568401 -26.608482 15.461222
58.553902 -25.598507 14.957199
68.477997 -33.662029 16.045265
72.624603 -47.352665 10.151672
71.948395 -47.709995 10.767471
71.3517 -47.501579 10.261271
86.335899 -38.365292 11.722721
86.368301 -38.160965 12.004402
83.889 -36.857639 13.292194
83.327904 -36.774372 13.857222
84.602097 -37.110771 13.598146
85.229301 -37.314091 12.705982
85.474098 -37.413239 13.263311
86.121902 -37.742954 12.871593
71.6707 -34.373466 15.367532
71.272003 -34.348709 15.789053
85.584198 -41.099346 10.582836
84.791603 -41.339386 10.245771
86.280701 -40.828865 10.920685
86.232803 -41.550243 10.841903
86.262901 -38.728401 11.478685
86.947998 -39.348877 11.673861
86.240997 -39.371124 11.230585
52.324699 -53.561943 15.208731
53.657902 -53.389286 15.414061
52.8535 -52.695656 15.454367
48.663101 -56.674706 14.012263
47.839802 -56.254532 13.867994
52.233799 -45.142792 21.789854
54.389702 -43.334854 23.43338
54.1632 -42.821224 23.462353
55.467899 -41.554298 23.915499
55.726501 -42.103264 23.958817
56.429401 -41.581898 24.121979
54.7355 -44.268803 23.205009
54.5798 -43.812084 23.352076
46.005402 -22.413151 17.631247
46.4296 -22.050797 17.943617
54.759998 -24.717072 17.823479
54.132599 -24.3918 17.836878
54.016701 -25.048355 17.726234
42.357399 -14.460812 15.352829
42.455299 -14.233223 15.168984
42.7337 -18.748037 12.494857
42.2593 -19.215967 12.42543
46.983601 -19.820755 12.779838
47.451 -19.508326 12.850476
59.748299 -39.050003 23.617628
59.070599 -39.354038 23.776836
62.757 -37.299732 21.483355
61.398899 -37.250816 21.298313
62.073002 -37.624516 21.941692
59.8251 -30.677673 17.439316
59.666599 -30.041016 17.363214
62.231602 -32.39222 17.35466
62.585899 -32.17458 17.177856
49.877998 -19.711823 13.212187
49.642399 -20.176517 13.178036
55.770302 -22.876095 14.305975
56.651001 -23.228573 14.525539
60.173 -27.745903 16.416904
60.588001 -28.109467 16.172258
59.710701 -26.66608 15.740906
65.1689 -32.18346 15.866934
64.9562 -32.239014 16.180666
62.465 -30.739655 16.500141
62.676899 -31.245262 16.713385
63.102798 -31.218502 16.437366
61.2043 -29.532043 16.606695
61.335701 -29.286175 16.326328
66.527695 -32.986355 16.122108
86.6511 -38.170536 12.500465
78.5495 -35.793308 14.687616
78.971199 -35.828442 14.314667
86.804703 -38.190571 13.058794
70.9459 -34.393211 16.161121
74.374802 -35.076607 15.722811
74.131203 -34.950096 15.465448
83.197098 -43.68013 9.6381102
82.605797 -43.038288 9.4338932
83.8806 -42.90601 9.8759136
83.553703 -44.263393 9.7980747
83.426003 -44.727413 9.8056202
56.352299 -53.947914 15.525396
56.818199 -52.935925 15.753265
55.869499 -53.186245 15.654271
49.605301 -58.391411 14.107123
49.623001 -57.797203 14.123775
48.821602 -58.116142 13.930222
51.3708 -54.801529 11.078979
52.014099 -55.742722 11.009112
50.889099 -56.102272 10.980246
44.0858 -15.197754 16.754192
41.9496 -16.078737 17.07238
42.141602 -15.775925 16.862865
39.422798 -17.523544 16.887754
39.288002 -17.051567 16.720474
39.6227 -19.791502 16.893822
39.949402 -19.196712 17.108067
38.705002 -19.181915 16.673893
44.175701 -16.863405 13.265175
44.641399 -16.415026 13.528275
42.318699 -17.098627 12.991291
41.950798 -16.616709 13.249617
57.647598 -41.41473 24.308659
56.928699 -41.027401 24.166878
60.1758 -29.716599 17.158009
49.567799 -19.167042 13.218973
57.457001 -23.426117 14.830684
57.960701 -23.600464 15.101229
60.0989 -28.075569 16.663712
72.565399 -47.86092 11.263706
71.271301 -48.130817 11.488247
67.478806 -49.091591 11.869402
68.348495 -48.795837 11.760032
68.074997 -49.212437 12.235201
63.237301 -50.514065 11.813823
63.354099 -50.026222 11.565064
59.948898 -50.898064 11.362236
60.797001 -51.046505 11.498478
59.8829 -51.68026 11.511572
86.9991 -38.459576 13.533575
86.805496 -41.868896 11.132627
86.155998 -42.316372 10.816825
87.517899 -39.997959 11.867908
87.834396 -40.594143 11.971341
87.381699 -40.607563 11.585543
87.483803 -39.361141 12.164007
87.794098 -39.405941 12.574002
82.100899 -45.849316 10.113503
82.474297 -45.624771 9.9506931
85.913696 -43.094471 10.747255
85.133003 -42.70348 10.366262
85.083 -44.797043 10.639364
84.772003 -45.127277 10.698719
77.853104 -47.033249 11.086729
78.9729 -46.766796 10.825859
78.704597 -46.981449 11.42749
54.817402 -55.03019 15.247213
54.297501 -54.207535 15.335346
53.8661 -55.120598 15.14705
50.481701 -57.496407 14.333089
51.243999 -58.203072 14.444221
51.448799 -57.399696 14.528962
49.887901 -58.906563 14.211422
53.515202 -48.529743 17.474136
54.839401 -48.714058 17.395172
54.589401 -48.373394 17.713375
53.777699 -46.737209 20.054485
52.966499 -47.009392 19.496239
54.3368 -47.13953 19.487564
53.767399 -46.29377 20.735424
54.765598 -46.542412 20.535694
55.3965 -45.124729 22.723883
54.550701 -45.14957 22.452484
55.1535 -45.420177 22.296204
54.291901 -22.481411 18.776356
53.649399 -22.106239 18.970894
52.849098 -22.482868 18.672533
44.180801 -15.506714 17.053474
44.309799 -15.87435 17.424534
41.0644 -16.810886 17.213085
41.625702 -16.452986 17.225245
46.234699 -18.420698 12.886175
46.773998 -18.987844 12.825243
45.370098 -18.758266 12.718496
58.536598 -41.864727 24.448471
58.169899 -42.563568 24.382814
59.358898 -42.343266 24.548445
67.864601 -34.378899 17.229836
67.4813 -34.710403 17.602058
58.885101 -28.554226 17.359383
59.010799 -28.14341 17.265831
61.313 -31.246105 17.20488
61.993401 -31.136211 16.947079
61.092499 -30.42765 17.02774
57.056499 -23.950413 18.019241
57.0854 -24.522488 17.837893
53.053101 -19.845167 13.779393
52.332401 -19.32288 13.684172
53.664299 -19.553125 13.904112
57.589298 -21.990496 14.974554
58.789299 -22.712173 15.642658
58.787601 -23.23827 15.763103
63.165401 -50.999508 12.082315
61.634102 -51.133976 11.684803
61.604801 -51.731777 11.910008
80.674004 -46.555721 11.197952
80.659103 -46.694248 11.791126
53.459801 -58.110413 14.768832
53.547699 -57.093987 14.858862
52.495602 -57.335159 14.703351
58.229099 -22.131596 19.031214
58.141899 -21.650614 19.323244
57.1003 -22.059196 19.102093
55.833599 -21.86467 19.200924
55.690899 -22.372669 18.89649
51.778801 -21.710835 19.007595
50.623901 -21.65707 18.888729
51.060799 -22.123524 18.706078
44.783401 -20.697075 18.120674
46.139198 -20.487951 18.450756
45.045101 -20.006252 18.322653
45.501999 -15.114319 17.09477
46.534 -15.531759 17.605944
46.547199 -15.896112 17.849976
44.053501 -16.186813 17.61582
43.310101 -17.699751 17.998844
43.4272 -17.118313 17.894123
42.840698 -12.577652 15.388453
43.088299 -12.114532 15.697593
45.248299 -13.288965 16.773417
45.1236 -12.601685 16.753172
44.667702 -13.335337 16.564541
43.165199 -13.338047 14.716151
46.4492 -15.038324 14.039276
47.310398 -15.297798 13.997805
46.5564 -15.837093 13.83996
46.261501 -17.410961 13.22817
46.997799 -17.130459 13.422819
45.0112 -17.402277 13.095634
45.889801 -17.849461 13.017411
68.067505 -34.079433 16.879602
60.7421 -29.537701 16.871008
62.745499 -31.811516 16.968102
64.6567 -32.416508 16.543457
64.321098 -32.658974 16.895061
58.979198 -24.957569 16.257107
59.479599 -27.097275 16.762693
58.658298 -25.67326 17.056421
58.8232 -25.502567 16.829906
70.143204 -34.602478 16.832035
70.528503 -34.46138 16.503181
66.696198 -49.278515 11.844303
66.193695 -49.632004 12.036407
87.033096 -38.754238 13.910378
84.907501 -37.384575 14.26201
84.378998 -37.419636 14.74999
85.345001 -44.348331 10.637003
59.348801 -51.524986 16.068033
60.121498 -50.891861 16.238764
59.261299 -50.719238 16.373421
57.0369 -55.657898 15.194703
57.561501 -54.426262 15.420206
56.718601 -54.810791 15.365885
57.4534 -49.204258 17.116789
57.327599 -48.862576 17.351061
57.327099 -48.280628 17.922052
57.175499 -47.98122 18.33773
55.756699 -52.850494 11.226885
55.732498 -53.908142 11.2225
54.830898 -53.573975 11.176659
56.4324 -46.099072 21.581514
55.337299 -46.007828 21.490921
55.676102 -46.326313 21.054604
56.720901 -44.302917 23.728027
56.4193 -43.84882 23.840832
56.3372 -44.593521 23.45496
48.9688 -21.968557 18.475708
49.48 -21.533476 18.758804
48.162201 -21.552801 18.517303
48.150799 -19.667816 18.965797
47.620399 -20.348038 18.761936
49.076099 -20.203276 19.040615
47.508999 -14.827902 17.637177
46.790699 -14.654434 17.391541
46.854698 -15.178526 17.52459
45.626301 -14.575127 14.131799
46.394699 -14.052877 14.214851
44.859699 -14.051283 14.264329
44.7355 -15.056126 14.04882
48.838501 -17.024733 13.662355
47.793301 -16.748617 13.637526
48.562199 -16.232584 13.835223
49.247299 -13.006866 14.364799
50.0173 -13.221615 14.384657
49.739201 -14.387024 14.231773
49.169998 -18.60952 13.26256
48.522701 -18.085705 13.301332
65.804901 -37.740532 22.37513
65.0616 -38.091801 22.886057
66.615898 -38.131645 22.993795
64.7267 -36.597893 20.31337
65.034805 -36.948494 20.969311
66.128899 -36.740471 20.562794
69.201302 -36.205933 19.150307
69.307404 -36.044189 18.812719
70.1269 -34.922344 17.212404
59.094501 -18.488647 15.790073
58.028801 -18.137947 15.539204
58.851799 -17.899088 15.989536
60.6688 -19.888853 16.050259
61.177399 -19.480005 16.325748
61.523899 -20.007483 16.434391
62.2122 -20.204336 16.80162
61.649601 -20.645004 16.53532
64.420898 -50.674961 12.299056
64.325104 -51.086102 12.605098
63.789501 -51.052006 12.339308
85.886703 -37.961899 14.270384
85.624001 -37.656277 14.075781
87.874496 -39.679539 13.567066
74.826599 -35.284225 15.976722
87.504097 -42.894798 11.723532
87.2481 -43.600975 11.666036
86.675797 -43.303532 11.194334
87.724098 -42.124699 11.797321
88.090401 -42.46233 12.222373
88.2658 -40.189651 12.981588
86.544296 -44.580036 11.53335
82.782799 -46.19809 11.698526
82.563499 -46.356728 12.367826
58.6217 -52.354313 15.869196
59.401001 -52.446064 15.768215
56.4739 -57.94355 14.874075
56.6208 -56.908035 15.001713
55.9674 -57.448753 14.954205
56.824699 -52.543526 11.287672
57.841702 -52.387268 11.361511
57.2831 -53.283047 11.355465
52.4813 -56.83667 10.920652
52.324001 -57.946213 10.792321
51.636902 -57.500847 10.837439
58.336399 -43.918762 24.197395
59.2104 -43.652939 24.384274
58.1674 -43.276463 24.306892
59.712601 -22.720619 18.379295
57.9935 -20.256027 19.777821
57.813 -20.786116 19.679947
52.445801 -21.244844 19.244911
53.123501 -21.685289 19.140125
49.290501 -15.475136 18.146294
49.767899 -14.944332 18.180889
49.955799 -13.924459 18.191317
49.113602 -14.117237 18.000187
48.405998 -13.296759 17.836624
48.272701 -14.397572 17.796749
42.837799 -18.263416 17.949732
44.038601 -18.154467 18.2052
44.9907 -19.266415 18.400429
46.213902 -18.913595 18.664585
44.972801 -18.544737 18.419601
42.864799 -11.759764 15.168459
43.0149 -11.709681 15.009048
43.2957 -11.48345 14.886648
43.612598 -11.783716 14.756112
61.524899 -41.669659 24.723518
62.5103 -41.087185 24.753799
60.8554 -41.107327 24.644428
67.644699 -37.30032 21.584187
66.689896 -37.47139 21.936619
67.813004 -37.655663 22.215117
70.116798 -35.922539 18.433077
71.483299 -35.861931 18.021393
69.841797 -35.565449 17.997843
55.340302 -16.39809 15.074093
55.599899 -15.80217 15.385596
56.206001 -16.844009 15.332512
53.724701 -16.054893 14.623289
53.307499 -16.926094 14.37645
53.038101 -15.909681 14.483774
53.626598 -17.826864 14.273671
52.7206 -17.462044 14.15624
62.692699 -20.450871 17.143475
60.9179 -22.459476 16.892899
61.074699 -22.54261 17.222408
58.723701 -24.408295 17.157957
60.118698 -22.515358 16.380829
76.275497 -47.552052 12.024471
75.4813 -47.601803 11.729221
76.741898 -47.314781 11.429386
69.208405 -49.494068 13.658671
68.995605 -49.418289 13.18951
66.079803 -50.067135 12.440018
66.740204 -50.019783 12.721437
60.138901 -52.970215 11.846048
59.102901 -53.637074 11.694801
59.506802 -52.585052 11.613191
86.9263 -39.159615 14.222864
83.807404 -37.490734 15.212664
87.542099 -43.795708 12.077871
88.1306 -40.902668 12.277124
55.380798 -57.943375 14.904205
55.091801 -58.685677 14.861446
58.480999 -44.782684 23.820263
58.652199 -44.446934 24.047792
61.510101 -43.957466 24.510111
60.325901 -43.896309 24.447905
61.062801 -44.400177 24.347509
57.319599 -45.529354 22.669811
57.9641 -45.409317 22.997017
61.2015 -22.074585 18.57354
61.2649 -22.312283 18.279705
61.690601 -20.678249 19.255936
60.9995 -21.079708 19.313667
60.2841 -19.902411 19.641621
59.9021 -20.311869 19.67717
52.919601 -14.736467 18.595383
53.637199 -15.342989 18.688475
53.4259 -14.400129 18.650909
46.6674 -17.788616 18.681799
47.164501 -18.399694 18.835022
47.984901 -17.870792 18.920044
50.225899 -15.721952 14.069408
49.257 -15.433414 14.039111
51.112701 -16.227819 14.093973
50.5023 -16.823057 13.9009
51.641602 -14.566441 14.411149
52.3601 -15.394306 14.426244
51.730598 -15.767712 14.263138
47.2062 -13.745396 14.257172
46.560501 -12.925831 14.355305
47.730598 -11.993805 14.435873
48.462101 -12.551744 14.386719
47.952999 -13.371424 14.299046
63.515499 -40.077866 24.665735
63.766602 -39.631931 24.520748
62.445202 -39.827511 24.493599
63.388199 -40.611511 24.764597
63.958599 -41.093269 24.811892
67.546799 -38.78978 23.782436
66.712799 -38.990891 24.056049
67.730598 -39.248543 24.140617
50.702702 -18.960121 13.456079
55.791901 -15.305553 15.735229
70.954399 -49.034641 13.913673
71.1166 -48.884075 13.387062
69.033295 -49.621113 13.957676
61.1012 -52.430168 12.003325
60.707901 -53.304283 12.171882
80.130997 -36.919678 16.307482
80.883499 -36.868076 15.903522
78.976097 -36.554623 16.295252
88.247704 -42.682312 12.575122
78.437202 -47.164661 11.985295
78.180801 -47.317516 12.502431
77.2444 -47.434349 12.232692
84.327003 -45.920231 12.60721
83.823997 -46.071236 13.130812
83.285896 -46.209133 12.702514
56.9142 -58.491318 14.759096
56.341099 -58.736572 14.817945
59.6978 -48.07547 18.248177
60.299801 -48.351551 17.837751
52.899399 -58.62072 10.732014
51.763699 -58.993927 10.61713
59.205299 -45.489334 23.17733
58.281101 -45.089615 23.487146
57.949699 -25.500259 17.448391
57.547798 -25.073753 17.62875
62.423 -20.783766 18.963528
62.461899 -21.259359 18.737316
58.319698 -18.071241 19.490143
58.536701 -18.691101 19.670303
46.3741 -14.150465 17.193623
46.523701 -13.045193 17.252525
45.776402 -13.638126 16.960838
53.068699 -16.332758 18.803247
53.424999 -16.792433 19.010071
48.830898 -17.033461 18.807091
48.8274 -17.567242 18.992374
48.863201 -19.065163 19.13376
47.518398 -19.078194 18.900639
46.920898 -11.641567 14.472623
47.264599 -10.819408 14.539974
63.670898 -44.220547 24.482378
63.965801 -43.658955 24.598766
62.699699 -43.872768 24.561993
67.644402 -38.394955 23.31517
67.872299 -38.020027 22.790852
69.632904 -37.319237 21.337999
69.472305 -36.963306 20.672791
68.555496 -37.123985 21.146288
70.3153 -36.812675 20.175327
69.373795 -36.627037 19.997128
62.205898 -21.605864 17.227209
62.388302 -21.747759 17.522726
61.197601 -22.563515 17.572618
61.265999 -22.475864 17.92811
59.735901 -23.193539 17.700294
59.728401 -23.310368 17.323778
64.256195 -51.399254 12.938522
61.295898 -53.743008 12.789745
61.152599 -53.458298 12.488834
88.203499 -40.862732 13.491266
77.014503 -36.249985 16.661495
77.440598 -36.106968 16.262543
86.708199 -39.674603 14.534086
86.2911 -39.865021 14.812851
83.159401 -37.561775 15.593332
83.497101 -37.99371 15.670058
87.826401 -40.923389 13.874779
