# .PCD v0.7 - Point Cloud Data file format
VERSION 0.7
FIELDS x y z
SIZE 4 4 4
TYPE F F F
COUNT 1 1 1
WIDTH 1586
HEIGHT 1
VIEWPOINT 0 0 0 1 0 0 0
POINTS 1586
DATA ascii
73.693405 -34.28825 26.092817
73.605103 -34.408928 26.416164
81.125397 -45.275238 23.415096
81.169998 -45.32486 23.078541
80.555298 -45.269489 23.964998
82.4776 -44.580059 24.208326
64.2547 -47.120995 26.860285
59.113499 -53.872623 26.132359
62.233501 -45.959675 27.933052
62.183899 -45.771664 28.149891
61.199501 -44.222374 30.462862
64.238403 -41.63599 33.53373
64.0588 -41.925266 33.435368
62.889702 -43.262211 32.095692
52.448601 -16.155584 24.247427
52.236099 -17.357773 24.49625
54.318001 -12.557751 22.789608
54.0019 -12.516712 22.795151
53.860199 -12.907381 22.860752
64.6334 -40.254272 33.680161
76.459297 -34.672375 25.417425
75.997597 -46.335812 23.997509
76.318001 -46.222713 24.25186
69.444504 -47.808922 24.810953
80.427803 -36.366344 24.97197
80.553596 -36.055058 24.857302
86.725998 -40.159985 23.471155
78.939499 -45.614708 24.228859
85.779297 -43.800518 23.023928
64.116196 -46.435238 27.347271
56.8703 -57.248695 23.29129
65.876602 -42.87759 32.738914
50.7915 -17.208204 24.327574
77.4683 -45.917664 24.405497
69.954399 -47.486168 25.196781
70.061096 -47.316875 25.409538
66.704102 -48.661343 25.0797
66.824501 -48.732594 24.826355
63.961498 -50.176022 24.892471
79.109703 -35.894878 25.220623
77.775703 -45.64695 24.805735
77.999199 -45.667297 24.664923
77.4916 -45.611954 24.99346
77.357498 -45.515228 25.209854
66.491104 -48.042629 25.83762
66.703903 -48.189903 25.628658
65.5494 -45.442253 28.501619
64.905197 -44.513592 30.195427
56.052101 -58.279541 23.210609
64.3013 -43.370842 32.10128
66.0196 -43.093277 32.50061
65.681 -42.082352 33.343708
49.502102 -17.081429 24.147339
69.805901 -47.241364 25.607208
69.612701 -47.135181 25.79858
65.678604 -48.734932 25.506397
65.614502 -49.009743 25.238329
61.977699 -51.830753 24.981588
80.7155 -37.255798 25.053802
64.727203 -43.982864 31.135246
53.524399 -4.7075281 18.94879
53.564899 -4.5150633 18.99736
54.168201 -5.7108345 19.436539
54.2682 -5.9009895 19.523384
55.237801 -8.5755234 20.538155
70.644196 -46.658062 26.04644
81.997498 -37.466251 24.762938
79.440598 -36.638847 25.272964
77.869904 -45.204063 25.463198
77.6287 -45.358074 25.338947
69.265305 -46.851406 26.204693
68.2575 -46.121166 27.19331
68.048302 -46.319244 26.994518
68.167 -45.758083 27.715353
70.1698 -46.427464 26.443655
54.892502 -7.0978851 20.298559
58.535099 -58.139603 24.822788
84.373596 -41.059853 24.430996
70.599998 -45.817543 27.142456
59.618999 -55.037865 25.109985
82.870201 -43.015308 24.895575
82.673698 -42.762154 24.968889
75.914101 -45.027405 26.462402
74.462799 -45.259769 26.741415
77.481003 -44.793648 26.101757
78.943298 -44.029865 26.010841
77.357101 -44.199066 26.527657
69.3396 -43.958641 30.917606
70.567795 -44.087959 30.426208
79.417397 -42.770218 25.920815
79.2388 -42.514271 25.948011
74.047096 -43.428379 29.121357
46.382801 -58.702805 22.256569
47.661598 -58.814751 22.299931
41.7826 -59.169853 21.848511
38.945198 -59.056641 22.1259
38.1852 -59.039268 22.265848
38.272202 -58.674835 23.151115
38.3806 -58.630997 22.980927
43.3284 -58.476486 25.730282
13.866859 -42.671688 20.979734
14.011909 -42.743122 20.85622
13.3799 -38.495358 21.535488
21.801399 -35.681782 19.811729
20.673599 -38.016682 19.154158
21.546501 -37.643784 19.155071
21.487801 -37.33651 19.161976
25.4123 -38.595451 19.273876
23.868 -43.673584 19.936928
21.590401 -44.999355 20.508039
21.3783 -45.194923 20.679829
21.195 -45.372852 20.85709
20.9844 -45.539612 21.018599
33.767502 -37.93507 19.544249
23.9858 -44.584091 20.901403
45.439499 -37.984077 18.279688
45.1647 -38.119373 18.245399
47.851002 -38.208542 17.926096
46.049599 -38.325905 18.083111
46.956902 -38.184364 18.022324
45.8895 -37.235588 18.73102
45.877998 -37.430553 18.580448
35.962898 -36.09206 21.150543
51.186798 -37.638508 17.726063
51.969898 -37.634525 17.64085
17.565559 -42.152641 26.547575
42.3839 -41.975372 18.580135
43.340599 -41.920429 18.487625
44.2043 -42.062256 18.438438
49.7617 -37.921043 17.795321
51.6465 -37.789204 17.631748
50.6768 -37.932655 17.698183
59.2822 -38.924862 16.88899
58.5742 -38.748966 16.943167
45.156898 -35.99424 19.832771
45.1026 -36.19109 19.695055
51.348301 -35.866508 18.937212
51.712101 -35.988152 18.792833
56.370899 -36.107269 18.025726
57.056499 -35.823902 18.137978
57.749802 -35.989117 17.922445
50.4389 -42.762672 18.04319
49.666901 -42.614166 18.073471
49.788898 -35.712883 19.289913
49.966099 -35.508533 19.396318
42.145699 -35.338833 20.704948
42.5308 -35.495216 20.563951
55.851898 -42.789185 17.558838
54.959099 -42.582169 17.595896
56.806499 -42.712326 17.458597
42.576199 -43.256126 19.474194
42.238899 -43.37822 19.670029
42.9492 -33.409142 23.986984
43.058399 -33.101109 23.802937
40.8773 -35.202549 25.214863
40.5205 -35.11953 24.968187
50.966202 -42.905506 18.038681
50.8288 -42.973038 18.076843
65.256805 -42.034077 16.702156
45.785801 -33.922222 25.343966
47.096199 -33.427109 20.509285
47.1423 -33.746727 20.465687
57.382301 -43.832756 17.765337
57.091202 -43.618626 17.7013
43.1059 -32.19949 23.280718
44.9734 -34.872509 26.375814
41.179298 -45.805126 22.090187
63.815498 -44.447788 17.430395
63.667999 -44.640533 17.5714
41.643898 -37.739403 28.364349
42.008099 -37.563412 28.420826
64.022301 -44.879673 17.742033
41.9118 -38.553555 28.623091
40.3867 -38.958931 28.23374
40.502998 -38.655975 28.219982
49.746101 -31.053444 20.299679
60.822102 -45.100456 18.35078
60.503399 -45.230309 18.539436
52.984402 -29.719055 20.082966
65.807602 -45.591381 18.265244
65.6362 -45.416969 18.0914
54.794201 -45.190048 19.408064
55.134701 -45.413063 19.578259
78.161903 -36.127487 17.370052
78.174599 -36.379398 17.29146
50.0299 -36.543011 30.139832
52.499298 -47.127079 21.104313
52.3414 -46.865154 21.002577
43.283699 -42.319965 28.915871
43.530499 -42.216354 29.027363
58.953098 -46.428043 19.989986
49.3148 -47.387794 26.273003
49.327 -47.769566 26.131639
44.638699 -45.557789 26.172525
44.794701 -45.364006 26.404819
47.921398 -40.777168 30.466305
46.714802 -24.270298 19.743593
58.1707 -46.791183 20.364471
58.402302 -47.052147 20.528931
45.349701 -41.66396 29.660629
45.011101 -41.4491 29.601477
49.2612 -25.176609 19.825535
48.666599 -25.217705 19.843426
48.0117 -23.797417 19.626373
75.173103 -34.04705 20.429142
47.783001 -45.505608 27.17971
50.388901 -40.200912 31.216236
57.035702 -34.977673 29.560198
57.090302 -34.785667 29.229404
75.865196 -34.033577 20.827564
54.265499 -48.024654 21.304453
54.1703 -47.73399 21.206448
54.587601 -48.658459 21.472059
77.331902 -34.370007 20.525265
47.041199 -22.189228 22.551821
59.738098 -33.678471 27.259209
74.1521 -33.34943 22.506718
47.083099 -21.333374 22.940729
75.949799 -33.713619 22.923153
53.0532 -21.200066 23.887314
78.679901 -34.342682 23.133459
78.951698 -34.387978 22.950752
48.435799 -20.103439 23.778923
66.764297 -34.262165 28.699463
81.128304 -34.92511 23.13336
45.6115 -14.794262 22.638157
45.769901 -14.589331 22.498764
77.360497 -34.115589 23.614538
77.1549 -34.107491 23.778234
72.864799 -33.200184 24.081732
61.261501 -44.815323 29.549665
43.2962 -8.4553642 18.39834
46.3307 -11.235792 18.230263
46.694599 -11.163723 18.218756
53.701 -11.377996 18.965012
50.912498 -11.087088 18.354645
61.863499 -47.397892 27.002058
54.551399 -10.970736 19.380497
54.655201 -10.691362 19.45978
54.743999 -10.473228 19.534391
55.5961 -10.685768 20.49441
55.512299 -10.662434 20.341171
73.107895 -46.952278 23.982399
55.016899 -13.805819 23.087719
53.3396 -9.8037987 18.790718
55.196999 -10.664007 19.912428
52.362301 -8.1125889 18.439312
50.736401 -4.5820122 17.897087
74.678596 -34.785988 26.506472
76.181602 -45.535103 25.664213
67.984802 -43.768192 31.39402
83.020798 -43.250923 24.827652
83.046204 -43.518623 24.777391
79.581001 -43.05685 25.885864
79.762497 -43.321705 25.833748
52.919601 -1.4391079 21.089584
45.9874 -58.600266 26.457638
45.869701 -58.393372 26.260456
43.725399 -58.029816 25.433884
18.14506 -34.348381 19.868261
18.0937 -34.076366 20.041321
21.805199 -36.178276 19.459501
20.859299 -39.424618 19.209457
13.3273 -42.488773 22.370556
13.30873 -42.447018 22.710178
24.4559 -38.796043 19.249395
24.285 -39.088608 19.257996
23.555901 -39.716625 19.282936
32.2733 -38.437134 19.286636
27.5501 -41.539684 19.521345
27.3951 -41.243797 19.476143
37.2966 -38.761108 18.866253
37.429298 -38.960281 18.812126
35.394798 -39.794258 18.938332
34.736702 -39.63203 18.982048
39.965302 -38.908875 18.596565
39.569199 -38.735748 18.662739
19.32041 -35.587788 24.015001
36.093102 -37.718792 19.58963
36.600201 -38.070019 19.26046
36.8018 -38.223618 19.138683
30.6063 -41.525745 19.461533
32.569 -40.63887 19.201075
35.821098 -39.9757 18.914757
36.1395 -40.235336 18.907337
41.4991 -38.523853 18.50769
41.327 -38.430298 18.55587
44.2701 -38.842724 18.188055
42.368999 -38.962322 18.357403
43.2901 -38.785389 18.286924
30.2227 -42.093548 19.656109
38.891098 -37.576885 19.43667
41.0299 -41.613205 18.636234
41.056198 -41.409637 18.607483
43.4324 -37.96579 18.550585
15.72663 -38.367599 33.449448
38.7621 -40.780193 18.729717
39.5522 -40.603222 18.649378
35.786598 -36.74778 20.569721
48.3801 -39.181927 17.810421
49.068001 -39.27179 17.752853
47.037601 -38.549957 17.955814
46.028198 -38.513401 18.05579
47.902302 -38.387417 17.892899
52.189899 -38.444855 17.487682
51.6022 -38.56617 17.532919
16.76384 -38.352066 34.585018
39.386902 -42.07901 18.874578
39.777802 -42.169914 18.867002
16.52684 -47.338776 24.451328
16.48028 -46.963604 24.587217
50.6437 -37.365318 17.94351
50.8885 -37.233189 17.996576
37.997601 -42.311478 19.128315
37.6091 -42.243874 19.125412
48.794701 -39.590233 17.790371
49.647099 -39.387211 17.70714
50.480598 -39.511494 17.641672
54.863098 -37.239838 17.475412
54.3004 -37.365818 17.483423
54.2295 -38.424076 17.307547
54.6138 -38.513294 17.271015
18.7819 -42.337833 26.048616
38.7845 -36.517857 20.41423
38.8419 -36.73333 20.216227
45.958801 -41.61314 18.214813
46.519901 -41.558022 18.158676
38.5755 -42.439011 19.172468
38.3074 -42.371418 19.139652
36.0294 -42.655174 19.671135
47.9119 -39.82106 17.880413
47.341702 -40.042892 17.944832
55.2943 -37.667805 17.291401
53.4958 -37.805088 17.442131
54.383202 -37.657516 17.383736
57.681 -37.770355 17.053194
58.1842 -37.838028 17.001404
20.1467 -43.851875 24.712118
17.116159 -40.177116 32.912117
17.08507 -39.861183 34.303074
19.72703 -40.893749 29.300129
47.270901 -36.692612 18.952599
47.1199 -36.528324 19.107048
49.5037 -41.984188 17.964241
48.831699 -41.847614 18.000423
40.440498 -42.554577 19.048288
40.044998 -42.472687 19.022783
47.0317 -41.415512 18.096329
58.955601 -38.333736 16.9128
59.767799 -38.105171 16.853083
60.4571 -38.222206 16.795815
21.0175 -40.785069 29.332983
21.295799 -40.635433 29.804234
42.840099 -36.591934 19.736147
43.065498 -36.298733 19.934526
39.8302 -35.881981 20.746454
39.0173 -36.37001 20.506958
39.250198 -36.22551 20.588997
40.709 -42.648891 19.106148
40.924599 -42.759735 19.190821
51.964298 -36.094639 18.674915
54.574299 -36.103325 18.281878
55.186501 -35.829544 18.394785
52.501301 -36.321774 18.423967
52.6497 -36.428101 18.32272
52.369701 -42.012848 17.721575
51.688999 -41.867653 17.757637
53.231701 -41.904079 17.631552
36.372398 -36.464542 25.322763
36.5051 -36.210442 25.013439
22.240101 -40.802914 28.869774
44.239399 -35.592064 20.248663
44.705799 -35.459076 20.254152
47.131802 -42.721062 18.35239
46.664299 -42.763966 18.423048
45.424599 -42.607605 18.480047
60.226799 -39.694698 16.843021
53.367802 -35.774952 18.698654
53.011002 -35.619148 18.861694
64.486198 -36.659607 16.713814
37.024902 -43.639282 20.822376
37.1791 -43.811771 21.020504
37.3424 -44.012173 21.242636
37.554802 -44.211441 21.44676
40.151299 -35.548847 25.433075
40.0047 -35.685738 25.582573
59.649101 -35.675373 17.904644
59.0154 -35.470783 18.143452
60.288601 -35.432568 18.013447
45.0159 -43.369022 19.177412
44.3633 -43.226456 19.13868
42.1553 -43.681538 20.034191
42.045399 -43.500954 19.844822
37.039902 -37.240639 26.576374
37.151802 -37.403404 26.770901
41.354698 -33.613537 23.662102
41.5485 -35.355145 25.700006
21.7472 -40.050484 31.870916
51.792 -35.126434 19.348616
51.414398 -34.964092 19.494612
46.277901 -35.047741 20.222843
46.6702 -34.902222 20.225882
65.344696 -35.711571 17.190319
66.906097 -35.768566 17.02529
41.367798 -35.630978 26.059315
58.122299 -34.678749 18.809143
58.188499 -34.398308 18.974119
57.8591 -43.225605 17.482403
57.759102 -43.393093 17.546043
59.9244 -43.685848 17.436632
59.9543 -43.892052 17.521317
42.6311 -44.015911 20.333622
42.336102 -43.849277 20.195986
40.905998 -44.063183 20.696342
40.607498 -43.867405 20.522238
37.816498 -44.407757 21.626102
38.113998 -44.601227 21.785191
38.1096 -45.26062 22.367115
41.845299 -33.065186 23.414949
40.5951 -36.086254 26.468452
40.4258 -36.002594 26.261272
61.766102 -33.798553 19.141273
52.143799 -43.776051 18.410078
52.423401 -43.911575 18.487988
47.938202 -43.790962 19.118483
47.653801 -43.638313 19.007988
44.637402 -44.152729 20.122555
37.472401 -45.938385 22.826223
45.637901 -32.634399 24.239321
45.484901 -32.358715 24.034313
41.835602 -36.344116 27.371662
54.897099 -43.843376 18.073044
55.510601 -43.820225 17.97974
56.057598 -43.980064 18.017244
43.681301 -44.560913 20.74295
43.814701 -44.393257 20.538921
42.6628 -44.93959 21.30934
42.8344 -45.063858 21.382801
41.791702 -37.116737 28.156689
41.476898 -37.056412 28.007463
45.1745 -33.609726 20.725897
45.156898 -33.287308 20.756802
51.047001 -34.202286 19.864132
62.4473 -44.193169 17.414946
62.468498 -43.972672 17.307739
54.827099 -44.120094 18.3041
54.5028 -43.978386 18.230278
41.68 -45.311131 21.753059
41.270798 -45.156677 21.720535
55.410198 -44.421185 18.497498
55.118401 -44.266315 18.392891
48.182098 -44.48814 19.836468
71.785797 -34.829712 18.032495
47.3979 -34.347645 26.497032
51.0285 -33.162109 20.107641
50.850101 -32.92112 20.156664
52.667702 -32.850609 19.993015
52.424301 -32.5709 20.049805
55.7216 -44.585403 18.613451
56.059299 -44.762539 18.743525
38.2733 -44.743114 24.998455
38.5723 -45.016857 24.851553
46.938999 -45.315495 20.855284
47.388901 -45.495506 20.915733
43.8825 -45.499714 21.497564
44.2281 -45.658009 21.529783
41.5662 -39.006283 28.595444
41.7458 -39.29818 28.685125
42.3759 -37.393082 28.474583
42.7383 -37.245636 28.526028
48.873501 -34.203701 26.797628
49.931801 -31.990047 20.300362
50.140301 -32.208958 20.277695
67.0271 -43.886665 16.963333
40.4562 -46.053352 24.651329
40.5527 -45.366501 25.126774
49.4016 -45.622349 20.680996
49.017601 -45.435276 20.600264
46.625999 -30.658146 20.532524
46.2761 -30.224827 20.531061
40.4893 -49.327366 22.88372
44.555099 -40.048046 29.548969
44.405899 -40.318893 29.507416
53.190399 -33.015896 26.231752
50.969299 -30.597511 20.199863
62.381401 -45.259769 18.314026
43.104099 -45.131107 26.083698
43.0755 -45.327335 25.892273
38.602402 -43.655655 26.203461
38.3465 -43.855518 25.907352
39.6493 -43.421753 26.809381
41.2062 -41.487343 28.534451
62.6717 -46.032055 19.170555
76.769096 -35.005257 18.603065
44.480202 -47.216076 25.169939
44.479698 -46.941486 25.284042
43.828602 -47.538929 22.193401
43.8951 -47.884983 22.254927
42.8927 -48.243015 22.433128
50.377998 -29.305542 20.166042
50.058498 -28.843697 20.151001
50.618999 -28.791336 20.120712
61.6381 -46.335274 19.618437
44.327 -43.24033 28.576694
44.534698 -43.111313 28.762857
42.629002 -43.079021 28.172798
46.563 -38.381229 29.93647
50.757301 -37.778355 30.979195
50.8526 -38.132584 31.136564
43.540699 -41.754898 29.149008
43.2206 -41.573475 29.090874
47.525398 -25.394321 22.676861
47.129902 -25.900673 22.647991
47.743999 -25.911194 22.804203
38.493202 -20.833218 19.299591
38.357903 -20.774134 19.552675
43.376598 -44.588226 26.759657
43.489799 -44.840469 26.517721
47.129101 -48.385033 21.974472
47.030201 -48.707314 22.036947
46.537201 -25.768848 20.004654
51.395699 -26.370781 19.92153
46.9664 -49.461166 22.141518
47.003899 -49.072102 22.08971
50.303902 -39.229996 31.162611
70.354797 -45.931503 18.576992
46.112202 -49.370972 25.075924
46.080399 -49.741203 25.018303
46.676899 -44.78196 27.622526
46.500702 -44.545444 27.839539
55.577999 -47.269112 20.887577
55.723499 -47.578568 21.031235
40.264198 -20.44194 18.247314
55.085499 -34.327148 28.197617
53.124802 -48.464798 21.491806
41.536102 -20.651695 18.336155
43.2939 -20.312052 18.110706
70.161301 -46.287605 19.333778
70.160706 -46.437248 19.692015
48.988998 -50.222027 25.631081
48.828999 -50.59111 25.570518
44.478001 -21.841858 21.980965
58.1189 -34.33316 28.50531
55.834099 -23.969479 20.054237
79.080299 -34.482594 21.475735
76.943703 -33.955856 22.235699
59.192902 -34.065483 28.021742
59.115002 -33.918297 27.716854
78.360298 -34.2565 22.139296
78.548401 -34.312096 21.951324
48.591099 -21.402674 23.192726
38.442802 -14.607042 19.844387
39.9328 -14.248413 20.024136
73.240799 -46.364574 19.965059
76.528198 -33.84409 22.599834
50.056099 -21.428818 23.423986
45.466 -20.534378 23.059544
49.549301 -20.633398 23.729122
49.331501 -20.942036 23.547129
39.952202 -18.774534 22.017147
51.0201 -21.135643 23.690849
51.285599 -20.91995 23.821348
64.036896 -34.063789 28.146669
77.477097 -34.050632 22.868868
77.747803 -34.107243 22.693384
56.221699 -21.059284 24.105873
55.9762 -20.768 24.204262
66.003601 -33.274006 26.195911
54.9972 -20.40443 24.337181
49.281799 -14.066439 22.639929
43.096298 -9.8733273 18.613302
78.4757 -34.316814 23.301754
78.2631 -34.296871 23.464315
47.058201 -14.270971 22.456858
47.020699 -14.5333 22.669933
48.435501 -14.575491 22.928894
72.413498 -33.545219 25.023487
72.155998 -33.663944 25.373768
74.045403 -33.787724 24.802282
73.8526 -33.589428 24.465418
74.844704 -33.667557 24.093311
50.6614 -14.45507 23.084492
45.488499 -15.012667 22.756641
54.776798 -15.520889 19.366285
76.635803 -46.288216 22.379904
54.198799 -56.218346 22.654718
50.357601 -7.6420479 21.855621
48.747002 -9.7921467 18.106979
49.129501 -8.9292049 18.046841
51.307899 -12.716751 18.519165
51.9706 -11.749033 18.558573
53.153301 -11.460281 18.800116
53.7593 -9.1363068 18.946224
55.7416 -13.019199 20.162228
55.566502 -13.274969 19.967207
52.658298 -10.677763 22.436611
51.074299 -8.6664391 18.212801
52.5051 -11.589417 18.648172
52.751099 -9.7808456 18.613625
53.451801 -9.1025925 18.814102
52.158199 -10.005926 18.48484
55.1973 -9.2079372 20.174381
55.242901 -9.1194401 20.274868
76.3041 -46.010418 24.824274
76.061699 -46.140411 24.673981
66.889999 -45.605053 28.122063
66.195206 -44.644676 29.943192
53.921398 -8.7827415 22.146446
54.052601 -8.7278461 22.092356
52.4049 -7.1965656 18.415655
56.155201 -12.535517 21.282545
56.130798 -12.535385 21.519255
73.174194 -46.371414 25.587009
72.900696 -46.55978 25.405134
52.052799 -3.6430292 21.681219
74.518204 -45.811222 25.910114
74.764999 -45.897228 25.687765
73.8349 -45.636509 26.421232
54.583698 -10.036957 22.132202
54.369301 -10.02924 22.222675
55.623699 -11.183228 21.697254
55.716 -11.162264 21.505436
41.2234 -58.904808 22.022091
40.297302 -58.659286 22.26054
39.6563 -58.501381 22.498283
39.474503 -58.416336 22.707256
52.869301 -58.067459 26.937025
40.014 -58.052254 23.415188
39.797302 -58.139175 23.57704
37.699402 -58.927094 23.451694
49.391602 -57.863457 26.401506
48.7813 -58.12439 26.530741
48.522701 -58.30896 26.652691
47.0215 -58.22052 26.337183
47.1628 -57.942329 26.126535
42.0937 -58.801254 25.648497
42.3489 -58.300446 25.304258
26.1516 -43.774204 20.468882
25.899101 -43.649094 20.281124
57.628101 -39.798527 17.061714
57.332001 -39.533413 17.069868
21.9151 -39.643921 33.106785
74.638702 -35.240417 17.685511
54.703701 -12.348015 19.440865
13.29707 -44.187054 22.537827
13.34638 -44.27636 22.191744
43.736801 -38.378849 18.308674
43.233601 -38.316902 18.384544
44.490601 -38.252647 18.267599
49.8372 -38.876877 17.680672
49.388199 -38.801357 17.722347
50.672001 -37.623367 17.79129
50.252701 -37.587936 17.861238
53.423302 -41.320473 17.54302
51.953602 -41.249123 17.658672
52.674999 -41.074493 17.580214
50.4683 -42.488213 17.973312
51.7659 -42.477554 17.85652
52.655102 -42.664413 17.816956
45.292099 -34.702721 26.240904
52.969601 -43.482204 18.084509
52.284401 -43.507309 18.185381
50.3111 -34.039509 20.008244
49.619099 -44.819981 19.925068
50.1437 -45.007225 20.019947
40.787102 -46.431244 22.358269
42.4986 -25.771751 20.404026
44.283298 -47.055199 22.023476
39.495499 -40.125332 28.09989
39.289101 -40.336044 28.050465
53.719501 -34.412575 28.176983
52.2854 -48.023258 26.590296
48.269501 -55.676689 22.533087
53.9604 -8.3479786 19.073883
49.1954 -41.051376 17.872028
49.865601 -40.857914 17.79656
51.846901 -43.565346 18.283882
51.932999 -43.655453 18.340532
37.179501 -38.573128 18.932411
37.008801 -38.395565 19.025198
51.777401 -38.293434 17.5387
49.9827 -38.430984 17.692112
50.792301 -38.273739 17.632973
46.977501 -40.297371 17.995213
46.622501 -40.549515 18.045851
51.9548 -36.910267 18.07225
51.312 -37.088367 18.037571
53.551899 -36.997257 17.788151
54.138599 -36.827061 17.824265
54.681099 -36.911949 17.692711
50.4846 -36.745792 18.408976
49.829201 -36.907639 18.385683
43.888302 -43.08984 19.077871
43.4715 -42.964748 19.020622
48.1973 -43.929905 19.221596
48.0257 -44.051933 19.384941
50.437801 -44.002777 18.908445
50.149601 -43.839905 18.790833
38.2118 -42.811157 26.92149
38.6278 -42.658672 27.193436
51.7691 -46.185261 20.703171
50.647499 -46.424141 20.985735
50.643101 -46.687016 21.111134
49.1665 -10.360397 21.825727
45.358299 -5.1176386 20.079515
51.883202 -7.5644798 22.075598
51.728199 -7.8041916 22.080208
43.451099 -2.117465 18.118179
49.546101 -6.7298546 17.895138
49.737701 -6.2591724 17.874395
54.079201 -7.755949 21.900721
52.2645 2.9040308 19.953251
51.452999 -8.8375206 22.131866
43.917702 -5.8324947 19.426243
43.7215 -5.9043102 19.305313
43.963402 -1.9630842 18.9683
46.8424 -8.4919434 17.973362
47.797699 -5.1070948 20.996305
48.4147 -5.7248554 21.237133
45.150902 -2.8177738 17.587576
53.662701 -6.9440613 18.931339
54.052101 -9.7937756 22.290009
53.919701 -9.7602959 22.316996
50.368 -3.8246078 21.547134
53.725601 -6.0800743 19.004738
52.6152 -8.4535408 22.207788
53.062801 -6.3009968 18.633209
54.4235 -8.1393623 19.421793
54.5508 -8.2537556 19.525547
53.923302 -6.0711803 19.158047
54.201199 -6.8169842 19.33514
54.241299 -6.7119141 19.385254
54.176701 -5.9845734 19.407898
51.682098 -2.0191536 21.491871
52.842999 -3.9338026 21.621937
48.223701 0.81631947 17.319725
54.0173 -7.5115814 19.144032
51.2453 -7.816328 18.184982
54.821098 -9.3679905 21.865082
44.178101 -7.4667454 19.751757
50.6059 -10.08654 22.104721
50.908401 -9.9499187 22.147175
50.174599 -6.2368984 17.921303
47.0993 -3.4569683 20.626259
49.922401 -5.3742037 21.588448
50.071999 -3.9674568 21.502316
52.9049 -6.117836 21.933773
52.083801 -4.2029333 18.239422
53.377899 -2.2911491 19.093166
53.8237 -3.2919121 19.463158
53.902199 -3.3948374 19.561432
53.455601 -2.0316896 19.238567
55.131901 -7.9631901 20.807833
54.674099 -7.610075 21.500544
44.844398 -6.6969528 17.909786
43.751999 -3.0607834 17.874609
47.032902 -5.8196297 20.798685
47.258099 -5.8019218 20.874882
46.495098 -5.1578856 20.547735
49.918598 -6.5652466 21.682411
48.578999 -4.8530626 17.671995
51.135399 -6.5588894 21.900791
50.980999 -6.7443352 21.893425
44.2519 -3.7573595 19.385387
44.1077 -3.7244253 19.295998
46.8829 -4.8001652 20.660849
48.373199 -3.056181 21.010201
48.134998 -3.0023298 20.933846
50.717701 -5.7479057 21.768805
52.2598 -6.2510757 21.975847
45.411999 -2.7526789 17.558292
54.718899 -6.1461067 20.371483
53.186699 -0.54038143 20.506807
44.441002 -4.3036613 17.784559
50.5443 -5.4396362 17.914753
47.716 -2.8024902 20.78215
47.512402 -2.9424038 20.726162
50.452099 -6.1665211 21.755941
52.1954 -3.9719734 18.277065
53.091 -7.1519852 22.050652
52.965199 -7.1597748 22.062576
47.528801 -1.4618063 20.600662
45.245998 -9.2215595 18.107151
44.209499 -9.5277882 19.986984
44.496101 -2.7549467 17.674652
50.9487 -5.0868702 21.751827
52.387798 -6.3571568 21.988743
52.872799 -7.6846924 22.128878
52.7276 -7.6153278 22.124315
51.942402 -2.5311041 18.175941
54.049801 -4.7424393 19.455029
54.083599 -4.6723967 19.510986
51.6395 0.32380962 21.139023
53.4366 -2.0795765 20.84943
55.1861 -9.8983288 20.023317
54.366699 -9.4257851 19.307869
53.4422 -5.8747206 18.830036
52.0173 -4.6151791 21.797691
50.702599 -7.2564926 21.888744
53.3195 -8.5251045 22.205616
51.766102 -6.2950497 21.951689
53.8881 -5.2082558 19.213579
53.900501 -4.988471 19.251989
52.5616 -6.1334171 21.959932
52.6465 -6.0197678 21.941757
52.540501 -4.5544844 21.760561
51.779099 -2.5446224 18.115519
53.028999 -5.3790283 21.809813
44.683399 -5.1556225 17.810722
14.19053 -36.047153 20.172245
13.30858 -34.186726 20.954212
14.11675 -37.882145 20.335066
14.30816 -37.700153 20.169874
16.30188 -34.996838 19.547176
15.99822 -35.989876 19.481113
16.529991 -37.342621 19.345718
13.88673 -39.783623 20.694849
13.19421 -36.246639 21.907948
13.20188 -36.368809 22.138481
13.1228 -34.363033 22.596769
14.371469 -43.182365 20.635092
14.63303 -43.306194 20.477243
14.13787 -43.009197 20.788944
15.82131 -44.151161 20.185266
19.328831 -34.375202 20.209988
13.26386 -38.27618 22.069527
13.25211 -38.035393 22.196495
13.30216 -40.282818 22.234676
13.29626 -40.512573 22.440273
14.89463 -43.332005 20.339418
18.106659 -43.282597 19.728086
16.99329 -44.08902 19.98568
20.5257 -41.937481 19.450384
22.7635 -36.728004 19.351231
24.313301 -37.13134 19.398243
20.2812 -44.009377 19.848438
18.0082 -45.330383 20.322544
24.009201 -35.729351 20.573755
15.757589 -32.476318 23.259224
26.6346 -38.071629 19.363684
26.4576 -36.662289 20.172348
21.6873 -41.329227 19.391207
22.6716 -40.365227 19.315811
22.7999 -40.750362 19.355207
15.608971 -47.658276 21.385719
25.735199 -41.136036 19.453766
25.5854 -40.762642 19.412195
24.2283 -41.80106 19.508978
24.0569 -40.576527 19.367516
26.0341 -39.344452 19.307674
27.6542 -39.652962 19.332577
21.3953 -44.273758 19.980663
21.8368 -44.791988 20.363184
20.0289 -45.509377 20.589712
19.652859 -45.424633 20.456841
16.023029 -48.173843 21.764315
14.79914 -38.572693 29.360064
16.576 -33.639778 23.696007
24.510399 -42.219051 19.581234
24.436901 -44.090664 20.363863
24.868099 -43.636368 20.072048
19.89072 -34.990105 23.496487
21.2819 -35.178074 23.16774
17.500141 -36.293575 24.944321
24.1936 -43.065266 19.748833
24.7304 -36.300632 23.225254
23.474701 -36.443619 23.570139
19.524399 -47.244503 22.287548
15.05526 -39.474751 32.663052
18.3521 -37.936901 27.50218
17.08729 -37.962517 28.159414
37.313698 -40.719952 18.845718
36.511398 -40.53492 18.898804
15.20504 -47.88364 24.515713
32.346298 -35.900906 21.725691
31.0333 -36.074524 21.583881
20.105 -37.702866 26.02486
41.0186 -37.434692 19.289288
40.7239 -37.215225 19.520258
40.8167 -37.675179 19.111702
44.282799 -39.538231 18.181688
44.331799 -39.342316 18.169857
31.2987 -42.885227 20.207266
21.5571 -37.654839 25.588213
21.6549 -37.534122 25.299696
23.090401 -37.752853 25.585445
23.2276 -37.309414 24.710567
16.71435 -41.327194 28.422466
17.546329 -41.647015 27.46319
24.7003 -37.241909 24.490849
24.5326 -37.750027 25.413546
25.834099 -37.606159 25.041992
33.4104 -35.499294 23.009422
17.368229 -44.041389 25.296228
45.735001 -42.328499 18.358921
44.998299 -42.197987 18.395805
43.488998 -42.35043 18.572906
41.518402 -42.026821 18.66679
52.792702 -37.268215 17.717878
52.5742 -37.380962 17.682098
52.9953 -37.145828 17.766275
35.076302 -35.384247 21.766907
35.316498 -35.622086 21.576071
18.814999 -43.759151 25.079002
20.1719 -43.574669 24.835497
20.1112 -43.270187 25.012434
19.754829 -42.123013 26.073891
19.81332 -41.601604 27.044842
21.181499 -41.465786 27.094191
22.5292 -41.344818 27.144739
23.380199 -38.267017 27.329393
21.5986 -38.456432 30.826611
21.1346 -38.434166 31.16255
20.225601 -38.291931 29.837311
20.137901 -38.317902 30.386061
50.8811 -42.296242 17.89924
50.038502 -42.125572 17.941908
48.297199 -42.325298 18.131647
46.1908 -42.180126 18.287878
44.424599 -41.861073 18.38471
45.795601 -41.833195 18.261602
59.3862 -37.435013 16.947264
58.549599 -37.596649 16.997452
62.300201 -37.21088 16.739347
62.7617 -37.367088 16.680698
60.647598 -37.738052 16.80397
37.108002 -35.540882 21.36488
36.811501 -35.337322 21.519627
36.6199 -35.05582 21.693213
47.076099 -36.33712 19.263971
47.460999 -36.157421 19.341003
58.495899 -36.760742 17.29265
57.953899 -36.922398 17.268106
61.278099 -36.544128 17.081417
60.555302 -36.92915 16.970642
21.7374 -43.094059 24.774477
21.545101 -43.361538 24.64871
37.808701 -34.100491 22.924294
38.6712 -34.603909 23.715954
39.883598 -34.128498 23.639076
39.4739 -33.962257 23.353481
18.19264 -39.862812 34.120422
42.074299 -35.654289 20.54134
41.6572 -35.864655 20.468376
40.921402 -43.027725 19.486012
41.121002 -42.87632 19.286747
38.7803 -43.145535 19.948841
39.320198 -42.716606 19.370556
58.781502 -41.100361 17.075737
58.3979 -40.761757 17.074753
56.820599 -41.535259 17.284035
55.094501 -41.427406 17.415356
53.654202 -40.852169 17.476683
54.9104 -40.592678 17.348259
34.873802 -44.312393 21.98295
35.052002 -44.563942 22.267576
35.0518 -37.334946 25.943586
35.299698 -37.5187 26.206903
38.968201 -35.454659 24.852856
36.8951 -35.750618 24.513962
36.620102 -35.988377 24.742855
38.258102 -36.024952 25.406769
20.882801 -38.569199 33.815109
42.877602 -42.534149 18.732174
43.7896 -42.53001 18.62117
42.286499 -42.589405 18.845221
62.1311 -39.846329 16.70472
62.438301 -40.178719 16.705605
60.839401 -40.643623 16.866966
32.5154 -44.581184 22.934467
36.5112 -34.779343 21.827789
38.0728 -36.190403 25.579748
36.4445 -36.614719 25.563667
40.352402 -34.224358 21.282433
39.255798 -34.832165 21.342215
55.292599 -35.351742 18.715855
55.9361 -35.068325 18.810371
52.620499 -35.449013 19.032528
52.175499 -35.296593 19.192461
53.764 -34.798748 19.252682
63.966499 -38.083481 16.544548
63.8326 -38.45623 16.545319
66.057205 -37.765408 16.429359
36.730801 -37.152527 26.360373
36.5606 -36.970749 26.089499
37.7085 -33.871967 21.793594
39.467598 -33.214634 21.519732
39.193501 -33.545471 21.548656
60.6703 -42.008663 17.025883
57.566101 -41.82502 17.257027
64.642899 -35.423576 17.510387
63.059299 -35.280582 17.810476
66.264198 -39.344299 16.441011
39.089302 -37.16235 27.245197
39.460602 -37.262131 27.463223
40.770699 -33.830837 21.278088
39.4622 -33.773952 21.481987
44.974499 -34.791092 20.516251
42.1553 -34.968506 20.86463
41.6479 -34.750099 20.999729
23.297199 -40.062298 30.761726
22.551701 -39.915295 31.786816
60.899101 -35.207016 18.122383
61.337502 -34.977604 18.263935
58.378399 -35.235905 18.399113
58.011299 -34.955639 18.638918
59.673302 -34.485596 18.795578
66.179504 -35.441975 17.372406
69.275803 -36.099106 16.618189
67.583 -36.089008 16.732473
63.854401 -40.087597 16.600853
30.1777 -43.411133 24.32967
53.3293 -34.645859 19.390419
51.062599 -34.811321 19.623005
50.831902 -34.605156 19.745573
56.7766 -43.000961 17.523621
58.503399 -42.834705 17.333427
60.023102 -42.949207 17.223619
60.730099 -43.454277 17.283878
42.595299 -44.770802 21.158394
41.5313 -44.481655 21.048798
34.759598 -39.475407 26.794779
36.242798 -38.580448 26.989319
40.867798 -36.77594 27.511831
40.516098 -36.672226 27.267664
47.6959 -34.036102 20.339758
63.021301 -43.043098 16.998356
60.728802 -42.844265 17.144983
60.020802 -42.611629 17.165035
61.240398 -42.299088 17.018768
68.695404 -39.098309 16.370514
38.505402 -37.932716 27.475414
40.747902 -30.348373 21.258797
43.995499 -34.565643 25.542801
44.4198 -34.345848 25.396587
46.536701 -34.157368 25.902184
47.041698 -33.140347 24.969896
62.635601 -43.791618 17.220186
35.804501 -44.149612 24.84404
45.9291 -44.084824 19.807537
31.9538 -43.31741 24.688416
30.480101 -43.195808 24.569527
34.609802 -39.864883 26.80978
45.967999 -32.767033 24.417961
44.151402 -31.343861 20.827358
43.285599 -32.479462 20.983627
42.714699 -31.382225 20.993475
70.049896 -38.351463 16.344173
71.592606 -37.912708 16.370373
39.0424 -45.511299 22.324369
71.334999 -35.580547 17.001282
72.234802 -35.235229 17.456867
74.842102 -36.933884 16.644585
74.887802 -36.614346 16.670082
73.294495 -37.423859 16.472374
73.377502 -36.492935 16.523804
73.173904 -37.840332 16.457577
38.144798 -46.640213 23.657425
43.919498 -44.870853 21.018734
46.404202 -45.134148 20.800852
45.041302 -45.254322 21.140266
38.293301 -40.975674 27.764828
35.933098 -40.31385 27.147596
36.196098 -40.728127 27.220982
44.546101 -37.09724 28.994478
45.3382 -36.238808 28.51333
44.866901 -36.399612 28.538641
44.543499 -36.586823 28.632816
44.6427 -30.236439 22.932842
46.576 -34.708645 26.756081
48.080101 -34.547077 27.074511
48.362099 -35.440361 28.507719
47.9981 -35.698826 28.727081
46.582699 -35.431793 27.880486
45.2113 -35.911903 28.044754
45.675098 -36.005486 28.33592
48.8494 -32.940731 20.357016
49.2299 -33.122261 20.301435
48.556801 -32.615242 20.408062
59.518799 -44.886211 18.318977
59.2892 -44.723988 18.1929
50.2981 -44.385258 19.338427
49.972099 -44.704014 19.739494
33.5326 -43.525005 24.837477
35.592598 -43.873806 25.051189
36.151398 -43.738075 25.346283
34.868698 -43.093735 25.598585
32.0737 -42.448528 25.482109
33.487198 -42.683559 25.596428
35.8228 -40.981899 27.088997
40.4594 -44.577465 25.811008
40.0499 -44.75663 25.50255
39.6964 -44.870308 25.292057
34.9687 -41.374947 26.778572
40.185402 -41.744892 28.185972
41.261902 -39.753769 28.589268
41.196602 -40.024429 28.587751
47.123901 -30.548801 23.672091
47.542702 -29.294788 23.414394
46.778099 -29.212154 23.205799
41.390602 -27.27615 20.95509
44.231998 -28.82029 20.592913
45.0392 -27.694244 20.387119
47.981201 -36.305939 29.424648
49.569099 -36.218822 29.757221
50.752201 -31.343147 20.23428
52.113098 -30.900715 20.139599
67.171997 -44.907948 17.44063
76.034798 -35.524876 17.491886
76.011703 -35.333096 17.782768
72.131195 -42.500481 16.745411
47.9216 -45.877899 21.071383
48.3363 -46.048985 21.100826
40.777702 -40.474701 28.478079
39.9408 -40.96032 28.229458
49.808498 -35.285686 28.726671
52.870098 -33.420498 26.626919
51.331799 -33.666264 26.668999
53.734001 -30.694008 20.070992
55.189899 -30.761421 20.044004
44.2183 -46.702133 25.329254
40.6031 -50.625542 23.346916
39.9645 -49.299778 23.348244
40.2108 -44.305813 26.022337
39.902702 -44.084728 26.165112
43.1674 -38.914394 29.055988
46.340099 -26.958786 22.620567
46.579498 -28.332619 22.949818
47.073502 -28.024128 23.013103
49.949299 -35.507568 29.049839
50.772701 -31.690407 24.900162
52.253101 -31.485794 25.064653
59.658699 -31.272484 20.089672
58.965099 -30.107555 20.229572
59.301201 -31.495708 20.021086
73.3927 -34.192139 19.499359
74.672997 -34.44733 19.275429
78.192902 -36.741474 17.232975
78.070801 -37.051338 17.163145
73.136703 -43.874561 17.038555
74.411102 -43.544899 17.106331
41.1437 -49.914013 23.666098
40.059898 -49.047607 23.450516
42.691299 -51.176311 22.733345
41.677902 -50.297668 22.791889
43.003399 -39.978039 29.109995
42.7542 -39.685558 29.021267
45.573502 -48.615181 22.175535
45.4632 -48.283169 22.135958
46.5163 -39.829323 30.088057
50.645302 -37.421806 30.790901
47.3904 -41.026012 30.297653
46.879101 -41.29068 30.129478
46.272099 -40.447987 30.021423
44.0942 -41.019974 29.392582
44.576199 -41.232243 29.506617
42.056599 -21.492384 19.069416
48.577 -27.896355 20.146849
49.228401 -27.788605 20.103653
47.913101 -26.613628 20.044102
48.282299 -25.84993 19.936119
49.766399 -26.457191 19.956192
53.041801 -34.088314 27.59561
54.381699 -34.020515 27.647699
66.462097 -46.31488 19.300772
53.4147 -45.827068 20.220474
53.638302 -46.04575 20.355297
55.595501 -45.891075 19.953558
49.392502 -26.23225 23.237524
57.3242 -31.981697 25.763233
57.192402 -32.294006 25.951168
67.688797 -33.099785 20.098263
61.520199 -46.549107 19.852264
60.020901 -46.77359 20.189211
42.3419 -50.729477 23.925838
45.191601 -45.017998 26.886597
45.261398 -44.774277 27.179068
50.655499 -47.646725 21.469563
50.456699 -47.967602 21.573334
48.838402 -40.224293 30.757427
46.805599 -40.176346 30.176437
46.4506 -25.860348 22.464027
45.850201 -25.771103 22.286243
47.060799 -24.362347 22.444544
45.757099 -24.165508 22.063467
45.311001 -24.558128 21.963337
51.1889 -29.006107 24.117531
52.248798 -28.091957 24.110329
52.085899 -27.507889 23.974306
55.411499 -35.412415 29.981392
56.621101 -27.679047 20.155773
58.018101 -28.858814 20.254663
57.039902 -27.720592 20.196056
67.375801 -32.011402 21.417084
66.674805 -46.475037 19.577894
68.333 -46.479198 19.649691
82.380997 -35.483299 20.002546
79.756104 -37.246696 17.564569
79.479599 -37.556431 17.468679
80.607697 -38.225578 17.755482
73.1763 -45.619114 18.084743
75.928299 -43.348255 17.264584
77.261597 -43.325939 17.47261
49.8302 -48.400818 26.063396
43.6516 -49.028278 24.502151
44.472099 -50.019325 24.582714
44.951801 -48.996208 24.845776
44.187599 -50.391109 24.468311
44.529202 -50.81419 24.524891
42.577 -50.338058 24.032902
45.740002 -52.258389 22.491714
43.929199 -52.105312 22.655687
43.887699 -51.382759 22.614466
45.3125 -50.7169 22.420876
45.947899 -50.974827 22.38018
45.867699 -43.391438 28.897587
45.682098 -43.601505 28.637505
45.4422 -43.74398 28.41909
52.1782 -37.931454 31.50333
53.335499 -37.869137 31.871403
73.332901 -33.311188 21.790668
72.914398 -33.283554 21.598228
75.142998 -33.745228 21.419094
73.900299 -33.700974 20.850945
50.377499 -46.975052 26.692627
49.584499 -49.959076 21.985319
49.7295 -49.565296 21.921968
47.452099 -43.010395 29.635283
47.747501 -43.242764 29.525316
47.453098 -42.777351 29.802307
46.267101 -22.633224 22.252289
59.248901 -33.268734 26.73119
51.335999 -21.371609 19.265827
51.2467 -21.021664 19.168447
69.987 -32.508888 22.03672
69.818405 -32.563721 21.765697
71.488205 -32.865875 22.030712
82.6735 -36.881573 18.553932
81.536499 -36.546112 18.229088
81.864197 -36.316982 18.419052
75.540703 -45.72142 18.685818
75.263702 -45.877663 19.022575
58.4244 -47.364433 20.735466
53.515202 -49.52573 21.700737
53.5555 -49.123753 21.617537
52.183701 -50.269077 21.876032
46.216 -52.509792 22.4694
47.546299 -52.051422 22.335432
45.0709 -53.279438 22.613729
44.1889 -54.393799 22.746609
47.5648 -43.502163 29.252085
46.876999 -43.869576 28.704624
50.974602 -41.186611 31.276474
50.717999 -41.530514 31.112524
40.9655 -20.665579 21.636805
56.8148 -35.377045 30.22624
65.012299 -46.674747 19.852695
80.484901 -34.793884 21.295528
75.744499 -33.722095 22.136658
77.427498 -34.108078 21.795761
79.053802 -44.884094 18.316814
48.9366 -53.927269 22.407618
49.389702 -53.386497 22.341253
44.179901 -55.464172 22.766081
49.820499 -43.946987 29.315996
51.446602 -43.905117 29.644297
50.656399 -43.173271 30.191093
54.9729 -23.297279 19.891762
56.120899 -26.173126 20.105181
55.4366 -24.723389 20.002176
51.665798 -50.466629 26.106407
52.068699 -45.766209 27.834715
50.5345 -45.664207 27.689173
54.241402 -51.672924 22.069893
54.029202 -51.036373 21.966982
53.220699 -52.810604 22.217339
52.478901 -52.817173 22.215656
51.806999 -51.539833 22.066299
52.372601 -50.885101 21.96464
49.257198 -42.175331 30.536934
43.6856 -21.353542 22.050468
45.041801 -21.520082 22.339563
43.873402 -18.992012 17.663433
59.295502 -34.583492 29.135426
60.530399 -34.137447 28.224987
55.053699 -21.268909 19.754696
54.57 -21.122595 19.641766
58.586498 -25.219025 20.842583
69.575195 -32.237038 23.162498
77.25 -45.741203 19.307638
50.0979 -54.163689 25.824253
49.680099 -52.708199 25.711269
49.365002 -53.158844 25.650114
44.919201 -20.81023 22.7738
46.239799 -20.929901 23.007717
53.460602 -27.179451 24.114113
52.905701 -26.802113 23.979916
54.593102 -25.883587 24.025032
53.098099 -25.412117 23.802193
39.784203 -19.730629 21.719303
40.504402 -15.841986 17.722404
45.169701 -18.797983 17.729885
45.464298 -18.506014 17.71678
53.0056 -19.254539 18.997501
52.876598 -19.652079 19.061451
54.4846 -19.500864 19.351025
72.589798 -46.610195 20.663937
72.338699 -32.938217 22.948978
72.143997 -32.883102 23.312721
51.727501 -51.34753 26.081789
52.026299 -50.860249 26.139439
53.557999 -50.726978 26.350126
52.909401 -42.365833 31.266914
63.372101 -34.669823 29.790543
63.027802 -34.818661 30.122478
60.698898 -34.666733 29.472466
61.029701 -34.830959 29.901611
62.203999 -29.063026 23.719376
79.352097 -34.461983 22.523685
79.694801 -34.53981 22.298424
79.622803 -34.52961 22.062767
70.227905 -32.477947 23.762671
73.435799 -33.179615 23.362263
82.5755 -43.084591 18.779871
50.576302 -53.82056 22.345701
50.395302 -54.478134 22.410238
52.0947 -53.50375 22.296452
52.4841 -54.033463 22.356146
38.9739 -18.161459 21.735371
40.332298 -18.088291 22.194191
40.531898 -17.766291 22.260448
59.880798 -27.333294 23.823215
48.778099 -18.057203 18.106888
86.449097 -41.840855 20.160173
85.304901 -42.419567 19.721773
50.983101 -55.179855 26.046867
51.895901 -56.004463 26.281326
55.346699 -46.218113 27.719061
54.454498 -44.216873 29.743244
53.0816 -44.037273 29.75835
53.122501 -43.746342 30.069576
52.957802 -20.072021 24.357185
47.019299 -17.588602 17.867304
59.2617 -38.486526 33.309784
57.835602 -38.724857 33.164902
53.7677 -18.815409 19.057827
56.286201 -20.499327 24.320688
45.771599 -17.948229 23.550716
42.8316 -15.59547 22.453884
43.1689 -10.187035 19.409403
60.266102 -27.281174 23.621506
58.716202 -49.051758 26.774035
59.794701 -48.393742 26.85449
56.399101 -53.519772 26.535238
56.967602 -52.274345 26.550049
54.875 -51.764 22.098248
47.350899 -17.732582 23.84243
47.070202 -18.0634 23.801609
48.195 -18.647411 23.989925
45.6427 -12.859892 18.336765
49.823799 -11.536623 18.296986
47.8801 -17.016182 18.045624
64.936798 -34.831272 30.333982
64.553604 -34.962505 30.622719
65.5812 -35.284027 31.43162
65.305298 -34.022552 27.994997
64.377197 -34.281082 28.794172
65.697205 -34.383209 29.123024
70.708405 -33.026825 24.758699
59.4814 -16.604046 20.926296
75.378502 -33.640682 23.511263
75.722801 -33.755447 23.687647
82.125198 -45.204967 21.719318
56.007999 -54.963585 26.56258
52.8298 -56.356499 22.571814
53.1978 -19.105083 24.602243
50.351799 -13.600613 22.640532
49.680199 -11.568045 22.079849
49.254398 -11.744732 22.00396
44.298401 -17.18679 23.187469
44.2757 -16.800917 23.126707
45.6968 -17.537878 23.515015
60.7645 -38.346523 33.42532
62.324501 -38.373856 33.519058
61.386101 -37.457745 33.245174
66.998795 -34.49892 29.456076
69.277496 -33.655441 26.267227
69.033295 -33.465935 25.974495
70.848602 -33.883575 26.355947
55.688702 -15.714207 19.662521
54.982399 -14.2903 19.484543
55.233398 -13.940561 19.647551
53.4827 -14.194471 19.00338
76.927696 -46.204739 21.790848
75.588799 -46.452694 22.194574
60.073898 -51.030804 22.452866
59.834801 -52.301235 22.916435
58.936501 -51.666328 22.451591
61.716499 -41.144711 33.594643
61.166199 -18.547487 24.588192
52.781101 -12.214725 22.64185
53.0882 -11.986837 22.639778
48.948601 -13.734884 18.37163
50.502701 -14.052799 18.489748
50.9674 -14.325857 18.55146
51.305401 -14.017618 18.587795
48.300999 -10.695786 18.173512
48.6022 -12.206524 18.292965
64.186005 -36.686062 33.130882
55.280701 -13.516165 19.736832
55.090099 -12.859949 19.672806
60.214298 -52.361069 23.117144
79.2537 -34.959133 24.551523
80.940804 -35.282188 24.208174
78.840797 -45.887184 22.228497
83.023499 -44.874817 22.948051
82.776398 -44.981548 22.687351
59.672901 -46.137119 27.832434
58.980701 -45.74509 28.225262
53.115898 -56.716423 22.609116
52.453999 -58.102303 22.626278
57.807999 -16.215527 24.374634
57.929001 -16.551678 24.532131
49.421001 -15.320349 23.584909
46.707699 -9.841671 18.103123
76.140999 -34.183903 24.602953
76.313904 -34.103539 24.316759
78.5411 -34.529888 24.013565
82.481903 -35.71312 23.939789
80.7425 -45.491055 22.562653
80.888199 -45.430206 22.817579
60.043098 -51.756603 26.19397
59.780701 -51.525715 26.31571
57.611301 -53.927742 26.467337
53.0299 -15.678003 24.07605
64.010605 -38.313744 33.544117
76.146896 -46.372715 23.447199
81.4897 -44.934727 24.123222
83.1987 -44.56855 23.736368
59.114899 -52.972649 26.270647
58.520302 -54.246407 26.279697
58.729401 -43.894764 30.649519
58.218399 -43.104607 31.586317
54.059299 -57.641693 22.771456
52.8643 -58.385597 22.675356
52.740799 -17.946674 24.602282
52.442402 -17.666302 24.551853
53.519402 -17.046978 24.565228
51.634899 -9.3013573 18.344709
52.0326 -10.816441 18.509735
50.140099 -9.2558041 18.137962
50.105099 -7.8873177 18.034458
50.424702 -8.0425568 18.080944
50.956501 -9.7486038 18.267334
76.1203 -46.352737 23.696217
79.156601 -35.042442 24.718018
87.786201 -40.258827 22.785412
59.773602 -43.08971 31.8438
59.666199 -42.771732 32.228951
61.585499 -43.488449 31.576235
61.2169 -42.671268 32.619984
72.542603 -46.965836 24.737274
72.319305 -46.937584 24.968441
80.482597 -44.821163 24.856716
81.254204 -44.886162 24.368475
52.265499 -9.0770226 18.458088
51.876598 -7.5211391 18.290146
63.036301 -50.920639 24.606981
65.135895 -48.390045 25.94099
72.553696 -46.760544 25.218121
74.872803 -46.156555 25.227215
72.0644 -46.341038 26.016796
79.867996 -44.63728 25.35338
64.181999 -49.066582 25.772717
66.848404 -44.996937 29.217833
66.667702 -45.209064 28.82864
68.092606 -45.392117 28.336922
56.801201 -58.126991 23.459299
73.521896 -34.811386 27.488623
62.794498 -51.047863 24.872782
55.516602 -12.170649 22.21167
66.4478 -44.825855 29.580704
68.929298 -43.509583 31.689207
67.444504 -42.898033 32.595856
67.560699 -43.210155 32.237495
85.0271 -41.76984 24.199415
85.311897 -42.073399 24.076595
83.685799 -42.00959 24.663637
84.304497 -42.859081 24.410553
69.766403 -44.353111 30.129688
68.414398 -44.242138 30.538773
79.6063 -38.268997 25.445698
79.611198 -37.700375 25.379791
78.425797 -36.899136 25.575903
82.270103 -42.215988 25.100689
82.4692 -42.496021 25.039063
80.781998 -42.399532 25.521187
81.347504 -43.176849 25.357613
80.7957 -42.005215 25.501945
55.479801 -10.998886 21.794065
72.485901 -45.89315 26.506525
71.326004 -45.309505 27.822866
73.697495 -45.049 27.393929
75.382599 -43.978531 27.652014
74.912804 -43.370895 28.305141
51.228001 -59.167542 22.502529
51.367699 -58.631432 22.552723
50.087101 -58.426979 22.498459
42.8643 -57.815567 22.544174
52.990601 -56.772102 26.548347
53.672501 -58.474632 27.236252
52.135601 -58.270088 27.002935
50.561401 -57.908211 26.613916
14.06083 -36.278858 20.292498
13.49819 -37.704014 21.067728
13.41716 -35.890846 20.991581
14.023701 -39.632141 20.545799
16.698629 -34.100742 19.791374
13.444139 -37.858456 21.218523
13.59993 -41.378555 21.229982
13.86118 -41.121231 20.830063
13.53045 -41.390987 21.395346
13.43906 -39.783962 21.493015
17.01944 -39.864983 19.330067
15.384291 -42.299625 19.961372
13.33371 -40.558868 22.08098
19.949139 -37.128307 19.159821
20.1768 -36.860798 19.168961
18.461029 -36.739517 19.204697
18.515781 -38.499454 19.197348
18.85585 -38.126102 19.178196
18.16321 -36.997646 19.208719
14.14776 -44.673977 21.002995
17.10107 -40.899796 19.40493
16.43124 -42.691715 19.754889
18.39143 -42.191216 19.51614
15.69124 -44.670589 20.331512
15.99815 -45.022022 20.353367
13.39353 -38.413792 23.405184
13.31892 -42.110291 22.908003
13.33857 -42.117413 23.22472
26.389 -38.284515 19.315796
24.5345 -37.914364 19.260073
19.203671 -45.34676 20.379728
18.62533 -45.444786 20.406685
18.107651 -45.799095 20.553967
18.076111 -46.158806 20.743931
17.07324 -33.110294 23.287224
28.5506 -38.172356 19.435465
21.565899 -42.170937 19.490936
16.83614 -47.212345 21.243885
18.02594 -46.435966 20.917086
21.615299 -42.941975 19.611395
17.08112 -33.544975 23.517517
18.36591 -34.454247 23.652719
22.8864 -43.166309 19.709148
23.5145 -42.89101 19.679913
18.437359 -34.897446 23.875242
27.2293 -40.91172 19.436199
28.973801 -41.01178 19.426031
31.5861 -38.671799 19.25029
33.250702 -38.740635 19.149576
24.2136 -42.644196 19.653181
14.82362 -38.872299 30.804974
17.92885 -36.856544 25.285988
33.357498 -38.548409 19.204582
31.2528 -37.470848 19.94651
24.3776 -44.25061 20.534351
22.735901 -44.865814 20.787184
29.1924 -41.352371 19.473206
27.6096 -42.313198 19.721302
27.5492 -41.933643 19.59985
31.0044 -40.696758 19.308178
35.211998 -38.860222 19.001215
37.644798 -39.153038 18.769413
37.1385 -39.391029 18.794823
34.1217 -39.451023 19.025841
24.8976 -37.050407 24.193327
26.3004 -36.851303 23.856602
15.251471 -38.394772 30.736294
15.551889 -38.294582 30.855715
15.93051 -38.199894 30.718342
16.25219 -38.074841 29.279266
32.136398 -36.772465 20.716671
33.8433 -39.710724 19.053238
22.661499 -45.02076 21.033274
