# .PCD v0.7 - Point Cloud Data file format
VERSION 0.7
FIELDS x y z
SIZE 4 4 4
TYPE F F F
COUNT 1 1 1
WIDTH 1719
HEIGHT 1
VIEWPOINT 0 0 0 1 0 0 0
POINTS 1719
DATA ascii
56.9734 7.4623399 59.166199
75.236504 8.6614199 47.126099
73.257797 9.1245403 46.5098
73.831596 6.9591999 55.602501
50.322498 11.2515 60.934898
50.381901 11.7672 59.327599
46.5159 13.9317 56.596001
48.262699 13.3304 57.081902
48.656799 12.3224 58.228802
49.759701 11.5482 31.3953
49.0047 12.3335 28.9653
50.535702 12.17 29.7269
36.056 11.0617 27.444799
39.558899 6.1549602 26.052299
52.919601 18.5245 47.9119
55.1861 18.5471 47.7677
56.356098 15.3448 45.951099
48.548599 10.44 36.046398
40.181599 5.97368 27.837601
42.778599 6.4418802 27.837
47.827801 8.1978197 26.850599
52.854099 9.8373804 28.633801
50.217499 9.6643105 32.1735
60.0177 8.5098305 58.6427
58.035198 8.3855801 59.249699
76.440201 8.43472 47.925598
75.072403 6.1183701 55.055801
77.141701 6.6155601 53.867699
71.368698 7.4331598 56.2206
47.862499 10.8859 64.493401
45.888901 10.8078 67.653
47.066399 10.7307 66.875298
48.713001 17.2787 54.562302
49.635502 18.912901 52.863899
49.457901 18.4902 53.652199
47.7285 11.0128 32.646301
51.651798 11.6267 30.5453
51.386799 12.0095 28.9739
40.223202 11.2192 26.0497
37.422798 10.9981 26.347099
41.6106 10.4636 20.4988
42.530701 6.5834799 26.0298
51.948601 18.9764 48.968102
54.868198 18.9174 48.354099
56.971802 16.6402 46.544701
53.246498 10.3691 28.630699
49.132999 9.9604397 33.117802
56.127602 8.3310003 60.003101
55.186199 7.7996898 60.100201
78.393799 7.3815298 51.732899
75.788696 7.2213702 54.947498
74.907898 7.7283502 55.273499
52.6077 11.5508 59.1978
48.907398 12.7925 57.5742
46.566399 6.9608798 64.6903
48.3573 10.3039 34.227001
51.933201 11.6845 28.066799
49.722 11.9573 27.5844
43.018902 10.8427 24.743999
39.902401 11.5297 26.758801
40.065102 6.41747 20.5333
42.224998 6.6422701 23.802401
56.904999 18.647699 48.053398
58.365501 14.4159 45.652901
48.499298 9.6001196 25.753401
50.970901 9.70644 26.9429
52.788399 10.2106 30.393499
53.294102 10.7421 29.627199
48.917702 10.6815 32.6716
58.121899 9.38414 59.368
54.885399 8.27668 60.5797
51.867699 8.3193998 62.6586
53.342201 8.0179901 61.238499
78.377296 7.3721499 50.427898
68.297798 10.8336 45.955502
71.714699 10.0694 46.551701
52.137001 11.1399 60.225201
49.529598 10.7573 63.4715
52.606098 14.1542 56.608398
45.380699 6.9302702 66.3088
52.8312 10.7896 30.6373
52.914501 11.213 30.200899
44.6903 12.2972 29.101101
41.936001 10.5028 19.408501
42.284401 11.7185 26.743
34.698101 8.3945103 14.5303
35.4627 6.3660698 17.597799
52.962002 19.2505 51.793499
58.884399 17.250799 47.015598
58.735699 15.9142 46.279701
60.164902 13.5468 45.478901
61.575199 12.5919 45.303101
52.4963 10.5219 27.683701
53.272499 10.9349 28.711
54.651798 8.8499804 60.906799
76.020699 9.0734797 48.5135
76.624702 9.0576601 49.935799
72.103203 8.23353 56.016499
51.272099 10.704 61.841202
51.4632 15.1841 56.066002
49.436699 15.7225 55.6394
42.073399 6.5550399 69.642197
51.976101 18.132999 54.391701
52.793098 11.2314 28.205099
50.5359 11.5883 27.109301
44.1068 12.1507 27.9077
41.898499 12.0178 29.1884
44.431099 10.8765 24.326599
46.3493 11.1908 25.749701
52.484901 19.0783 53.0051
55.812698 19.188601 51.2799
53.197399 19.2383 50.258801
58.711899 18.0487 47.650799
64.543602 11.5385 45.3717
59.685398 9.3282604 58.8395
56.8717 9.0768499 59.849701
49.685699 7.6083698 63.834202
47.1101 7.2901702 66.916
73.960098 8.8168497 55.328602
54.353901 10.9408 59.641602
49.416901 10.2736 65.254097
46.254002 7.0851402 66.788002
44.624699 6.8982501 68.1688
41.022301 11.8852 27.791201
44.0849 10.5778 21.617001
33.402199 6.9825301 13.4583
33.506802 6.7789202 14.3424
55.746799 19.182899 49.807201
54.8764 19.130199 52.742802
58.4879 18.5721 48.4403
60.724899 16.146799 46.6759
46.041901 8.8847799 23.253401
47.345798 9.9435997 25.271799
57.473202 9.8137903 59.487598
74.072601 9.8444796 48.068001
69.787003 10.9903 47.165501
76.228203 9.2930603 50.952
56.084801 11.3765 58.581299
52.205299 12.2113 58.139999
48.250999 10.579 66.041199
54.0313 13.2606 57.0644
53.561199 15.1925 56.122601
54.9478 18.802799 53.758999
39.335098 11.7138 28.6898
38.331799 9.8199997 13.1281
38.389 11.5026 27.604401
33.784302 7.5332799 10.432
35.227299 6.4207001 14.2534
56.5546 18.919901 53.373901
60.038399 18.1141 48.210899
61.833599 13.7645 45.813702
54.968498 10.2068 60.249802
55.448502 9.5316496 60.440399
53.3344 9.6659298 61.582699
48.360802 7.6278601 66.088501
77.421799 8.2996798 52.885799
75.281303 9.6227903 49.602402
72.4245 9.7096596 55.460899
50.5107 10.4247 63.3423
51.4753 10.3663 62.392799
52.825199 10.4003 61.1842
57.363201 10.6786 58.954498
57.751598 11.2757 58.297298
55.762798 11.9656 57.9715
55.1063 15.8669 55.848801
34.964001 8.3776302 9.7417002
36.347 9.0468998 9.0128202
41.6423 6.7115302 17.336
57.283401 18.476 54.087898
56.951 19.0301 52.697102
60.7966 17.2675 47.520901
41.891998 6.9763098 13.9303
62.772202 11.0155 57.3811
49.550598 8.16537 65.384102
72.030197 10.5025 47.9776
69.679604 10.1854 56.059502
55.888302 14.2931 56.518299
55.464298 16.9319 55.353699
38.294899 9.7944002 10.3577
39.216499 6.6009898 9.7787905
58.195301 18.923401 51.855202
59.718601 18.602699 51.166302
60.758099 18.2556 50.865002
62.454201 16.579901 48.000099
42.063202 7.24579 11.7892
66.211899 10.3036 56.924
52.006401 10.0749 62.346699
48.142399 8.2246504 68.421204
48.507301 8.0444899 67.038803
47.4244 7.8608499 70.245598
76.016998 8.8726301 53.971802
72.948303 9.9097004 55.02
51.285099 10.0858 63.081902
57.634499 15.9297 55.7789
39.4781 10.1047 11.3618
33.8792 7.1303601 9.5940399
34.7071 6.6456599 9.8647604
61.359699 17.6698 48.659
64.795799 13.2485 46.867699
50.1642 8.6267004 64.994499
74.243896 10.008 51.260899
70.672096 10.394 55.585098
56.686901 17.859501 54.741798
38.4464 9.6416502 6.0985899
35.051399 8.1578302 6.5506701
34.390301 7.42839 6.9247098
63.726101 14.4947 46.933399
44.187302 8.7664099 14.7457
46.745399 10.6567 25.293501
48.547001 8.7021904 69.7686
49.112701 8.6862402 66.819
72.295601 10.5827 50.689301
68.900703 11.1216 55.5154
58.870201 11.9969 57.488701
48.8424 9.4681501 67.666603
44.299198 10.2814 19.378799
40.924198 10.2535 9.9561901
34.948399 7.8441401 5.6293702
35.966301 8.5371704 5.1376801
34.7439 6.8566799 7.9320202
60.088902 18.079599 53.717201
61.414501 17.920401 50.0658
62.603802 16.9972 49.474602
50.004398 9.3198605 65.456596
58.793999 14.4017 56.3442
60.768002 12.6561 56.855701
38.471802 9.4611197 4.7135901
42.651001 10.1873 12.4197
39.8386 10.0896 8.6284399
41.555901 10.1894 9.7848396
35.4795 6.69174 7.9126601
39.160702 6.9245701 6.5719399
61.594601 17.8374 51.326401
64.424896 14.2256 47.505901
70.373299 10.9994 49.242901
42.034698 8.2368202 7.6174798
42.463299 8.5411997 8.3826799
48.591702 8.8849001 68.5037
72.1856 10.5943 52.174702
60.3965 15.0986 55.918999
60.815601 13.5194 56.487099
43.180199 10.0162 13.1744
40.8465 9.8620701 6.5521102
35.8582 8.1869698 4.1912699
36.927799 6.5123801 8.70294
38.112701 7.0062099 4.9651799
39.402401 7.40306 4.4653201
63.881901 15.5281 48.821899
43.3148 8.7912197 11.2587
70.554001 10.9962 51.647202
67.379997 11.8959 54.973499
59.549999 16.6626 55.290298
40.151402 9.93853 6.7319698
41.5858 9.9211903 7.7474098
36.875599 6.8035102 5.9572902
40.553299 7.3243699 6.96419
62.394299 17.1031 52.412899
41.952 8.6423903 6.8024001
43.442001 9.1391802 11.7819
62.133301 16.3356 54.673302
41.2369 9.5555897 6.0816998
36.705799 7.56006 2.97774
36.9627 7.2206898 3.74247
39.172798 7.7865901 3.14815
67.910599 11.6063 49.704102
66.650597 12.1983 50.397701
68.905602 11.3662 52.583599
69.042503 11.32 51.0937
63.848999 13.1949 55.972401
37.514099 7.7217398 2.5037999
65.827003 12.9571 49.198601
42.153 8.9588404 7.24403
67.411003 11.8954 53.781898
63.363701 14.1205 55.633301
62.389999 14.1328 55.961899
39.085899 8.8508101 2.7364299
40.025101 9.3909101 4.1828299
42.616199 9.8933201 10.4754
42.445301 9.4004097 8.7086401
38.1959 7.5487499 3.01071
39.889999 8.1671801 3.2590001
38.6978 8.1051397 2.4508901
65.425201 13.6929 49.698799
41.416 9.0146999 5.5811701
40.710201 9.1667805 4.3766699
65.732498 13.2776 51.042801
66.459198 12.3828 52.493198
64.797897 14.6364 51.723301
65.376999 13.5562 53.109402
64.319702 14.7159 53.865799
64.563004 14.6928 53.177502
34.1115 6.5381799 84.777901
34.8372 6.4530201 88.129898
36.691399 6.2746601 77.986801
35.681198 6.3509898 86.5308
33.5406 6.70994 86.6744
37.133301 6.02143 76.329903
33.1105 7.0767398 86.238503
32.867199 7.5819898 78.213501
33.9277 6.74647 90.172501
33.905499 7.2111101 92.687698
34.3727 6.98594 93.7836
33.3657 7.1698799 89.130302
33.798599 7.58675 91.120003
35.629299 6.7290902 95.048599
35.1903 6.89188 95.574501
36.307999 6.58427 94.204697
36.480499 6.8129601 96.336502
38.5616 6.6227999 93.5783
34.351398 7.6580801 94.408997
39.505798 6.5503898 90.508499
38.017899 6.9092999 96.647903
35.2547 7.2446599 96.863998
34.7323 7.39781 95.905197
39.901699 6.7566199 92.6595
35.070099 7.83077 96.574799
36.447601 7.4350801 98.677299
35.833099 7.7321501 98.2827
36.881901 7.7400799 99.383797
37.493 7.6303802 99.361504
39.368301 7.33321 97.466103
41.221298 6.49512 78.414902
35.5495 8.3014202 96.6931
34.866001 8.3418798 92.687897
35.127102 8.5234203 92.001297
34.187801 8.1929302 82.241302
36.120399 8.6003599 97.147903
35.643299 8.6216602 94.798698
35.147598 8.6149101 88.448097
34.679199 8.4453297 80.337097
40.885601 7.23317 94.020897
37.499599 8.4953899 99.491501
37.146801 9.2027397 96.009102
40.193699 7.3311 95.964104
44.282299 6.97574 76.485703
42.777699 7.2339902 86.9636
40.0798 7.8280401 97.756104
42.818001 6.7424202 78.305
41.101398 7.7422299 95.552803
38.5019 9.4665604 97.274696
42.049801 7.9552999 93.694298
41.662701 8.1895199 95.351402
40.866299 8.4613104 97.265404
39.241699 8.9136896 99.208298
38.632 9.7269096 95.410301
39.396 9.9166498 94.962799
37.919701 9.6462202 92.967598
40.0103 9.3436499 98.102898
42.773201 7.8465099 90.842003
38.9487 9.9875498 90.178802
40.399899 8.91117 98.187401
41.9156 8.6048899 95.285103
42.5294 8.4338303 93.2509
41.1646 9.1168098 96.796097
40.807499 9.9735804 95.018204
40.899101 10.2681 91.942299
39.503502 10.1176 86.693901
40.900799 9.5869598 96.457703
43.419498 8.5820398 90.183098
41.348999 10.1315 93.242996
40.350899 10.2101 92.326599
44.9772 7.9700899 81.294403
45.888599 8.1452999 78.384903
41.824501 9.5636396 94.864998
41.969898 9.0827703 95.193298
41.491798 10.2838 91.350998
40.516399 10.3207 79.528198
42.581299 9.4966803 92.999802
42.709499 9.1408997 93.0951
41.688702 9.9031296 94.024803
43.278599 9.3849096 90.768501
42.146599 10.4286 87.801903
42.797798 6.3707299 72.296898
45.653702 6.9664998 72.788597
46.772301 7.4114399 71.744698
45.055199 6.8109598 73.613701
42.939701 6.3460598 73.352097
47.1147 7.3583298 73.762901
40.344101 5.8875098 73.072701
50.380402 8.44209 73.301498
50.008598 8.9432898 71.306
43.006901 6.5287399 71.224297
43.679901 6.6135201 74.530701
48.275902 8.0072203 71.589203
51.5005 9.0116196 73.881104
37.144699 5.68186 71.184502
39.272999 6.0968399 70.617599
49.9729 8.7035503 75.013298
52.188 9.5462303 74.539101
51.751999 9.2871504 72.737198
37.553001 5.4921999 72.614197
42.313801 6.5087099 75.9543
40.950802 6.0992498 74.381699
48.5368 8.38132 70.699501
51.577599 9.6005096 75.260696
52.813499 10.235 74.672501
34.305099 5.1360898 72.310501
49.047298 8.7904902 70.460503
51.503101 10.1929 71.209099
38.804501 5.9531498 75.267303
52.8279 10.2828 72.346397
53.360901 10.7704 73.351402
38.1455 5.6202698 73.9095
51.412498 10.0346 75.710602
53.1381 10.9269 74.353996
52.957001 11.1965 72.484703
33.5285 5.0524998 73.159203
36.248501 5.5684099 74.753601
31.8866 5.5708799 70.257202
49.810799 9.9402103 70.204803
52.481998 10.7722 71.756104
52.5056 11.1977 74.941704
35.4296 5.2356901 73.456703
29.2561 4.9881201 73.201599
29.2731 5.3091698 70.952103
34.277401 6.3667498 69.042603
52.172199 11.5769 72.230202
30.5126 5.9577699 69.762199
46.716702 9.8434401 77.757401
51.5201 11.4014 75.339996
52.033699 11.6829 74.493202
50.879799 11.7393 71.660103
51.417599 11.9618 72.8881
26.7894 5.3379898 71.921799
27.6544 5.6770301 70.598999
27.475201 5.5138502 74.433403
29.468201 5.60396 75.108803
28.7845 5.1536999 74.029404
45.988098 10.4365 77.794403
48.0746 10.9201 76.594299
49.461601 12.0259 71.807098
50.562698 12.0625 74.306
27.5648 5.1367102 73.191498
50.426998 11.6818 75.290398
49.157299 12.3085 73.136703
26.0534 5.5367799 73.525703
26.0168 5.6703601 71.411598
31.4538 6.6370301 68.840897
26.6152 5.81212 74.535103
46.699902 10.8053 68.661301
48.776699 11.9764 75.032204
46.950199 12.333 73.6996
26.7227 5.92735 70.5942
25.4324 6.1268601 71.328903
25.7269 6.0062699 74.122498
26.2253 6.6901102 74.7052
45.442699 12.2064 71.737701
24.966801 6.6066499 71.674896
31.2381 7.2120199 68.426697
25.1458 5.8361001 72.639702
24.7285 6.4361901 72.582199
42.238998 10.6721 77.994202
42.363602 10.5588 67.645897
43.299999 12.1049 71.814796
27.242701 6.4749699 70.030502
25.2976 7.11059 71.317001
25.1206 6.8393502 73.638901
40.6264 10.602 77.028702
40.833099 10.4436 68.502502
44.5746 12.0913 74.405197
41.098099 11.8768 71.858597
28.1954 7.49227 75.578796
30.6521 7.7209802 76.3554
42.648399 11.7183 75.0588
41.5285 11.8831 74.068703
40.124599 11.0418 69.810799
40.959702 11.4906 70.480698
41.8507 11.8503 71.222702
26.111 7.4502001 70.7677
25.5821 7.5286498 73.389
35.710098 9.3284798 68.3694
40.168201 11.4188 75.057602
38.138599 10.887 69.959297
25.683701 7.57903 71.428001
37.6325 10.8657 75.462402
33.0452 9.2898397 69.148102
37.593899 11.3013 74.0951
38.745899 11.3701 70.932701
29.689301 8.0313501 69.2202
26.355101 8.0870199 71.899597
26.7428 8.0518503 74.116798
36.013802 10.3654 75.867699
32.3368 9.7893896 75.152702
36.556099 10.8488 70.371101
27.0054 7.9867101 70.624397
26.9816 8.4257097 73.294403
34.805599 10.4916 75.030701
35.1852 10.7034 70.793999
30.5704 9.16819 69.985703
28.4261 8.8087301 70.879799
28.102301 8.6381702 74.296204
28.692101 9.1238899 73.419403
32.4319 9.9176302 70.3498
34.144001 10.6934 73.769699
35.574799 11.0843 73.287102
34.453602 10.8217 72.066902
33.747002 10.6919 72.875198
36.488602 11.2603 72.929604
2.89502 7.4140601 42.860199
3.39851 6.9656 45.817699
2.9539599 7.8422399 44.6642
3.8435199 6.3550401 51.204399
3.51671 6.8726802 49.508801
3.86847 6.3934898 54.362999
3.6110699 6.6938601 52.8055
3.4442201 7.14533 52.9174
3.2441499 7.8530502 48.112202
11.3091 5.09267 47.414101
11.9565 6.0316701 46.209202
3.27177 8.4364996 48.286098
3.3399999 8.8355103 49.929699
3.3224599 7.8537402 52.252998
3.07493 9.3647099 43.507401
10.0724 5.6705098 46.0093
2.9904599 8.2600298 57.729301
15.1019 5.29287 47.9188
10.7665 4.9950399 47.944801
3.93555 10.532 47.8535
4.23984 9.2324495 42.359901
17.365 5.0942898 49.048302
3.57844 10.0028 51.9687
13.6033 5.0388098 48.3181
12.9496 4.9565201 48.832802
11.1467 4.8835101 52.308601
12.0335 7.5542698 45.239201
4.15132 12.1291 50.0298
13.4664 4.9649901 52.882198
11.0065 4.9308801 53.3218
6.31391 6.3811402 58.403999
7.8955598 6.5711298 57.994301
3.0063901 8.9662905 57.655499
3.9329801 11.0648 52.8615
4.2281299 12.7587 51.500599
20.3568 5.3273602 48.626701
4.4825101 12.3765 52.795502
8.5482197 9.1258497 44.235298
9.3635798 6.3635998 57.061199
3.0748401 8.2944899 61.035999
4.0965099 7.7184901 60.958401
20.5476 6.4705601 47.5755
16.7083 5.09273 52.9995
19.8885 4.9587002 49.847401
5.37848 7.2343202 60.2393
17.3188 8.98032 47.248699
22.2908 5.1968198 48.799599
17.5364 5.3766499 53.6418
3.3654201 8.6958199 60.7868
12.7526 9.6386404 47.509201
6.7328901 11.7219 48.343102
5.0655899 17.0291 50.276501
19.6371 8.3521099 46.844398
4.6553001 10.6417 55.752499
31.9753 4.3196301 48.833599
5.6747999 10.742 55.382301
5.5046 19.3025 50.3512
24.1576 5.6903901 48.222801
5.52315 19.778 51.516399
5.2342501 19.127501 50.637199
26.9104 5.26086 48.428299
22.6576 4.8706002 52.4454
21.8605 5.2527299 53.173801
5.85427 9.50881 58.438801
5.81392 20.771999 50.650002
29.2945 4.2395902 50.722
40.695 3.44503 48.581799
6.08744 12.0353 53.508099
8.0021 12.3718 53.121101
7.5873399 21.2145 50.476101
27.572001 4.6902399 53.060398
14.505 7.70188 55.869099
6.74895 10.1221 56.476799
41.361401 3.5978501 47.999802
46.219501 2.8682499 49.079399
10.6742 8.9291401 56.751099
26.1964 7.3920698 46.4953
10.4554 11.2064 53.393299
27.7651 6.3993001 47.317101
24.2449 5.34237 53.464401
15.0001 8.8589497 55.053299
10.5777 9.3661203 55.880402
8.6376696 9.7965298 56.164299
6.2824798 17.790001 52.072701
49.0224 2.5882699 49.954201
8.9876204 18.278099 51.923599
40.245701 4.5085702 47.117901
36.0947 5.0857801 47.258598
26.3325 5.14572 53.423199
14.9174 12.709 52.427502
28.6441 4.7507701 53.255402
49.805401 3.58477 46.506699
28.701 8.6566 44.136002
11.972 15.8201 52.013302
27.7393 5.5230098 53.918098
17.6423 12.6069 50.329102
31.2078 7.2653599 45.063301
10.6653 20.168301 50.5602
36.953899 5.7968898 46.287201
32.787102 6.2816501 46.557999
46.820499 4.5963998 45.834099
56.573101 2.74965 46.532501
33.2757 10.5673 44.916599
31.4729 11.8572 46.704399
10.9109 20.731199 50.8764
34.919899 6.3489099 45.9786
26.2283 12.2713 48.703499
29.091801 11.6652 47.220001
30.3594 7.1321502 45.824001
36.3344 6.4191499 45.4216
10.5398 17.9112 51.8489
12.7022 18.3874 50.901199
50.2743 5.0622602 44.790901
44.402802 5.3926601 45.166901
55.401901 3.4519601 45.9058
31.1901 5.38342 54.262001
17.5382 10.411 53.5494
29.7271 7.9187498 42.790699
32.990799 11.9343 46.3214
14.3408 15.7942 51.337601
12.1728 18.004101 51.562901
47.7397 5.4099498 44.5443
51.286201 2.68277 54.3843
29.2703 12.7582 48.058498
35.773102 12.6154 46.0751
36.101398 11.2068 44.7001
13.3736 17.2691 51.2645
50.723099 2.93507 54.818199
29.636 6.9606299 55.704201
28.6301 7.9324002 57.965599
22.306 11.9224 52.111
36.449001 10.5494 43.445
33.2323 9.7683096 43.599499
31.9727 7.4380498 42.232101
33.204498 12.7755 46.906601
33.2836 6.23774 55.546398
22.7038 10.0448 54.490299
44.116699 3.7771599 54.785599
61.457298 3.5949199 45.626999
27.5214 8.8929901 57.052101
34.660099 14.9717 49.055698
30.021 13.8084 50.817501
31.1817 7.7301998 38.844002
38.184799 6.5539198 44.173801
57.399101 2.14973 53.735802
47.833199 3.3069799 54.858002
54.718201 2.7528901 55.1772
25.8531 12.0123 53.493198
30.3356 13.8046 49.515202
48.616699 3.5752001 55.335602
55.9604 6.03757 43.817799
64.521698 2.81392 46.317001
24.2647 12.0978 52.585899
32.672798 14.5349 49.910702
57.900902 2.41907 55.056801
30.4121 9.4433804 57.521301
28.3088 9.5530901 56.5177
32.4147 14.5087 50.5728
42.910198 6.5139198 41.416199
44.322899 6.62079 39.834999
51.8349 3.19965 55.388199
68.9356 3.4467001 46.758801
33.484901 9.9646101 58.113602
29.542 8.1530399 59.522099
39.646801 6.1750798 57.2491
36.2505 6.6562901 57.437901
27.7264 12.877 53.057201
32.245998 7.5822301 34.540401
41.171501 16.552099 48.652599
41.6992 6.6779599 38.951401
54.8214 3.4946799 56.082001
66.7649 4.0341601 45.822701
30.9023 7.9183202 62.291
31.4858 6.6635399 32.448601
34.780998 6.8597298 34.968102
55.605099 8.1705999 41.889
49.918499 4.6394 56.722698
69.000397 3.86657 46.216301
69.770103 4.45891 46.053902
31.423901 11.1381 55.901901
46.788399 4.8657198 56.522301
32.3522 7.7434802 35.237
28.6653 6.23071 31.455799
37.5965 6.8007998 36.5924
44.069599 12.0059 43.491501
65.389603 5.3109698 45.189899
40.1894 11.2793 58.8353
33.891701 11.2819 56.513401
33.424 14.1894 53.989101
38.344601 16.204599 50.811699
28.6408 5.7165899 30.927799
35.004902 6.4500999 33.080101
35.816101 6.74192 34.8032
46.4258 12.4849 44.0159
52.348 4.7200999 57.073898
55.770901 4.63556 57.1143
36.830502 10.8986 58.064602
36.781799 11.4285 57.313301
42.404701 5.7964902 57.1348
39.5187 6.5747199 58.870998
36.088799 7.0085001 61.091599
28.3736 7.5018501 31.4368
27.3088 6.1963902 30.908899
43.789902 16.160801 47.4272
46.142799 15.9714 46.899502
32.161999 7.3917599 64.253403
34.8438 14.8352 53.530399
27.5483 7.8097701 30.9496
53.650799 8.2905197 40.7841
62.351501 3.7611001 56.480301
42.0247 17.2666 51.948299
26.4118 7.37815 30.433701
59.293499 4.6552801 57.052898
66.013901 7.3777399 44.759701
64.403099 6.5892 44.667198
69.4935 6.4995699 45.5243
32.3405 7.8259602 66.172203
33.465401 8.4632797 64.7369
35.047401 8.8177404 66.280197
41.3172 12.2304 57.694698
33.705601 7.0993199 65.8582
28.6376 8.2530098 31.133101
34.533501 5.9202199 31.771099
46.4636 14.7844 46.019402
51.267101 12.5807 44.305401
53.302601 9.0799398 40.216999
52.595501 6.1551399 58.869701
48.927601 5.8678598 58.470001
35.725498 9.6743097 32.565498
26.816 6.2703099 25.945499
49.8013 15.7192 46.366501
48.923199 11.348 41.055698
51.7188 9.2839003 38.739601
67.306396 8.5875902 44.935398
64.932899 8.5230398 44.440701
71.894997 4.2570901 55.1572
67.932404 4.1063499 56.095699
41.1026 10.623 62.076199
36.993698 9.39429 65.910599
39.988098 15.5422 54.52
43.162102 17.1052 53.465302
26.837 7.3151398 25.920401
28.4468 5.9941902 25.7981
29.8566 6.5954599 25.133101
45.989101 18.398001 49.685001
50.929501 11.8106 42.948601
52.783199 11.5144 42.7742
46.328602 7.2532401 33.587799
61.9832 4.66362 56.951698
50.785 6.5415802 59.967701
68.274101 7.7230701 45.145302
70.269699 7.9113698 45.546799
60.329102 9.39501 43.415699
43.988701 12.2854 58.056801
43.732201 13.922 56.427601
38.633202 10.1713 32.872002
34.251999 9.9191704 31.7169
27.5217 7.90732 25.888201
31.5238 8.1033297 24.698299
30.2262 6.1213899 25.4062
49.977501 8.5879097 36.677101
58.8433 6.04673 57.857601
57.7276 6.6304002 58.3825
63.105499 9.0730305 44.0639
68.037697 5.4533601 56.554199
38.5098 9.8105602 65.393799
41.1623 16.4951 53.548302
54.6479 11.7066 43.550098
56.7631 11.2014 43.438801
63.204201 5.5666299 57.2215
70.439598 5.0644798 56.029598
42.6875 10.6027 65.639999
45.172001 18.2768 51.631001
31.2099 8.6971102 25.0564
33.1003 9.4571199 25.206499
30.9984 9.1646795 25.523199
52.9086 13.6861 45.213299
56.037201 12.0574 44.235401
58.4193 11.6315 44.2047
45.1003 14.906 55.819401
43.5718 11.3069 32.001099
54.9506 10.8393 42.483799
59.441299 10.1171 43.358501
65.975197 9.3600397 44.724201
37.759102 10.5452 25.472
32.8825 7.2883701 21.035
34.611301 8.4961004 21.752199
44.817001 10.8025 34.775501
71.722 9.0832195 46.028801
46.107498 10.8794 65.443398
46.839001 15.979 55.241501
49.1357 19.041901 51.5434
35.179699 8.6544304 18.7969
35.670898 6.3499799 22.7626
58.5826 13.4151 45.283798
55.929298 13.8121 45.319
65.997101 6.0699501 57.009602
44.5238 10.7738 67.141899
51.439999 11.4642 59.7785
50.507702 11.1307 31.680201
37.3288 9.5560904 23.026199
35.042599 10.173 25.581699
39.988998 10.6759 25.189301
40.6334 10.4658 24.0994
40.796501 6.4249301 24.018299
48.297501 6.98528 62.835999
66.5989 9.7910404 44.978901
49.527401 14.2578 56.500099
48.9678 11.2036 32.030499
33.171398 6.8543501 17.0231
33.733799 7.9179602 17.463499
33.513401 6.7013402 16.2073
33.2743 6.7701001 19.857599
61.296501 11.367 44.5737
43.383202 6.9751601 21.886101
48.927101 9.0648804 26.343
64.801498 7.5036302 57.471802
47.9207 7.2836599 65.173203
69.745003 9.8221703 45.7826
39.356998 10.0606 21.9547
45.558601 11.4285 25.987801
42.572399 10.5978 22.383301
33.528198 7.5567298 13.4087
34.48 6.4679699 18.6077
35.015499 6.4236398 20.424999
38.744499 6.3052001 23.641899
39.609299 6.3821402 21.522699
50.756401 10.2962 26.525299
62.450401 8.7370901 58.0844
69.445396 7.0552902 56.597401
58.532398 8.9492903 59.198799
42.400002 11.3114 25.9799
33.1964 7.6164398 20.1831
36.281898 9.10499 12.8697
38.1129 6.3385401 20.538099
40.1493 6.46313 17.7117
45.821899 8.4149904 23.2045
65.436996 8.4572201 57.456699
51.403599 11.1065 27.051201
48.548801 11.3331 26.3204
34.043598 6.6328702 13.2397
41.224602 6.5363002 21.2579
43.740799 7.3870602 18.399099
49.4119 10.0462 25.886801
70.353203 10.6806 46.641701
54.171001 12.6834 57.446701
51.406502 13.1671 57.202202
37.0005 9.3744802 12.5189
43.288399 10.6227 21.6516
39.4688 10.114 14.6125
42.1908 6.6765299 22.108601
37.467899 6.3109398 16.821301
41.431999 6.6150298 19.180599
40.652699 6.6072502 14.5243
49.810799 10.6111 26.0851
49.915501 11.1796 26.426399
50.658699 8.1676302 63.750599
54.384899 17.808399 54.8293
40.151901 10.2592 14.1323
33.872398 7.3993402 9.3083696
38.474602 6.3505702 14.7192
39.314899 6.4549999 12.8994
65.9739 12.2282 46.751801
44.659 7.8786602 19.726101
68.987396 9.0015202 56.691601
66.5783 11.6927 46.1619
77.267303 8.7295303 51.207298
34.237598 7.8990202 9.8551598
42.907001 7.2972598 15.007
65.053596 9.36168 57.5089
59.9352 11.1117 57.955399
67.715897 9.6232996 56.858002
58.707401 13.156 56.858601
45.8368 7.1227698 68.702003
35.073101 6.53055 10.8481
40.6745 6.7431202 12.0461
58.373402 18.6817 53.3521
41.589298 7.37644 9.4081097
45.7369 9.2616796 21.759001
48.535301 10.1363 67.230499
58.948002 17.945801 54.446602
45.351601 10.7285 24.4771
44.973598 10.137 21.048599
41.856701 10.4257 13.8351
36.2673 8.8141298 5.9297099
60.094101 18.391899 49.486301
42.803299 7.5353599 12.803
43.7356 8.3668499 13.4353
61.745399 11.6164 57.2425
49.3615 9.8437595 66.1548
37.7034 9.4404602 6.5169802
39.0942 6.7146702 8.21661
59.538101 18.574699 52.590099
67.672997 10.9435 56.174
73.762199 9.8597603 54.3214
39.841 6.7950201 8.9856997
42.9072 8.2530699 10.3823
41.3382 7.82306 6.8446002
44.317001 9.0687799 15.2377
70.748703 10.7909 54.660999
65.7146 12.0446 56.0005
37.080898 8.8920403 4.1985698
42.184601 10.0312 9.8829803
38.238201 6.6719499 7.5450001
62.947102 12.6867 56.4622
41.982899 9.7793798 8.2258596
40.234501 7.7745399 4.6099901
67.655998 11.703 51.8218
33.7351 6.6450701 81.368896
33.931099 6.6136699 79.501503
34.858501 6.3902998 78.0896
36.321999 6.3604498 80.044098
33.3377 6.7627301 83.154297
36.188702 6.3517699 82.870399
32.994499 6.97189 82.540298
33.5425 6.9950099 89.941597
32.9007 7.2055602 82.568398
33.277599 6.8702998 86.694199
35.358799 6.5373902 92.237099
39.864799 6.4307499 83.580498
34.619202 7.9916701 94.330101
33.041 7.4807901 81.216599
38.916 6.4573202 89.814796
39.105301 6.3874002 86.513603
39.4781 6.2665401 77.165497
33.461102 7.8133502 80.573303
34.948101 8.5578699 84.215698
39.525398 6.9575801 95.168404
39.0411 7.65733 98.826103
37.124699 8.8196898 98.331299
43.5854 7.13869 81.726402
38.826801 9.8925896 82.569702
37.938301 9.62887 80.500198
39.441601 10.0485 80.648003
42.768101 8.0770798 91.651901
43.559502 8.0836 88.411499
43.915001 7.68471 84.920898
43.157101 8.9251699 91.466301
44.940102 8.24259 82.488197
41.049198 10.3579 89.206596
42.534698 8.8518295 93.702499
40.594398 10.3125 83.9272
44.393799 8.2429895 85.171303
42.065399 10.5008 85.403503
41.471001 10.4558 80.696503
43.346001 9.6800804 89.861504
44.858898 9.3327799 84.108597
44.0662 9.56353 87.2882
44.063499 9.8277597 86.447899
44.431099 9.9988003 84.026604
43.132999 10.5914 80.702301
45.6161 9.9896297 79.379097
45.729801 9.56427 80.040298
44.713001 10.6378 78.458801
43.7747 10.5135 81.197098
44.974701 10.117 80.9123
45.172699 9.8747396 81.341904
40.5947 6.26085 75.950699
48.8312 8.8135004 75.949203
47.088299 8.8514404 77.023804
34.700401 5.97297 69.813904
47.6437 9.3277798 76.949898
32.8354 6.10602 69.471703
50.1236 10.3291 76.279404
49.149502 10.4753 69.859802
30.1045 5.31744 74.699501
51.369801 10.9533 75.783401
49.569401 10.9781 70.353302
49.6838 10.9824 76.234398
49.055 11.4081 70.632103
33.049 6.3031001 76.634697
26.9625 6.2857099 75.074898
48.200699 11.3148 76.163101
28.8575 6.4028101 69.5644
44.520901 11.7654 75.2761
44.4804 10.9259 68.828003
28.4543 6.0639901 75.401398
44.575199 11.2815 69.798897
28.2409 6.6472998 69.5812
26.413 7.4525599 74.5438
30.9925 8.0733299 68.797897
37.358501 10.4686 76.087303
38.110401 10.1935 76.735001
41.243698 10.8566 69.364502
37.881401 10.3878 69.276001
42.809299 11.4785 70.1856
26.3179 6.9028602 70.482597
31.1208 8.6638403 69.128098
35.691799 9.88346 76.360001
27.7656 7.7544799 69.9366
35.832199 9.1679096 77.422699
34.226898 10.0712 75.644402
29.0159 8.3994198 69.766899
31.8533 8.5304003 76.357002
35.1507 10.2204 69.760498
3.2695601 7.40484 47.216202
3.3868599 7.27702 50.046799
11.9845 5.2330899 47.1791
7.6227398 4.9023199 51.136799
3.28194 8.2754498 50.2066
3.3447199 8.69557 52.346901
14.5513 6.1704502 46.8559
12.1511 4.90623 49.437302
15.1314 4.9629998 49.775398
10.9495 5.0506301 54.317299
13.3495 4.9073501 51.0471
13.4383 5.1146698 54.085899
16.4011 4.9602299 51.424599
24.1565 4.84483 49.298698
4.9326801 17.5937 51.245701
20.1091 4.9082499 51.572701
20.6882 4.8825498 50.643902
22.8451 4.7694998 50.145199
14.4532 6.4098001 55.391998
9.1141701 9.6860504 45.855499
5.1441898 18.1124 51.5924
22.413 4.7719598 50.842999
10.6231 6.7857299 56.901501
28.2367 4.6207099 49.061401
25.159201 4.5714102 50.798801
5.85425 17.386999 49.981998
7.3968101 16.215099 49.7719
25.917601 4.5082598 51.564098
26.8358 4.4746599 52.2467
29.4263 4.2708998 49.9622
7.1781301 18.8253 50.104
25.633801 6.1344099 47.7705
5.4614201 17.883801 51.9263
24.6548 7.0032601 47.124599
18.2568 11.2111 49.0592
8.4675999 17.533001 49.9935
10.0397 14.0116 49.570499
25.6642 4.6810899 52.702099
33.348099 3.9091301 52.1273
32.1455 4.1228099 52.9361
35.720901 3.6979799 50.3214
7.8583698 17.5387 52.079102
7.44943 15.7658 52.355499
11.8926 14.6979 49.817299
37.546299 4.3193302 47.8111
8.5414495 11.0952 53.8825
47.8288 2.89762 47.9921
23.2211 6.48419 54.431599
7.8383899 20.285801 51.703201
31.7509 5.9676399 47.1106
39.48 4.8453202 46.892601
9.6377096 19.724701 51.6721
29.1082 6.7673702 46.715099
25.689301 11.5449 48.110802
30.4818 9.7017698 44.853199
36.2752 5.5306602 46.745602
42.699699 4.5321698 46.6451
42.1022 3.2012501 52.7351
45.957001 2.98176 53.609402
53.1306 2.2625101 50.279301
55.660099 2.1556399 49.401699
53.0271 2.29915 49.503101
29.9771 11.0292 46.456001
33.059898 11.1189 45.5919
53.7253 3.1673501 46.376801
52.5051 2.94715 46.852299
31.1674 9.2966299 43.8372
28.1999 12.153 47.852901
14.0015 13.9242 52.157501
38.469299 4.0274301 54.035
54.019299 2.19804 51.681801
49.9216 2.5011499 51.290001
55.501598 2.1138401 50.8269
57.541698 2.0490999 50.667599
25.7957 7.38624 55.469501
31.8911 9.1626797 43.075401
33.9212 10.3006 44.249599
45.368999 3.1517401 54.019402
35.138901 5.0556898 54.592499
28.1992 6.4077601 54.8297
28.380301 7.5743399 56.405399
19.5914 9.8646498 54.170898
30.2446 13.3773 48.382801
42.896599 5.8297701 44.682499
39.490101 4.4763598 54.750198
55.1348 2.17311 52.925598
26.843901 8.0345201 56.748299
38.8116 11.4059 43.998798
32.546398 5.9802399 55.116699
31.883801 13.1397 47.556599
37.883499 4.9561 54.980801
37.122601 5.7301698 55.731201
31.4097 7.0493102 56.381401
31.0755 7.6166902 40.4603
37.435398 12.2008 45.312698
49.587898 5.5388999 44.1544
60.862499 4.8675499 44.918301
26.9755 10.4093 55.263901
34.084 8.9709501 39.823898
33.847698 7.1571598 43.503502
31.8829 7.4208202 38.7384
40.510399 12.8506 45.134399
37.424801 6.7673101 43.399899
62.744999 2.1685801 52.536598
41.029202 4.9812598 55.597801
34.283699 6.4409599 56.075699
35.5536 6.5594101 56.784199
32.866798 7.2720098 38.287899
60.1017 2.2782099 54.857899
32.0583 14.4104 51.3186
37.795101 6.83673 41.728802
45.4702 4.2364898 55.5485
31.0504 7.5811701 60.7556
31.6038 14.2408 51.950199
36.304401 6.9816098 39.922901
30.9191 11.6965 55.3409
31.4398 13.7951 53.580502
30.9981 8.7294903 59.485199
32.985802 9.12292 60.056599
42.4179 5.4871402 56.561199
36.354301 6.8155999 58.287399
32.952 7.2551599 58.514
28.6604 11.9524 54.492298
35.574699 15.3868 51.653801
33.472801 14.6658 52.705002
33.814701 8.5192604 36.8447
35.368698 7.0077901 37.818001
43.265999 6.7027602 38.062199
57.2854 3.3227401 56.162399
33.873199 9.6301899 59.140499
34.336201 12.0194 56.0504
40.048801 6.3647799 58.022301
39.251301 16.427601 50.126598
38.7822 9.9014101 37.362
29.1644 6.8099999 31.7813
57.7794 3.76073 56.515598
66.284401 5.8088498 45.146198
39.089001 6.71807 60.078098
31.6159 7.4952998 62.453499
45.090401 13.7757 45.3731
33.2043 7.2825999 62.625
38.105202 15.888 52.968399
29.84 6.3134398 31.782301
41.094299 6.70189 34.809898
38.4991 10.3554 60.644001
40.690399 10.9964 59.8395
32.2533 7.35221 66.040298
35.137299 9.3917599 61.487099
37.4818 13.1153 56.0597
35.6395 7.0134301 63.723999
70.799599 5.4341898 45.9632
31.8594 7.4818001 65.1278
46.902401 13.054 44.6936
40.6064 6.3973098 31.9209
66.977699 6.2694502 45.131901
39.041801 12.0379 57.360298
46.4967 5.8362799 58.127499
46.472801 6.1967502 59.169399
30.6238 8.3288403 31.9326
49.792301 13.077 44.766399
46.789101 7.1374402 35.851398
70.952698 3.5318 52.3064
44.1964 6.4156299 60.0397
28.0396 6.76057 25.456699
30.7145 5.0852098 29.9524
48.709 17.5464 47.611198
48.357201 13.9752 45.395699
71.147903 7.27952 45.747898
30.225 7.32586 24.9109
29.6791 5.0030699 27.763201
40.977402 10.5093 33.130798
29.1954 7.8344498 25.222401
33.348202 8.2391996 23.7078
50.9776 13.6209 45.181999
46.4594 7.2449002 30.234501
40.345501 10.9704 31.9727
29.1551 9.3541298 27.915001
30.2435 9.3786402 30.341801
30.8869 5.7266202 25.9053
31.238501 5.23173 26.9382
48.275501 7.9759998 31.101101
70.400703 8.5743904 45.620701
41.272701 10.4639 64.145897
53.5672 12.9391 44.777199
64.949501 8.9198103 44.444698
45.9338 16.792 54.5215
43.663399 16.6318 54.210899
46.988998 11.4859 31.858999
42.2729 11.6182 31.2188
42.535301 10.9275 32.6059
30.4491 9.62012 26.9111
35.613701 6.12498 25.035999
48.8535 7.9777498 29.677401
46.100101 12.6289 57.728802
45.8494 13.2307 57.105801
33.0051 7.4063702 19.250601
50.004501 19.064301 50.254101
59.671799 13.0783 45.253399
58.183701 12.5206 44.835602
48.442001 10.6833 37.042702
50.3312 8.5435896 28.635201
47.349998 14.9116 55.991199
43.433102 6.7747202 66.835197
46.9422 12.1224 30.5217
33.1227 7.3347502 16.428499
52.395401 7.41891 61.051102
61.256901 10.6672 44.089298
48.745399 11.1332 62.358601
44.942699 6.78793 64.366898
48.688301 12.2783 29.9398
42.1297 10.8615 25.1322
34.655899 8.4203701 18.1472
34.059502 6.53093 21.997101
44.630699 7.3203702 23.9207
67.602898 6.6792598 56.877701
36.9221 9.3277197 20.123899
32.916 7.0269499 20.089001
36.298698 9.1085997 16.599001
34.2188 8.2013597 17.614
37.283501 6.3336 22.2584
67.047501 7.7265701 57.113701
65.073997 10.6456 44.998798
47.163399 12.1697 27.6964
38.325298 9.7765198 20.325199
39.800201 10.1626 18.302
33.434601 7.2712898 12.6923
33.7565 6.6055899 20.355801
51.836102 10.32 31.396601
51.9342 18.7645 53.7034
51.9725 10.9681 31.179899
47.1609 11.7903 26.7735
42.4655 6.7782898 20.594999
46.460499 8.5872602 24.921801
43.912399 11.2045 25.641399
33.8717 7.86274 13.5179
38.929401 6.3592901 18.8188
60.476002 14.8644 46.025902
43.121601 7.1467199 17.760099
72.358704 10.2256 47.2043
68.453796 11.1647 46.402
38.524899 9.8503799 17.363199
44.951302 10.5539 23.3839
42.957802 10.39 15.6379
42.596802 10.5599 20.160299
36.231899 6.3246899 16.0149
48.417599 10.6757 25.7694
61.875099 9.4928198 58.222
70.475098 9.5065603 56.159698
50.2761 9.9265203 64.596703
52.624298 16.656099 55.352299
41.752102 10.482 16.5986
40.805099 10.3727 14.3923
36.980099 6.3379798 13.1743
42.701302 6.93821 18.5986
45.334 8.2538996 21.409901
54.355999 11.5318 58.772499
37.745201 9.5978403 9.57125
46.393299 9.3443403 24.1665
73.2911 10.2623 49.3592
67.553802 11.5362 46.6735
43.8293 10.4186 18.9641
40.2826 10.2615 11.4691
33.8951 6.8062201 11.1765
45.073601 8.8209295 18.7157
35.701 8.6047802 6.7298398
36.936199 6.4117599 10.4462
43.682899 7.8492498 15.0122
44.3713 8.2412901 16.6541
44.667599 10.405 21.7932
46.063202 10.0203 23.8512
71.519402 10.4438 55.047798
43.712898 9.6377697 13.6486
72.991699 10.2874 53.1884
44.116402 10.0772 16.9848
39.274601 9.8179502 6.2193499
44.081799 9.3540697 14.4897
44.877899 9.4980602 18.070601
64.556297 11.4115 56.736698
44.839001 9.9082603 19.2178
40.993999 8.3869305 4.8632998
70.027496 11.099 53.536201
42.622501 8.9000797 8.7635498
34.196899 6.5400901 81.990898
35.072102 6.4334502 80.8629
36.9095 6.3140502 86.020798
32.803101 7.1328902 79.844902
34.8144 6.7100801 93.195801
36.220501 6.3737702 89.549202
34.438999 6.60569 90.777901
38.473801 6.3482699 83.436501
38.4459 6.3520198 80.785896
33.1306 7.32162 85.815498
38.3923 6.3077102 78.503098
33.3148 7.64818 83.172798
37.873798 6.3538098 88.413902
37.285599 6.4580998 92.2388
37.202202 6.6402602 94.930397
39.709301 6.4003201 80.379204
40.309399 6.5320401 86.5998
34.482498 8.2603102 88.839996
33.737701 7.9130001 84.655502
40.478298 6.9829202 93.315903
40.8965 6.7913098 89.771599
42.5868 6.87714 82.828201
41.522701 7.0402002 90.294403
42.8727 6.8406301 80.529503
42.7029 7.10077 85.915398
36.137199 9.0536404 87.386803
43.452202 6.9547701 79.684502
37.087898 9.3605003 82.416901
44.637001 7.3183398 78.894798
37.840302 9.6391096 84.889999
43.828201 7.3396702 82.710297
44.959499 7.7161498 80.230103
44.229801 7.99336 84.979897
39.748199 10.1385 83.577599
44.222401 8.5625095 86.770897
41.3022 10.4251 84.471298
44.005199 9.21206 88.060402
42.153301 10.2333 90.517403
42.5513 9.8155804 92.108902
42.482201 10.5825 80.1399
42.491798 10.5564 82.226097
44.672699 9.0170097 85.143898
46.3759 8.67097 77.976997
45.626598 9.0046301 80.7145
43.7995 10.7176 78.495102
44.3172 10.1988 83.085403
47.617802 7.59342 72.3517
49.560299 8.2855597 72.4673
49.2276 8.0593204 73.989998
39.0676 5.9215102 71.193298
49.519901 9.3919802 76.146004
52.1693 10.6388 75.412399
30.9459 5.1451898 71.153099
34.677898 5.7092299 75.511597
51.990101 11.1981 71.531799
32.127499 5.6198502 75.339203
29.1826 5.0238199 72.0597
50.773998 10.7248 70.736198
30.6425 5.14223 74.183403
47.8634 10.4328 76.925003
48.855801 12.2571 74.1408
30.2658 6.5637398 76.164001
47.245602 11.7772 70.8386
47.572899 12.1775 71.793999
46.486599 11.6302 75.7043
46.965302 12.0711 74.807404
32.0056 7.5089898 76.921204
29.1392 7.2112002 69.261101
41.990398 11.254 75.824799
36.410999 9.5838804 76.963402
37.302502 9.8105402 68.5215
32.649399 8.5986996 68.599602
33.0924 9.3756304 76.085899
37.3517 9.5694304 77.992798
29.7432 8.1845999 75.875999
30.364 8.8703499 75.4823
35.434898 9.6684704 68.912804
28.7048 9.1839304 72.306099
30.2118 9.44133 74.335701
30.3601 9.5605602 70.987099
15.2564 5.7063198 54.654999
17.9296 5.8990502 54.259102
6.2281899 20.3438 50.362499
32.0513 4.6013298 48.447201
35.128899 3.7690401 49.8601
15.8293 8.2363596 55.451199
30.1721 4.2137499 52.554699
34.341499 3.8064001 51.485802
46.773701 3.3081801 47.375198
44.3377 3.2581 47.976501
9.4001999 15.9813 52.211399
39.932301 3.3360701 51.849602
44.3312 3.08318 48.661499
11.2999 13.9256 52.424702
49.702099 2.67752 48.252102
52.683899 2.3859899 48.754299
15.8816 9.3769398 54.417801
45.593899 2.8724799 52.174801
51.910198 2.5091901 53.967098
29.656 13.669 50.190498
30.563 10.5327 56.1791
44.5732 6.2361002 42.862999
28.4706 13.3693 51.446301
33.848099 7.1482301 37.788502
43.051701 11.4925 59.4814
30.8025 7.5621901 32.372601
36.1642 13.7721 55.249199
32.9417 9.0725203 32.212002
62.7626 9.8408604 44.086201
33.2453 8.8053799 24.6007
37.5145 10.0316 24.763599
33.0392 7.0743299 16.746
43.949799 7.29774 20.3472
43.6343 7.1296501 20.6196
44.411098 7.5239201 20.8731
45.414001 7.9556398 23.1637
45.375198 8.5615797 20.667101
42.584301 7.9340301 10.1588
45.605598 8.9295902 21.137699
45.2719 9.1220303 19.4835
34.755001 7.2645702 5.99611
45.453899 9.7012901 21.2316
65.077904 13.9618 48.756699
34.868099 6.43362 83.798103
37.437698 6.3385901 82.037498
34.2071 6.5538101 88.191704
40.883701 6.5295601 81.920799
41.830502 6.6631298 81.3946
36.2617 8.3234596 98.353302
35.854 8.9207401 82.509903
40.722301 10.1067 94.006401
45.620602 8.4988899 80.115898
43.884399 8.9035301 88.630203
44.777802 9.7047005 83.725403
43.607601 10.0704 86.903099
50.618 9.6220598 70.949097
46.9221 8.3461304 76.701797
30.8986 6.14921 75.966904
28.8279 6.8820901 75.869797
34.367199 8.9944801 76.811096
6.8018899 5.0762601 48.7034
8.5349998 5.3283501 55.594101
24.5396 5.1498899 48.757801
7.5090699 8.7732 59.083
37.459202 3.6192501 49.266102
42.022701 3.2229199 49.1189
36.920898 3.88715 48.5
42.924099 3.08868 50.0961
49.869598 2.8724999 47.473801
37.003101 3.65414 52.847401
31.0457 4.3322301 53.100601
41.169399 5.1841002 46.169201
42.879799 3.53391 54.220299
30.0385 12.5393 47.622501
40.345901 6.0199699 45.003201
34.7052 4.7407699 54.183899
34.671799 6.81357 44.9646
38.6269 6.3606901 44.709202
55.119499 2.3764801 54.399899
29.3778 7.5280399 56.8451
31.7722 14.0708 48.7477
36.416599 5.4122701 55.210602
34.837898 7.1118598 42.0625
39.993401 11.1013 42.919998
38.8783 6.01122 56.609798
43.330399 5.9527402 57.745399
33.935902 7.2175498 59.862
38.9715 6.7860599 39.231201
42.396599 13.643 45.486198
49.368 12.2628 43.6689
35.618401 5.7129798 26.487499
35.305099 8.6960201 15.2601
32.8988 7.1863899 18.986099
40.924301 10.37 21.7962
33.790001 6.6099501 17.000799
33.379299 7.6277699 16.6094
41.283699 7.11552 10.2115
42.6674 7.4634199 89.297302
41.941399 7.5799298 92.6502
40.4021 10.2847 88.303703
45.0434 8.6155005 82.951599
43.087601 10.3985 85.682999
44.8368 10.3252 80.164299
47.606098 8.16607 75.802002
35.761002 5.7192602 70.532997
42.638302 3.1015301 50.882
39.762402 3.3791599 49.59
41.782501 3.7147501 47.7561
39.381302 3.3942201 52.168701
33.425098 4.0425501 49.086899
36.491001 3.63153 51.943802
31.035 13.8496 53.167599
37.7715 9.6241903 16.772699
47.977699 8.7655296 76.331497
36.582699 6.3340998 87.894402
36.278 6.3242698 86.278397
34.934101 6.5301299 91.148804
34.613899 6.5304499 90.027901
35.082199 6.47403 90.266197
38.0499 6.3333402 86.4897
38.507 6.3622398 87.362602
36.180401 6.4298601 91.392601
39.434299 6.40098 85.330704
33.521099 7.3478198 90.077698
33.3722 7.4211402 88.234497
35.485901 6.6224899 93.788498
35.1339 6.7171402 94.174797
37.5229 6.3924599 90.3992
38.2859 6.3912201 89.256203
36.755402 6.50352 93.327103
36.3097 6.5138102 93.401901
33.782299 7.3850899 91.933098
34.092098 7.4215202 93.659599
34.0354 7.5777602 92.955902
34.5093 7.1779799 94.994904
34.758499 7.1459098 95.657501
34.0924 7.7353301 92.5728
34.256401 7.9236002 92.428001
35.023102 7.0518999 96.014999
35.407001 6.99125 96.3853
34.268101 7.2919698 94.387802
34.405899 7.46878 94.983597
34.6343 7.6967902 95.479103
34.823399 7.9269099 95.629997
35.479 7.4759498 97.662697
35.230598 7.5602698 97.224701
35.818699 7.3215199 97.839996
36.2668 7.1744099 97.939003
36.451302 7.05796 97.654404
38.698399 7.0813298 97.082802
38.756599 6.9042401 95.930496
39.3452 7.1148601 96.445
35.046001 8.2659798 94.790398
35.108501 8.4028196 93.851799
34.634998 8.1317701 93.388199
40.301399 6.7412901 91.320801
36.3867 7.7846298 99.059799
35.475899 8.43538 95.6847
35.982399 8.6533499 96.276604
35.436901 8.6185799 93.293098
36.960098 7.5151701 99.147697
39.155499 7.43999 98.195099
38.7327 7.29984 98.069702
36.1926 8.5151701 97.731003
35.900002 8.3611898 97.555199
36.510799 8.2191095 99.035797
36.3009 8.01544 98.947197
39.7211 7.2788601 96.703201
36.884499 8.4623098 99.042397
37.474899 8.7623596 99.0093
36.641998 8.9186201 96.738602
41.222099 7.1763 92.634804
39.990299 7.4723001 96.947601
37.180099 9.04807 97.368401
36.581001 8.7313204 97.663902
34.7369 8.4593096 85.129898
39.482601 7.59303 98.215897
39.683998 7.8688102 98.540703
37.792599 9.0078802 98.6091
36.316799 9.1020098 89.990402
35.599701 8.8292904 87.866798
34.776501 8.4759703 82.569298
38.2896 8.2123003 99.824997
42.251099 7.0777702 87.807098
42.355701 7.19732 88.552299
41.531101 7.61585 94.119904
41.153702 7.4850502 94.603798
41.416901 7.3832002 93.363503
38.9762 7.9904799 99.3993
38.6717 8.7042799 99.576401
39.3988 8.5160303 99.365097
40.097599 8.2458496 98.485199
38.843601 9.1949701 98.709099
37.303501 9.4312696 92.806
37.471298 9.5101204 83.979103
41.277599 8.2373304 96.287102
40.936001 7.98704 96.489098
41.869499 8.0723305 94.594902
41.618698 7.8643198 94.717003
39.608799 9.5332098 97.679604
39.290501 9.64009 97.0131
38.9837 9.4278002 97.971603
38.7915 9.8508101 94.2314
39.377998 9.9967499 93.868103
40.0098 9.5552998 97.503403
40.2519 8.5851698 98.492599
39.8666 9.0283604 98.736603
43.162701 8.1218204 90.230301
43.113701 7.9389801 89.829903
42.042801 8.2917204 94.552498
42.259102 8.5629101 94.337997
39.9282 10.0944 93.619301
40.0798 10.0349 94.5597
39.6432 9.1806297 98.706802
43.462502 7.6641302 87.013199
40.5574 9.8368597 95.903702
40.256599 9.9472399 95.377098
40.584999 10.1906 93.056503
41.3909 9.6185303 95.680298
41.5023 9.3625402 95.928101
44.606602 8.1260595 83.741402
44.729 8.3234196 83.811897
42.8494 8.6674805 92.466797
42.978699 8.5069399 91.788101
42.4044 9.1792498 94.0215
42.289799 8.9733601 94.466003
41.323898 10.42 86.683998
41.013699 10.3851 86.207001
41.723301 10.1837 92.167
41.3909 10.2281 92.338303
41.416599 10.4409 82.472504
42.175301 9.7401199 93.515404
42.135799 9.9249401 92.877899
41.501099 10.3711 89.735001
41.957001 10.3525 89.502403
43.6875 9.4750004 89.071297
43.665699 9.6937199 88.602402
44.337799 8.4108496 85.921501
44.661999 8.4278498 84.443604
44.615898 8.59688 85.024597
42.585899 10.4101 87.090599
42.9585 10.4743 84.817497
42.587601 10.4917 85.389198
42.699402 10.3034 88.1922
43.294601 10.2733 86.430099
45.155998 9.6779699 82.1231
44.4021 9.6326504 85.725403
43.9743 10.1587 84.8741
43.728901 10.2771 84.793297
33.837299 6.6037102 82.997902
33.6479 6.6451001 84.107002
33.732399 6.6226902 85.683998
33.823399 6.6245098 87.451698
35.4758 6.4135199 89.355003
35.257099 6.3911901 87.209999
33.958401 6.6407299 88.936897
34.251099 6.5884099 89.4748
33.724602 7.0969 91.574402
33.591599 7.2031102 90.891899
33.0312 7.3712101 83.637802
34.8937 6.8442101 94.608902
34.763699 6.9946599 95.1586
35.8913 6.53825 93.357002
37.9174 6.6292 94.387802
37.314999 6.55091 93.813301
37.877998 6.5314002 93.087601
37.6712 6.7459202 95.715797
38.323399 6.7439299 95.157898
36.454201 6.6893101 95.382599
37.018902 6.7287998 95.809601
36.070499 6.75596 95.7509
35.758301 6.8491302 96.089302
40.013802 6.4524899 84.821198
39.090099 6.5793099 92.124702
39.263802 6.6697402 93.078598
39.613899 6.80304 93.809799
38.994598 6.7624402 94.490799
37.244598 6.8426399 96.581001
40.479401 6.4985299 83.940102
34.2617 8.0852604 90.137299
33.988701 7.9740601 88.303497
39.699299 6.6392598 91.6661
36.754398 6.9604101 97.2696
35.0886 8.1405401 95.7631
35.397999 7.7599301 97.550903
34.416 8.1029196 91.872902
37.4408 7.0086002 97.496201
40.085999 6.5619602 88.664299
34.656502 8.2927904 91.189102
33.680901 7.90766 82.679802
33.9669 8.06985 83.598701
37.555401 7.18432 98.256401
38.094601 7.12181 97.771698
37.214001 7.3528299 98.809196
39.962101 6.94169 94.2911
35.612499 8.0516701 97.581001
34.042198 8.0594196 86.780998
40.293701 7.10779 94.681396
36.9072 9.2245703 94.240799
36.089199 8.8904495 93.9524
35.534302 8.8109102 85.627998
41.723801 7.31986 91.945099
42.749901 7.3466702 88.094803
42.1409 7.26718 90.000099
40.7062 7.3434501 94.995903
40.509201 7.77525 96.805099
38.359501 9.2302399 98.3377
37.789799 9.1784496 97.837196
37.8867 9.4908895 95.711998
37.735901 9.3269396 96.781403
38.344898 9.5636702 96.313103
42.6833 7.62848 90.221298
42.3619 7.6610398 91.618301
38.9473 9.7005196 96.277199
38.087898 9.6333399 94.651299
42.389801 7.8424001 92.239998
38.486099 9.8131399 93.266197
43.0481 7.6086102 88.584396
43.126598 7.7911801 89.1549
41.558701 8.4778099 96.035103
39.658001 9.84093 95.925598
39.807899 10.1278 92.509102
39.106098 10.0143 91.366997
38.486 9.8449097 91.790199
43.176399 7.5072799 87.353996
42.476601 8.0798302 92.682297
40.344601 9.5263596 97.322197
38.4231 9.8030996 84.197502
40.644699 9.2895803 97.478203
41.512699 8.7838001 96.267998
39.2994 10.0788 88.477997
40.806801 8.9804296 97.495903
41.565601 9.10079 96.103699
39.634602 10.1296 91.139503
39.6329 10.1437 89.702103
44.553799 7.9619298 83.2817
43.100498 8.3129196 90.977303
42.757198 8.30093 92.255302
43.5033 8.32265 89.353401
43.819302 8.5290499 88.475601
43.916599 8.3554602 87.662201
42.206299 8.8087397 94.677902
41.0252 9.8253603 95.580299
41.238899 9.9246397 94.8274
41.171299 10.0279 94.257599
43.721802 8.7024498 89.152603
44.078999 8.7278605 87.664398
42.9053 9.0402002 92.4804
42.216202 9.54842 93.997803
42.1908 9.3552103 94.405098
42.940899 9.2385302 92.210899
42.958 9.4574404 91.870903
42.448002 10.0374 91.291496
42.106499 10.4733 86.619598
42.945202 9.6615801 91.383499
42.947201 9.85884 90.628502
44.278301 8.9460201 86.950401
42.938999 10.0241 89.756104
43.322399 9.9156504 88.966003
43.553902 10.3758 84.324402
42.508499 10.5425 83.644203
43.206699 10.5162 83.0951
37.313599 6.3259101 87.259598
41.8102 6.72123 83.719902
