# .PCD v0.7 - Point Cloud Data file format
VERSION 0.7
FIELDS x y z
SIZE 4 4 4
TYPE F F F
COUNT 1 1 1
WIDTH 1583
HEIGHT 1
VIEWPOINT 0 0 0 1 0 0 0
POINTS 1583
DATA ascii
51.859001 -43.898079 29.77306
50.673401 -43.743835 29.652987
48.702999 -48.638786 25.516113
47.281502 -48.868481 25.677458
45.240501 -40.984314 30.392689
50.355801 -36.281311 32.9193
49.667301 -35.857857 32.620586
51.0443 -36.785954 33.197552
51.5042 -36.254498 33.284836
52.236198 -34.857628 33.162884
51.163399 -35.102196 32.880154
51.937199 -35.360142 33.231174
51.244701 -22.401085 23.098831
50.375 -21.932959 22.808687
50.147598 -21.116596 22.600817
36.9879 -18.21455 19.352394
36.417198 -17.644896 17.040136
35.8097 -16.526602 16.829126
39.7234 -18.89299 17.362846
37.7509 -17.950962 16.916447
43.438702 -19.280109 17.582018
43.083 -19.585552 17.88958
42.2108 -19.252464 17.559502
41.6852 -18.492929 16.93079
41.4081 -18.840368 17.188911
56.058899 -32.621429 32.227062
58.670399 -31.947372 31.4259
57.729 -31.855625 30.891565
58.258202 -30.684799 27.885647
58.995201 -30.866852 28.240902
60.474201 -30.086304 26.994576
60.955299 -29.825008 26.697174
61.433899 -29.560287 26.419508
59.571098 -28.5308 25.829605
58.7673 -28.032501 25.600336
59.6674 -28.064537 25.551388
57.918598 -27.388233 25.319202
53.971199 -21.271063 19.235144
55.4618 -24.437256 19.981358
67.567596 -29.821297 22.496342
68.461502 -30.192337 22.449549
60.153 -45.467815 23.680155
63.0508 -45.477669 23.706383
82.924599 -34.386818 20.334072
84.430496 -35.322277 20.66041
83.725601 -35.740311 20.352268
77.792503 -32.855782 20.955963
77.9888 -32.670597 21.426003
83.142899 -37.530701 20.264683
82.420197 -36.88031 19.953594
82.968498 -36.27496 20.086691
51.917702 -45.675022 29.383194
47.689701 -49.4748 28.776878
48.565498 -48.908367 28.90765
45.088902 -49.768864 28.142418
44.4786 -49.283489 27.92428
41.955902 -52.553699 27.114801
42.959999 -53.528076 26.959631
53.686901 -44.581409 29.778313
54.138401 -45.103951 29.723862
50.273102 -42.215343 30.547478
49.259899 -41.721016 30.748222
46.8223 -41.162937 30.663202
45.647099 -41.428802 30.114855
49.657799 -49.162346 25.578609
46.483101 -51.895863 26.385201
52.179298 -35.826626 33.43288
52.401699 -36.306023 33.59333
41.5247 -19.710161 20.266472
52.180099 -23.028191 23.427214
35.770302 -17.541094 18.806919
37.6828 -18.004587 19.851093
39.4501 -18.479689 20.398212
39.6483 -18.826527 20.256622
35.4813 -14.476574 17.389626
36.6385 -14.985331 16.483128
37.672302 -17.468029 16.696205
39.664398 -17.585705 16.520348
43.905998 -18.933817 17.316248
44.089802 -18.49098 17.029028
41.840202 -18.067163 16.697197
56.094299 -32.897251 32.746933
60.027699 -31.916397 31.738338
59.133301 -32.110756 32.080734
61.783001 -30.103424 26.909752
59.972301 -27.610146 25.267086
57.985401 -26.736431 25.02668
58.922798 -26.795101 24.983265
57.875599 -25.998184 24.730726
56.053101 -25.121956 24.446533
55.108501 -25.297981 24.460693
46.421001 -18.821814 17.450657
47.095901 -19.236771 17.794186
49.279202 -18.583942 17.699484
50.564499 -18.885899 18.046597
51.798599 -18.628515 18.120327
57.096298 -24.129963 20.16856
63.8736 -27.514103 23.239883
67.952896 -29.724983 22.961088
65.980202 -45.197216 23.609749
68.996597 -44.819599 23.269861
68.115799 -45.027905 23.69944
71.024399 -30.481655 23.389277
77.719101 -32.397823 21.953613
82.021896 -33.274914 21.960217
84.6045 -34.145206 21.663309
73.804703 -31.19809 23.128445
80.891899 -42.014328 20.770082
80.838203 -41.469303 20.558723
75.235397 -44.195354 22.360973
81.472504 -40.811089 20.542923
49.959801 -49.00816 29.213333
49.3284 -48.175228 28.987885
54.380001 -45.68367 29.684462
54.126999 -46.390083 29.636438
42.598801 -53.381741 27.699751
43.071899 -53.592743 27.970043
43.2962 -54.024864 28.202776
45.492401 -53.852776 28.964169
52.650799 -43.629223 29.987169
53.172199 -44.085083 29.861904
49.9324 -41.237408 31.263952
48.3657 -41.24263 30.955933
55.241901 -46.602467 24.549814
55.292099 -47.283821 24.823244
50.564999 -50.163517 25.7817
47.319 -52.168396 26.389425
46.449299 -52.724998 26.542198
45.590801 -53.206139 26.671064
52.797901 -36.673882 33.763443
35.797302 -16.707924 19.032816
35.557301 -16.031227 18.839682
36.024002 -17.321732 19.086271
36.5075 -17.092491 19.441303
37.012802 -13.576736 17.383286
37.3158 -13.574553 17.107801
37.3582 -14.079781 16.612232
37.541702 -13.698105 16.873583
37.749298 -14.295294 16.455793
38.3899 -15.249432 16.19803
38.021 -14.719046 16.317142
39.2729 -15.338768 16.132919
38.639198 -15.827744 16.175413
59.509102 -32.258842 32.6329
60.975899 -32.023033 32.341999
61.443699 -31.815868 31.735451
61.459 -30.706764 27.757605
62.082802 -30.536606 27.434856
62.0662 -28.427002 25.442125
57.705399 -25.167484 24.434261
56.9207 -25.164413 24.463108
48.892799 -18.071358 17.379179
70.155998 -44.685295 23.062977
70.864197 -44.512054 22.446404
69.665695 -44.905548 23.815533
73.142395 -44.344635 22.172245
63.5201 -46.110359 24.52623
63.778301 -45.662811 24.012249
64.530701 -45.802055 24.340424
83.575104 -38.232601 20.532246
83.042198 -38.779327 20.479736
82.312698 -39.225681 20.360086
81.9776 -40.019855 20.469368
79.737503 -43.493183 21.786505
49.759701 -47.398613 29.012825
51.172798 -49.205917 29.465893
54.9021 -46.917244 29.720684
53.549702 -47.126472 29.589691
46.164501 -51.492783 28.654806
45.189602 -51.692307 28.402719
46.0093 -54.161423 29.285885
55.311199 -45.331631 29.79213
51.773499 -42.272518 30.728374
51.492199 -41.22208 31.517502
57.703602 -46.501347 24.463259
57.814201 -45.958839 24.136086
58.792099 -46.238552 24.298141
55.7201 -47.92432 25.067362
54.4002 -47.912354 25.057875
48.214001 -52.560879 26.419127
46.4977 -53.57148 26.674273
53.926498 -35.589157 33.96315
42.3806 -18.762846 21.253067
41.401398 -18.470984 21.088945
43.0779 -18.503399 21.56423
36.4268 -14.615366 18.924023
37.221298 -16.915607 19.822052
37.3134 -17.510939 19.805735
41.286598 -17.942169 21.220356
42.530102 -11.593424 18.004673
37.557098 -13.310051 17.703583
39.576202 -13.884275 16.466385
42.0499 -17.577318 16.492662
56.764 -33.75856 33.967056
57.5872 -33.363453 33.800713
61.973598 -30.854084 28.085037
60.491699 -30.837063 28.094757
62.6619 -30.353432 27.13558
63.1133 -30.093147 26.760002
59.869099 -26.961739 24.939838
56.2062 -24.252914 24.165438
54.7453 -18.446905 18.608681
56.436298 -22.234653 19.806858
60.935501 -24.705215 22.501034
63.572498 -27.390907 23.564571
61.1194 -25.01458 22.844528
74.456703 -44.347752 22.995804
73.874901 -44.357826 22.582323
68.278305 -45.196484 24.282864
67.461899 -45.263947 24.149349
82.119698 -33.131809 22.456945
83.0783 -33.447094 22.208429
81.509399 -32.88435 22.900221
84.168701 -33.811665 22.064285
83.901901 -38.948589 20.814808
86.293098 -37.32378 21.488134
79.150803 -43.693737 22.723545
79.304199 -43.627773 22.202873
49.351601 -51.613583 29.484732
47.084999 -51.32663 28.879726
54.484798 -44.251347 29.922356
53.270599 -42.310852 30.853504
52.3116 -41.793125 31.166258
57.352402 -47.0867 24.751083
51.835499 -39.429508 32.851246
52.851898 -39.849136 32.747787
43.666698 -18.121012 21.836674
42.4394 -17.942129 21.557056
44.403301 -17.867092 22.074551
44.840099 -18.366539 22.057465
54.877499 -22.564171 23.624695
54.031898 -21.933784 23.395
38.0131 -13.577158 19.041817
38.181702 -13.284647 18.787611
36.859802 -13.759045 18.452694
37.817802 -14.523373 19.613667
37.9151 -13.997625 19.351273
38.714798 -14.567127 20.031384
38.1059 -15.110838 19.982151
39.310402 -16.852964 20.685522
41.583 -17.370853 21.391834
42.292099 -13.789059 16.476957
41.597 -13.428976 16.605225
42.6106 -13.223471 16.652065
40.2332 -15.452152 16.103243
40.7187 -16.023516 16.124928
58.4217 -32.979134 33.589855
59.1325 -33.277115 34.028427
60.447498 -32.220276 32.798161
61.631901 -32.188984 32.972385
62.482899 -31.178963 29.374878
61.740101 -31.289654 29.772057
62.823799 -31.291458 29.928267
63.512501 -29.765804 26.363708
60.620602 -26.980713 24.794994
56.621101 -23.610008 23.96508
55.764702 -23.158764 23.830729
58.853298 -22.246025 21.016972
58.895302 -21.88257 21.189205
66.540901 -45.387688 24.138353
65.544998 -45.564957 24.208046
66.997398 -45.531715 24.612074
59.877701 -45.959034 24.10412
59.6231 -46.431038 24.435717
85.273697 -33.912785 23.270191
82.007698 -32.950195 23.192453
82.359001 -32.993862 23.559002
86.838997 -37.727886 21.814215
81.784798 -43.190708 22.731256
54.822399 -48.505276 29.843664
52.1376 -49.850384 29.71772
56.0914 -46.873211 29.80114
55.394798 -47.648895 29.805134
47.973 -53.935822 29.72691
48.130299 -54.328568 29.975548
56.618698 -45.532349 29.843805
56.194 -44.914028 29.888149
55.6959 -44.405125 29.952419
55.2887 -43.938457 30.058254
54.346298 -42.703915 30.633076
54.591099 -42.300808 30.952583
57.960999 -47.543835 24.97995
56.8372 -47.763275 25.031895
49.936401 -53.194771 26.496708
49.250599 -54.101761 26.665413
48.873199 -53.217274 26.517475
46.097801 -55.020279 26.798031
45.425701 -55.739319 26.754833
54.239399 -39.665852 33.102036
56.178398 -35.722939 34.593708
54.043701 -38.294167 33.904545
51.569599 -19.065859 22.917212
50.721199 -19.312435 22.749378
44.385502 -17.297272 22.127527
46.909801 -17.516262 22.623295
40.1628 -12.738338 19.110821
40.070198 -12.971764 19.460924
38.693501 -13.599106 19.425529
39.5158 -13.28162 19.541769
42.945999 -12.583534 16.758469
43.7253 -12.971741 16.638193
42.5047 -12.30088 16.926102
43.905701 -16.450314 16.329594
42.9632 -16.011728 16.210222
63.2799 -31.771629 31.922184
62.2094 -31.086029 28.934998
61.9165 -30.993004 28.552877
66.526398 -30.148579 26.247845
65.7314 -29.814838 25.988626
63.937401 -29.018734 25.516954
63.912102 -29.446228 25.966232
64.870895 -29.441803 25.744453
63.969601 -28.568935 25.034506
58.471199 -24.532688 24.093838
58.297001 -25.038612 24.328768
55.612999 -21.989958 23.519323
55.6189 -17.075638 18.357166
57.690102 -16.862041 18.962288
57.702 -17.47147 19.147617
57.537701 -18.152277 19.332291
74.896797 -44.328205 23.485025
73.7882 -44.473629 23.689501
64.895096 -46.264011 25.103172
65.159698 -45.950008 24.725117
59.806 -46.907047 24.749096
74.182404 -31.119091 23.745796
75.167397 -31.310204 23.907553
84.446404 -39.545681 21.190063
82.815804 -42.714645 21.94603
83.134804 -42.437042 21.821953
82.351898 -43.068092 23.350382
81.214897 -43.32431 23.166567
52.904999 -50.578209 29.945892
51.917702 -50.810635 29.842014
51.603401 -51.789837 29.969557
57.1166 -47.109112 29.854267
56.9879 -46.256077 29.8279
49.566002 -52.458134 29.689205
57.973999 -45.704887 29.859726
55.082001 -41.923737 31.298016
50.8727 -53.550514 26.569962
46.869301 -54.351326 26.749598
47.416599 -55.06501 26.78653
47.6404 -53.526722 26.616102
48.734699 -55.07679 26.789291
47.946201 -55.792923 26.804043
47.209599 -16.87949 22.691092
39.585098 -14.535078 20.353809
40.188698 -14.922235 20.699499
41.074898 -15.35309 21.089764
42.029099 -16.786747 21.526684
40.627998 -16.786709 21.11832
42.7141 -16.189524 21.668575
43.4473 -16.809797 21.903835
44.625 -13.374313 16.58816
45.611401 -13.776724 16.589508
43.576 -15.055164 16.285112
42.670399 -15.396893 16.190561
56.230301 -36.41925 34.719673
57.120201 -35.943832 34.834061
59.179798 -34.226875 34.604031
63.351601 -31.101849 29.051851
65.945702 -30.785027 27.50042
65.139297 -30.909763 28.083012
66.676895 -30.95039 27.969746
64.2174 -30.992592 28.548882
65.1912 -30.557381 27.115032
65.794701 -29.476784 25.53249
57.0756 -23.208736 23.820099
55.334301 -20.247818 23.160532
55.514702 -20.939205 23.281151
55.6978 -16.651194 18.280554
57.251099 -16.336313 18.722027
56.194302 -16.352461 18.392923
56.5826 -15.875303 18.481064
58.530399 -16.434402 19.166687
59.420502 -22.644257 22.352268
59.595798 -22.820263 22.071369
58.970501 -21.560104 21.445702
66.348602 -29.06274 24.559513
73.346405 -44.55793 24.412155
64.6922 -46.598488 25.501471
82.676399 -33.055973 23.948782
81.290398 -32.703304 23.952473
71.971603 -30.609741 24.940269
87.331596 -38.803646 22.392612
84.058403 -42.605904 23.15987
84.433296 -42.444141 22.899445
85.668404 -40.891197 22.258604
80.084 -43.544689 23.135302
53.626499 -51.302002 30.163078
57.726501 -47.711773 29.900419
55.791302 -50.205299 30.143059
56.894299 -44.48563 29.976238
55.654598 -41.529457 31.685553
59.010399 -47.464584 25.008022
58.3769 -48.128475 25.27932
54.929798 -39.312286 33.485226
51.5224 -18.281101 23.14502
52.067299 -18.644449 23.088404
53.5467 -19.359604 23.066517
53.9688 -19.829021 23.053684
55.508701 -19.671265 23.161766
41.4034 -13.62339 20.497936
43.6973 -15.668636 21.834555
42.3377 -15.514526 21.467173
44.0532 -10.150419 18.214586
60.019901 -33.629791 34.40522
60.827202 -33.119766 34.159184
61.446201 -32.709618 33.851742
61.866001 -32.411896 33.498718
62.792999 -32.231041 33.287216
63.8396 -32.109032 33.172428
63.681301 -32.292992 33.590115
64.377304 -31.937424 32.686161
64.983505 -32.096268 33.259281
63.923901 -31.352962 30.325996
57.615002 -23.027615 23.691971
56.950401 -22.224632 23.537273
58.0369 -22.894524 23.540756
54.229401 -16.700102 17.922459
54.322399 -16.318811 17.90431
55.7901 -15.359015 18.23148
56.953899 -15.267056 18.588463
59.3508 -15.924665 19.393721
59.646999 -16.562719 19.587088
58.470001 -17.806007 19.553659
59.418499 -17.62237 19.859192
58.964401 -18.179567 19.921347
68.250504 -29.689438 24.720722
75.047699 -44.319725 24.022301
77.027496 -44.034889 23.440104
70.521805 -45.033726 25.102079
70.089996 -45.005451 24.481277
83.474403 -42.777264 23.567657
55.148102 -51.162304 30.266296
58.845402 -45.066113 29.898426
56.952599 -41.564049 31.74465
56.277599 -41.133305 32.101192
57.5742 -43.360947 30.329906
56.259998 -48.519104 25.306355
53.148399 -52.304367 26.312141
55.924301 -40.632065 32.527462
57.924801 -16.747215 23.718365
58.665298 -18.128754 23.379045
55.553902 -16.913488 23.652069
54.509899 -17.288622 23.573748
43.766998 -12.878971 20.600796
41.367699 -14.122517 20.765842
41.859802 -14.435698 21.048765
42.0536 -14.933016 21.261387
42.6082 -11.289997 17.164707
43.534401 -10.805231 16.581656
44.0592 -11.157658 16.527454
48.256599 -12.855331 16.641861
47.830101 -12.011436 16.51679
46.669498 -14.121748 16.635376
65.311401 -31.409763 30.724998
66.714699 -30.615997 26.971848
67.323601 -30.435013 26.522621
69.571503 -30.585484 26.148685
66.125504 -29.234467 25.026615
59.018398 -23.589142 23.472666
56.261501 -21.47636 23.404343
53.945 -15.845898 17.793591
60.056599 -17.085096 19.90321
60.276199 -17.612026 20.228069
61.002998 -17.631855 20.596502
60.312099 -18.138071 20.541187
59.682499 -18.602739 20.517365
60.1777 -18.641855 20.829813
59.2938 -23.353912 23.172148
59.150299 -19.857422 21.117817
73.276901 -44.567989 25.170998
74.326897 -44.417961 24.596565
69.710403 -45.277802 25.759914
70.879105 -45.01461 25.777449
68.623299 -45.578327 25.86961
67.604301 -45.912872 26.000439
79.6017 -32.300072 24.09116
80.449898 -32.502285 24.336414
84.551201 -42.462177 23.766403
54.287201 -53.841305 30.821369
58.0844 -48.431469 29.937981
54.427799 -51.877853 30.350723
55.3088 -52.209576 30.468874
57.893398 -41.90406 31.469482
58.243 -41.475201 31.916981
58.867001 -48.675457 25.588877
53.949001 -51.170921 26.038744
54.152802 -52.270241 26.344812
50.807098 -54.456535 26.73575
50.746399 -55.323174 26.861464
49.871201 -54.900223 26.78458
55.9534 -38.116535 34.442368
56.501999 -19.328148 23.210327
60.5047 -17.219765 23.45635
60.701302 -17.685362 23.269806
58.125 -18.646767 23.236624
50.270199 -16.832903 23.196053
44.784 -13.111748 21.047508
42.817101 -9.6127148 16.857498
44.0812 -9.1896801 17.912373
43.561298 -9.9305973 17.86824
60.127899 -35.709007 35.204838
59.931999 -36.268349 35.299484
60.657902 -35.117409 35.087654
56.917801 -21.178284 23.279593
51.634899 -15.703342 17.326387
51.8242 -16.232645 17.406683
54.6577 -15.336729 17.922579
55.137001 -14.509357 17.986446
57.015499 -14.56398 18.650043
56.9594 -13.967743 18.728531
59.541401 -14.324379 19.686991
58.582699 -14.12928 19.382912
61.122398 -15.513878 20.097244
61.415401 -15.036743 20.307983
61.586899 -17.694605 20.986614
61.9422 -17.762333 21.30139
62.68 -16.242449 20.969894
67.131805 -46.179192 26.548134
81.733704 -32.875416 24.695299
82.340698 -32.98156 24.343561
81.1306 -32.681179 24.508856
80.364799 -43.345211 24.843529
85.403 -42.170464 23.902603
84.9412 -42.280415 24.321236
60.8629 -45.980633 29.661575
58.3736 -49.178078 29.963894
58.190102 -44.486717 29.987984
57.560501 -42.251709 31.128345
59.3559 -41.26981 32.205162
60.561401 -41.482697 32.04546
60.554901 -40.941811 32.65234
60.220299 -16.763056 23.589731
55.397099 -16.340151 23.65538
59.664799 -16.341986 23.649647
48.942501 -12.603962 21.374565
51.4035 -11.59803 20.910688
51.278599 -10.895281 20.623238
45.331699 -13.915266 21.652876
43.969601 -7.5438843 17.38253
43.251099 -9.6771164 17.545877
49.010502 -15.227287 16.878521
49.8354 -14.941353 16.974571
50.4506 -10.026026 16.225288
61.9459 -35.153145 35.16713
65.788895 -32.199577 33.505737
66.062401 -32.398754 33.831696
67.497894 -31.060589 28.37215
67.176498 -31.15889 29.115515
69.362305 -31.176811 28.322624
70.299194 -31.183956 27.693302
58.364799 -21.897591 22.996548
50.916901 -15.193708 17.156891
51.916698 -15.132469 17.322571
54.230701 -9.6279659 17.030163
53.991299 -9.987772 16.969774
51.9216 -14.293148 17.218149
60.651199 -14.487841 20.106308
60.0154 -13.913061 20.065187
61.503399 -14.576303 20.52109
59.447498 -19.775234 21.514721
59.659599 -19.615807 21.904324
72.132996 -44.755104 25.810162
67.460403 -46.074551 26.867592
85.614998 -34.433407 24.39452
82.549896 -33.171047 24.845316
85.940804 -41.924 23.672535
86.301399 -41.693935 23.474577
59.618198 -44.49424 29.957188
57.332199 -50.651508 26.167645
56.5466 -50.557884 26.035744
57.070999 -39.365231 33.792919
58.2169 -19.825644 22.872274
62.258701 -15.828791 23.055473
60.512199 -14.884758 23.141005
59.4552 -14.827063 23.255768
61.015099 -14.535591 22.859238
57.556999 -15.178156 23.500725
51.502201 -16.444035 23.326315
50.337002 -16.208389 23.152964
52.2174 -10.350271 20.574078
52.444099 -11.276423 20.90387
51.738499 -9.2740059 20.219688
51.504799 -10.159647 20.42754
50.788898 -10.072887 20.297901
49.7416 -6.5401821 19.228609
50.064999 -6.6121883 19.313688
50.190102 -9.3123531 19.974018
45.825001 -13.399942 21.476021
49.219898 -13.880188 22.378277
46.129501 -9.3057003 15.981524
45.361801 -9.4305592 16.049717
45.6987 -8.3897552 15.790218
64.2379 -32.446735 33.891937
61.826099 -36.266003 35.413689
62.1096 -35.728333 35.315418
63.108799 -35.435631 35.257591
65.916306 -32.709023 34.16637
53.9104 -12.117661 17.311626
53.355999 -10.790148 16.904373
53.841202 -10.690222 17.039806
54.498798 -13.33967 17.668198
58.007999 -13.644131 19.379425
60.358101 -13.6413 20.423468
62.8657 -15.182066 21.205067
73.445602 -44.506168 25.844185
67.7752 -45.942371 27.1325
62.311298 -48.455879 26.595093
77.8797 -31.938061 24.819914
75.890099 -31.509331 24.989906
85.338203 -34.63475 24.778238
88.4123 -38.160866 23.712036
79.124496 -43.524048 25.281155
61.265999 -46.516636 29.527924
62.635399 -45.595734 29.438576
62.0271 -45.461685 29.566193
61.696499 -44.972095 29.716204
59.183201 -48.670017 29.834694
60.244701 -43.960197 30.063683
61.147301 -44.4758 29.88191
60.604 -43.501968 30.228531
55.807499 -51.350441 26.212017
55.8699 -52.203739 26.477308
55.083401 -52.20948 26.396847
56.468601 -52.409466 26.623751
60.7001 -38.157692 35.244282
60.695301 -37.7342 35.372501
60.606602 -38.578785 34.986912
58.529301 -20.168648 22.67395
61.320702 -14.180931 22.508364
59.577702 -13.486893 22.278753
58.971901 -13.614235 22.492683
55.3909 -15.262306 23.500755
55.632301 -15.773092 23.61591
54.398602 -16.086973 23.57353
52.963699 -16.244265 23.4599
58.227699 -14.758753 23.324051
50.423199 -15.503128 23.05644
47.8424 -8.8761387 19.260687
48.6021 -8.639534 19.422224
53.529999 -13.037439 22.176222
54.219799 -12.866762 22.048658
43.2248 -3.4143457 15.693269
48.880699 -9.1323147 15.936804
67.394302 -31.27792 29.887783
73.037498 -31.452835 26.977234
72.940903 -31.261654 26.357441
59.178001 -13.181673 20.185402
63.0014 -15.073637 21.484024
61.8036 -14.388672 20.896381
62.456799 -17.842976 22.231037
74.043297 -44.326775 26.347397
70.797699 -44.858799 27.445019
57.245098 -51.625107 26.497288
58.085701 -50.757561 26.351114
80.822899 -32.946457 25.602081
61.977699 -42.349518 31.10033
61.1521 -41.94622 31.540693
62.5243 -41.230701 32.438137
61.898201 -41.612011 31.95031
63.205101 -41.619198 31.969416
57.0732 -52.637753 26.816093
59.302101 -13.15729 21.930485
55.990601 -13.765079 22.800404
55.6507 -14.29595 23.116627
55.3549 -14.79077 23.341396
56.1586 -13.306892 22.455185
51.278301 -13.105066 22.122456
51.334202 -12.817625 21.852066
51.884399 -8.4738598 20.043375
52.188099 -7.9639568 19.958187
51.028702 -13.502029 22.399452
46.048698 -2.8949795 17.230742
45.8139 -2.5960121 17.062723
49.6465 -7.585947 15.624
49.564098 -6.4352531 15.363062
53.280499 -7.0938301 16.230358
53.595699 -7.1822376 16.374222
56.116001 -11.52507 18.730171
55.966801 -11.776062 18.483181
63.086102 -15.070789 21.797314
73.599602 -44.323631 26.85622
67.566299 -45.951939 27.469788
63.8596 -47.784332 27.08293
58.746498 -51.004353 26.647762
58.890701 -51.609138 27.00436
76.347801 -31.920395 26.112244
85.099297 -34.936096 25.100433
83.280197 -34.149899 25.498953
81.293503 -33.24297 25.692703
85.547096 -41.759521 25.132257
85.243301 -41.610943 25.616661
61.678902 -47.000271 29.358374
63.090599 -45.978737 29.251026
63.462101 -45.314438 29.374046
62.5233 -44.527565 29.739504
63.3755 -44.756836 29.562134
63.5956 -44.266872 29.702206
57.423401 -53.272568 30.511795
62.866798 -42.648975 30.76479
63.416401 -42.290966 31.141001
64.087097 -41.936089 31.566372
64.506599 -41.508202 32.127911
64.853806 -42.274879 31.127125
60.831699 -40.396835 33.26762
57.588902 -52.818348 27.028255
54.8475 -53.919937 26.842642
54.3102 -55.828033 27.238333
53.364101 -56.514 27.237959
52.490101 -57.243126 27.214199
53.609402 -57.199844 27.393684
62.997398 -38.502129 35.292702
63.382801 -38.139179 35.435619
61.7826 -14.256123 22.355152
48.388401 -5.5591984 18.655785
48.7379 -5.6341095 18.77496
53.567902 -12.038103 21.3717
54.236698 -12.04772 21.45541
54.240898 -10.077106 20.634375
54.630699 -10.361702 20.660154
51.762001 -13.942583 22.709913
50.462299 -13.930117 22.575872
49.703999 -14.349377 22.647829
46.7505 -4.9889355 14.938736
46.945099 -5.3524818 15.023067
66.2342 -33.778522 34.723434
63.645599 -37.636101 35.520016
64.285202 -35.864136 35.338867
64.489197 -35.122772 35.169762
65.796906 -34.827328 35.044289
67.2957 -33.773182 34.583855
68.336601 -33.698238 34.365707
69.972504 -32.093948 32.35981
70.625801 -31.657162 30.541142
74.306602 -31.789688 27.202072
75.274498 -32.13913 27.257706
75.729401 -31.976994 26.685055
72.932205 -31.608994 27.711788
72.651398 -31.678196 28.454491
57.868198 -12.676607 20.186823
61.6343 -14.036444 21.231125
68.7687 -45.530098 27.410379
68.815903 -45.410839 27.703331
59.5089 -51.303833 27.181164
83.071404 -34.508717 25.744255
81.172897 -33.568169 25.946255
86.883003 -37.303986 25.127539
80.401001 -42.956451 26.255383
79.738503 -42.939823 26.690586
62.564201 -46.710152 29.177372
64.811501 -44.169086 29.605633
64.1521 -43.834549 29.826849
59.349602 -50.483711 29.794659
61.895599 -40.758457 32.963776
63.176701 -40.806458 32.989227
63.608601 -39.76321 34.268227
52.442799 -14.450603 22.981966
51.488899 -15.007469 23.06691
54.607899 -9.6964207 20.381557
53.699001 -9.8212814 20.563099
45.894501 1.0060654 16.233458
66.721001 -34.329735 34.835091
70.780998 -32.089298 31.880272
77.099701 -32.193447 26.316502
58.092201 -12.605049 20.569679
59.133598 -12.82906 21.241077
77.326599 -43.515518 26.786436
70.063995 -44.965893 27.7404
69.051102 -45.108082 28.045166
59.0756 -52.059067 27.374664
81.001503 -34.091789 26.215649
77.613998 -32.445438 26.417267
78.738197 -43.002129 27.078617
78.191101 -43.243832 26.929682
65.275398 -44.494427 29.404257
56.491402 -55.280724 27.573414
54.988998 -56.076164 27.408264
65.794899 -38.761463 35.143829
65.181801 -39.007248 35.019428
50.1549 -14.865128 22.873945
45.476799 2.2030587 15.705409
45.751202 2.4101543 15.793777
44.212299 -0.46155453 14.211221
44.436298 -0.27420902 14.123848
70.075699 -33.351246 33.750893
69.287994 -33.541332 34.079781
71.656998 -32.410568 31.852119
71.606499 -32.078735 31.223663
71.542603 -31.849094 30.561539
53.097698 -2.823122 15.576674
56.256599 -11.570688 19.013123
76.744904 -43.472214 27.186508
69.261101 -44.734024 28.376207
66.143799 -46.146992 28.214613
64.471405 -47.225304 28.018238
59.001598 -52.667862 27.775198
82.644096 -35.071301 26.080015
78.538696 -33.191582 26.563871
78.481796 -42.844818 27.388811
77.187599 -43.215408 27.402199
78.151604 -42.675636 27.717999
66.228104 -45.725891 28.530277
66.973 -44.002388 29.403042
66.249298 -42.404655 30.901947
64.300201 -41.043125 32.740288
64.110901 -40.570801 33.338264
65.5093 -41.285027 32.436211
55.585098 -56.305946 27.598541
54.6236 -56.977287 27.537054
64.383598 -40.148968 33.88026
66.268097 -38.436569 35.283726
44.4049 4.0531216 14.425871
44.422501 3.6964579 14.576473
47.338299 3.5563574 16.164684
48.784199 -1.080555 14.133267
66.966904 -35.09338 35.00103
67.229599 -35.901764 35.162102
68.059296 -35.433208 34.936928
70.582596 -34.72028 34.098774
69.844299 -34.861343 34.387505
52.636101 -1.0011673 15.13017
56.010101 -10.230659 19.179745
55.9258 -9.9518929 18.924688
68.868805 -44.436008 28.744198
64.144104 -47.158073 28.351229
59.347099 -52.48661 28.028179
81.367996 -34.851009 26.362501
80.059601 -34.378967 26.55341
78.9077 -33.809925 26.680355
86.6763 -40.101788 25.488979
83.897003 -41.253361 26.683197
62.520599 -47.958633 28.752018
58.9562 -52.724606 29.746824
66.416397 -40.377541 33.631706
65.357803 -40.481789 33.506451
66.181595 -40.876213 32.989834
45.576698 3.9009533 15.287443
45.885101 3.9244108 15.442705
46.590801 -0.72340012 14.001693
46.962299 -0.60240269 13.967446
68.941696 -35.922653 34.891567
68.953499 -35.079529 34.676491
70.778503 -33.695278 33.621464
71.921997 -33.253876 32.626984
71.675201 -32.76873 32.35231
75.072304 -32.390175 27.762207
76.907799 -33.337097 27.184513
51.0159 -1.1142492 14.514549
51.348598 -1.3637476 14.652346
52.195801 -1.5288153 14.976691
53.4618 -2.6116571 15.820483
53.961201 -3.3637009 16.312281
54.1637 -3.8681726 16.533031
55.365799 -7.5195389 18.157906
55.245602 -7.2081509 17.914776
70.762901 -43.526604 29.065153
58.328999 -54.151596 28.165518
58.6026 -54.077896 28.478523
81.990303 -35.593304 26.415539
85.874496 -39.950184 25.95182
86.677498 -39.398666 25.521444
77.0289 -42.660645 28.124342
82.249397 -41.348289 27.319807
84.5411 -40.954784 26.489937
85.153503 -40.52383 26.272583
67.331001 -43.495548 29.700657
67.735802 -43.071537 30.014721
58.440899 -54.090797 30.094563
67.5392 -42.65049 30.490604
67.300995 -40.092716 33.917667
56.0112 -11.582588 20.753075
50.508202 2.6334701 17.206049
70.9039 -36.199226 34.316853
72.605301 -33.705688 32.336987
73.052299 -32.344635 30.37154
72.362801 -32.080093 30.491404
81.573997 -36.393002 26.740051
82.527397 -41.06963 27.259884
70.375999 -43.227982 29.428181
69.780304 -42.203781 30.775827
69.784103 -41.807762 31.35314
69.291 -38.071365 34.970955
48.977901 2.8255682 16.881866
50.966099 1.8852634 17.451345
44.398602 4.7193637 14.085382
69.067703 -37.410343 35.065998
68.970795 -36.700611 35.029301
70.886703 -34.280678 33.819733
73.514496 -32.641792 30.33536
53.848801 -1.1251583 16.45351
53.768002 -0.92933083 16.319738
52.919899 2.1203337 15.491568
57.8494 -12.535904 20.823839
57.6133 -12.526085 21.06686
82.344498 -37.727131 26.868353
59.258999 -55.845131 30.093792
59.0956 -55.578201 30.342224
71.240898 -42.848759 29.651808
52.415298 0.17026329 17.810337
44.940601 5.5840182 13.294291
45.7813 6.0725431 13.032518
73.216995 -34.269173 31.99939
80.543404 -36.791965 27.0835
81.464996 -37.328445 27.000248
81.402397 -38.206234 27.212343
82.314796 -40.695457 27.322929
79.619499 -41.223129 28.162449
76.691101 -42.109909 28.771233
75.174004 -42.297989 29.123058
76.085403 -42.509113 28.599327
77.350899 -41.730915 28.787598
45.988998 2.7603645 13.378206
52.421398 2.6654143 14.893616
78.156097 -41.326271 28.630548
79.156097 -40.872326 28.315868
69.975204 -40.626404 32.993843
68.664597 -40.404797 33.446083
55.108398 -7.4910088 19.155905
54.908699 -7.3177185 19.282806
53.432098 -1.594738 17.999422
53.594799 -1.8860655 18.012493
46.2673 5.5953488 13.012275
72.506104 -35.063999 33.044266
54.1479 -3.6697893 18.364536
54.1217 -3.2880602 18.215372
79.528801 -36.504665 27.240599
79.745499 -37.482281 27.425247
70.715103 -40.33654 33.191811
71.261101 -39.952618 33.415787
73.1063 -35.059933 32.438629
75.474403 -34.551945 29.022194
51.041302 5.797081 13.982985
50.452599 5.6016817 13.627745
78.9935 -37.999794 27.714886
72.474998 -41.788265 30.735216
52.827 1.2531586 17.198826
52.9534 1.0590363 17.179508
52.4431 2.6785598 16.803181
73.744904 -34.963207 31.680439
74.242897 -35.662033 31.317642
53.415699 0.52194023 16.774837
78.800201 -40.326241 28.353592
78.588203 -39.746784 28.281597
73.061501 -41.571518 30.804535
49.863701 6.2772541 15.97602
75.117996 -35.432148 30.073338
77.133003 -37.141052 28.114656
78.260399 -38.402916 28.002541
78.310501 -39.159561 28.198366
74.737701 -36.238194 30.842472
75.060402 -36.60553 30.468519
74.292702 -38.118984 31.632915
75.2967 -37.060127 30.156689
43.307499 -65.093987 29.268263
43.780499 -64.986191 29.09943
44.424599 -65.32029 29.061483
43.9813 -70.231712 30.259354
42.883202 -64.984489 29.437132
44.5835 -69.128029 29.911266
44.243301 -69.196579 29.978397
46.199402 -67.904266 29.515619
45.593899 -68.333122 29.64114
45.394299 -74.575714 31.089928
45.608299 -74.193588 30.976244
48.456799 -63.41037 28.265646
48.8881 -64.443596 28.633539
47.918499 -64.007011 28.457047
45.864399 -76.653168 31.586891
42.5401 -63.682365 29.796549
42.704102 -64.911652 29.663273
42.7691 -65.412865 29.928337
47.1926 -77.202065 31.701443
46.977299 -76.995132 31.644705
49.179798 -68.478851 29.665165
48.5219 -68.406433 29.622318
48.995201 -67.152321 29.347038
49.806999 -68.605652 29.736097
49.215199 -69.809998 29.976181
43.0718 -70.909416 31.226944
43.1404 -70.698639 31.279329
49.106499 -65.752037 29.007809
43.6451 -76.990608 32.649349
47.925098 -79.822372 32.485405
47.279301 -79.239075 32.272667
49.707401 -65.123367 28.872028
42.970699 -65.976715 30.249298
43.1754 -65.497536 30.338236
47.775002 -81.120209 32.892723
50.461102 -65.839401 29.119278
50.4174 -72.068092 30.641615
49.498798 -78.548927 32.273346
44.527401 -78.434364 33.756046
43.580898 -65.355629 30.559023
44.0868 -65.175652 30.793137
43.983898 -66.330856 30.953194
50.3521 -76.540504 31.844162
49.995098 -76.842812 31.857222
43.742901 -63.360062 30.574692
44.6465 -64.844627 30.998722
50.406799 -80.080574 33.034481
52.442299 -67.251778 29.770226
52.306702 -66.179428 29.460655
52.8484 -66.012398 29.525751
46.5187 -80.125366 35.091652
46.2598 -80.510361 35.03949
45.403999 -69.872208 32.422455
45.7174 -70.683594 32.745239
45.608002 -69.234955 32.357189
45.322399 -65.819038 31.456871
45.3256 -64.48069 31.221455
53.880901 -64.517288 29.369236
53.298599 -65.138145 29.391262
45.982498 -64.097755 31.415361
46.7556 -64.539375 31.750988
46.564098 -63.629646 31.591011
52.399502 -76.939606 32.827595
52.524799 -76.926575 32.92271
47.118198 -79.022118 35.135933
52.570301 -77.505219 33.254757
54.037399 -65.534973 29.732841
54.5714 -63.973717 29.425888
48.304699 -79.389717 35.626801
55.272598 -62.685585 29.222355
49.585701 -78.638336 35.790955
48.299801 -75.209549 34.736542
48.602299 -75.429741 34.879009
52.9179 -75.994774 32.852562
53.112499 -74.048904 32.161308
53.236801 -73.856445 32.18145
49.855301 -80.560852 36.11483
48.577801 -71.487328 33.944
48.706299 -70.638123 33.773483
48.3186 -70.932777 33.731682
47.613098 -64.867729 32.100201
49.215099 -74.79348 34.898376
49.326302 -76.042435 35.20314
49.679001 -75.86602 35.236923
49.490799 -74.488831 34.894135
52.913799 -77.456009 33.705708
53.301899 -76.010902 33.402885
55.438702 -64.870728 30.237955
54.8582 -65.826668 30.225773
49.7509 -63.422028 32.515175
49.894001 -64.537964 32.69286
50.614101 -63.782738 32.738541
49.840199 -65.557098 32.870159
55.452 -65.368645 30.517763
55.419498 -65.922737 30.796513
52.8479 -78.282692 34.488605
52.7668 -78.577148 34.664604
51.877102 -76.777374 35.522758
52.035702 -74.049255 35.075089
52.230499 -73.851898 35.016388
51.9935 -70.068909 34.267509
51.6758 -70.509842 34.333588
51.742699 -71.305977 34.517494
51.8064 -73.608955 35.004433
51.795502 -72.912262 34.864628
51.529999 -74.037125 35.084091
53.146702 -76.178497 34.802696
51.3242 -68.945717 33.927429
53.146099 -75.308846 34.833206
54.233299 -72.060715 33.829842
53.509602 -71.109505 34.275806
53.397301 -70.905869 34.28524
52.594601 -69.729736 34.21096
52.832199 -68.984787 34.0476
52.729198 -68.425797 33.935379
52.4716 -64.55954 33.120369
53.0653 -64.693367 33.185341
53.086899 -63.687813 33.035912
55.325802 -67.471443 31.663342
55.373402 -67.626015 31.945978
52.927799 -69.443329 34.132114
53.0951 -68.230843 33.877438
56.044201 -65.115257 31.409929
56.0467 -65.231651 31.777065
56.110401 -64.945969 31.983643
53.7645 -65.249863 33.272762
54.280399 -65.122864 33.188026
55.686298 -64.342979 32.657696
55.285301 -65.132736 32.843002
54.162998 -59.705238 27.865425
54.264999 -59.062767 27.780985
51.4594 -58.804077 27.200661
51.437401 -59.421181 27.273649
55.1856 -58.464111 27.916655
51.624599 -60.009117 27.426689
51.8634 -58.094193 27.200218
56.1245 -58.627563 28.194178
56.538898 -59.769478 28.462048
57.080898 -59.447891 28.560499
57.657902 -59.830055 28.798004
56.099201 -60.207024 28.478342
56.7262 -58.963455 28.404087
54.005699 -60.230148 27.951429
55.6469 -60.682732 28.531168
54.4715 -60.668106 28.214027
55.0219 -61.170586 28.561602
59.493599 -59.548119 29.367039
59.027599 -58.296829 29.188892
58.866299 -59.91629 29.21888
58.095501 -60.190002 29.052158
51.162201 -57.532043 27.04479
55.382198 -61.843697 28.932575
54.1567 -61.836395 28.586309
50.037899 -57.757195 26.910629
59.1423 -57.725021 29.289154
59.887901 -58.204971 29.562309
59.215199 -57.222099 29.389317
56.272999 -61.861328 29.258917
56.783699 -62.102928 29.620768
58.216702 -60.616409 29.307875
59.611 -60.65271 29.863262
59.264999 -61.676292 30.504929
58.477001 -61.899719 30.335125
52.8904 -61.719727 28.257713
60.781601 -60.569786 30.326893
60.870201 -58.126213 30.03237
60.9324 -57.573036 30.20042
48.4851 -57.115448 26.765673
56.708401 -62.568733 29.892998
62.3661 -59.687126 30.824032
60.0359 -61.596794 30.843533
60.684399 -61.61898 31.265305
46.3624 -57.333755 26.528246
45.3526 -57.166618 26.453821
46.139999 -56.796883 26.601215
44.1632 -57.307465 26.326942
48.316399 -56.483208 26.793873
59.473499 -56.986023 29.590324
59.7421 -56.924278 29.782211
59.963501 -56.760895 30.031151
60.580601 -61.833725 31.676785
62.1465 -61.077538 31.771927
62.252102 -60.862228 31.48914
62.243999 -58.078018 30.84391
44.4711 -60.143509 26.452511
49.718399 -61.542206 27.661013
48.4632 -61.358498 27.402277
47.5415 -61.809441 27.493473
45.772999 -56.318092 26.668003
47.031898 -56.348152 26.731174
43.259899 -57.027466 26.341274
47.976299 -62.535942 27.877607
58.491001 -62.489464 31.304977
58.705399 -62.259171 30.964874
42.702099 -60.078804 26.302902
42.7617 -59.560577 26.184841
42.765499 -58.365768 26.082575
42.939899 -58.931198 26.111248
59.118 -62.358444 31.932949
58.8578 -62.434906 31.619976
62.7864 -60.563255 32.351189
45.444801 -61.91835 27.354225
44.1171 -61.699196 27.155247
42.441799 -56.769363 26.396345
41.131001 -56.946404 26.330524
41.8335 -56.492317 26.508139
43.524502 -56.120766 26.654078
43.563999 -56.521049 26.518816
46.711201 -62.240219 27.624466
45.844299 -62.549179 27.744278
40.591599 -58.904732 26.029846
40.0112 -58.449547 26.025509
39.772598 -57.252068 26.280613
41.441902 -62.434372 27.737005
42.7327 -62.707779 27.908175
41.9888 -62.831223 28.154991
46.9375 -63.81266 28.374645
46.129299 -63.178383 28.093817
43.548801 -62.112488 27.405102
58.9688 -62.315392 32.377712
61.252998 -61.605431 32.296627
62.330299 -58.719498 32.901535
61.470798 -57.562141 32.670776
61.013802 -57.647118 32.847725
42.305698 -60.511162 26.452814
41.056702 -60.536873 26.428604
38.3615 -60.238403 26.394442
43.335499 -55.7286 26.772411
58.844898 -55.809059 31.416058
40.661102 -62.0802 27.396027
40.3027 -62.292938 27.67971
40.0508 -60.598862 26.441933
57.229801 -63.034447 32.274006
56.8993 -62.962471 32.531105
60.690498 -61.326675 33.015957
61.2505 -60.23951 33.303158
57.778702 -55.863426 31.815834
58.325699 -55.77874 31.590511
59.966702 -56.444458 31.998829
60.417 -57.79599 33.031937
59.452099 -57.808418 33.171509
37.9986 -58.363876 26.203644
37.321098 -58.177139 26.308323
38.415501 -57.699478 26.262188
39.007698 -57.071419 26.420717
38.867798 -61.465683 26.986481
38.123299 -61.144096 26.865326
38.3913 -61.62587 27.230623
59.138302 -61.625328 33.097324
59.960201 -61.346275 33.139122
59.408798 -61.189537 33.278332
56.946098 -55.881485 31.954552
58.1931 -56.314095 32.241627
59.757801 -60.087868 33.537659
59.726299 -59.447601 33.569031
59.535 -60.699234 33.436798
38.020798 -60.653542 26.598488
37.378899 -60.715469 26.741882
37.9142 -61.709862 27.438013
37.4286 -61.730911 27.618916
57.437099 -62.091797 33.000786
58.755798 -61.956161 32.935707
58.6259 -61.071388 33.376266
58.493099 -57.786896 33.255829
57.8582 -58.131577 33.410736
36.7108 -60.821434 26.960861
36.233902 -60.894196 27.180004
35.646 -59.869652 26.865206
35.82 -59.222206 26.65296
38.372902 -56.906624 26.578419
39.628998 -56.484116 26.656128
37.6544 -56.930756 26.699314
36.773598 -58.028038 26.43009
37.612198 -61.9571 27.950125
39.388 -62.48732 28.288767
39.803398 -62.411499 27.955654
54.9226 -62.237839 33.064369
53.943199 -62.908745 33.020767
54.748501 -63.053741 33.005291
55.270901 -63.314545 32.917198
56.162701 -61.794899 33.162132
55.259399 -61.579201 33.205109
57.3923 -61.428711 33.282135
58.002899 -59.841026 33.644875
35.374298 -60.224815 27.188107
37.9534 -56.573692 26.88649
36.215698 -57.412834 27.010763
36.041298 -57.764908 26.775869
35.4277 -60.74704 27.992128
53.0896 -62.739784 32.958672
54.271999 -61.33432 33.219803
55.645199 -59.314026 33.576374
56.271 -56.294228 32.424133
56.518002 -56.751045 32.779709
56.461498 -57.258499 33.093811
54.654701 -56.769508 32.805115
54.431099 -56.391129 32.551189
55.949699 -57.6287 33.249786
55.003399 -57.718544 33.234917
54.355999 -57.257286 33.025692
37.7901 -62.069954 28.293934
37.482903 -61.919006 28.602783
40.081902 -62.724983 29.011669
39.603798 -62.620514 28.659111
37.299 -61.473366 29.259926
37.129601 -61.636818 28.865314
52.952599 -62.136436 32.94838
53.121498 -61.584419 33.061607
51.306499 -64.325584 32.933964
55.867001 -59.870285 33.589233
54.1796 -56.049225 32.252213
55.077 -55.968704 32.163116
53.2845 -56.147148 32.315258
52.416901 -56.278618 32.357513
52.0354 -55.948723 32.058952
52.772499 -56.65284 32.632957
52.635101 -56.954437 32.776276
52.437099 -57.256973 32.875061
37.622398 -56.457253 27.575754
37.9543 -56.348839 27.313208
35.7906 -57.580017 27.257936
35.447098 -57.739098 27.511345
43.016499 -54.481354 28.366379
37.1138 -61.109314 29.448479
51.127201 -61.883698 32.806389
53.4632 -60.082855 33.433563
53.555 -60.584969 33.365364
50.7435 -58.974861 33.089912
35.6917 -57.484413 27.791197
35.878998 -60.39534 28.948298
47.233398 -62.765839 31.888277
47.035999 -63.196732 31.754713
49.789398 -61.092522 32.852184
50.6283 -61.448112 32.854027
53.347301 -61.030159 33.233841
46.436901 -54.39724 29.599857
50.452301 -56.682793 32.355179
51.506401 -55.641914 31.717279
49.133999 -55.645805 31.443951
49.406399 -57.474792 32.546337
35.478302 -58.599335 28.619671
36.112602 -60.215424 29.179932
37.3549 -60.829445 29.720493
49.7411 -59.553307 33.004028
49.794102 -57.016647 32.421886
48.179401 -57.032074 32.168358
36.280602 -57.546051 28.653358
36.8036 -57.533623 28.972584
43.540798 -62.916611 30.669741
45.641701 -61.147964 32.21862
43.307999 -61.385353 31.61936
42.593201 -61.601692 31.334404
48.351002 -54.649734 30.266506
48.844898 -54.93734 30.616264
49.055401 -55.394859 31.163921
47.293098 -56.270332 31.631443
47.085602 -55.944321 31.364056
38.7402 -55.982758 28.301424
38.377502 -56.216721 28.594526
38.024498 -56.545448 28.838989
37.419098 -57.654961 29.362761
38.3825 -57.696907 29.835432
37.643898 -57.06179 29.11945
37.363602 -60.036667 29.883505
37.763298 -59.548729 30.054331
37.3288 -60.452805 29.820461
39.096802 -61.4841 30.201187
46.335602 -60.771332 32.404766
46.609798 -61.283012 32.366695
41.329102 -61.305008 31.056461
41.791 -61.797485 30.985577
41.150002 -60.731506 31.155191
38.855202 -61.819321 29.888083
40.792702 -62.266411 30.293816
41.2523 -62.028244 30.659952
42.438599 -62.232956 30.901062
42.703899 -55.778633 30.086229
43.6744 -55.912003 30.498501
43.8643 -55.510239 30.143625
46.148998 -56.325905 31.436958
46 -55.981056 31.156498
46.902802 -56.635452 31.754738
39.602798 -56.151741 29.298317
38.6702 -56.552711 29.237865
46.061001 -60.204353 32.39785
41.206902 -60.160934 31.248329
46.419899 -57.086899 31.875793
40.052498 -55.747902 28.991932
39.521698 -57.6483 30.282475
39.511902 -59.859947 30.717384
41.7481 -59.700844 31.41099
40.4562 -59.727051 31.025463
42.648998 -59.32077 31.63298
41.335602 -56.553329 30.325645
41.5984 -56.107948 30.051662
41.495102 -57.056526 30.700375
42.076099 -57.477539 31.068785
40.8074 -57.553253 30.706163
40.2136 -58.099411 30.685913
41.221802 -58.499771 31.107327
42.332802 -58.811447 31.487068
45.131901 -58.466225 32.104843
41.7402 -62.854568 29.98671
41.426102 -62.955231 29.63072
16.242109 -36.834747 21.048477
13.266109 -35.954765 24.087944
21.7024 -34.09832 20.913771
21.292301 -36.409672 20.771896
20.720699 -36.981323 20.86747
22.034 -36.229088 20.753481
24.738201 -36.653366 20.900595
13.55635 -37.496994 26.163055
14.32775 -36.530807 29.509224
31.7192 -36.646729 20.965361
20.646 -43.448261 23.396954
19.56819 -34.559742 26.426521
15.49262 -34.817829 35.876274
44.424301 -36.344948 20.006685
43.7271 -36.542896 20.016136
48.782398 -36.501183 19.47533
46.935001 -36.774666 19.64259
45.245899 -36.68404 19.814632
17.339199 -34.469337 35.942783
17.901211 -34.565048 35.057426
35.927399 -34.469368 22.216106
50.798199 -36.23333 19.298794
49.701 -36.168221 19.430101
52.7174 -35.979839 19.144054
18.16334 -39.471481 28.413857
45.480499 -39.784809 20.311199
52.561401 -36.281559 19.115658
19.550201 -41.706429 27.095942
59.619301 -37.084595 18.543312
44.1241 -34.453125 21.136885
52.347198 -34.159554 20.103529
51.138302 -34.505459 20.084667
55.750801 -34.369778 19.535225
58.386501 -34.163746 19.3172
52.405499 -41.35413 20.219654
51.266701 -41.051529 20.195843
43.646801 -33.595051 21.629782
53.877399 -41.055317 19.954027
43.7533 -41.493759 21.661499
42.8549 -41.609406 22.023439
42.1399 -31.164555 24.741585
42.4557 -30.751095 24.457783
41.704102 -32.53611 26.553968
46.131699 -31.624447 21.570656
58.564098 -42.18166 20.015938
44.275002 -32.304279 27.414986
40.923698 -43.840466 24.922388
63.1553 -42.757664 19.902409
62.701099 -42.965561 20.136824
42.9104 -34.411915 30.083494
41.508102 -26.889526 21.213528
41.202599 -35.524017 29.991917
40.946301 -35.937248 30.041546
50.401402 -29.037865 20.833992
61.454102 -43.562576 21.06806
53.056702 -27.02494 20.358917
66.376297 -43.958885 20.938921
43.4426 -44.978065 27.64056
44.330799 -22.811554 19.692974
50.699699 -33.278812 31.590322
51.4953 -44.6838 23.847404
50.319302 -34.878719 32.523849
50.2001 -35.385128 32.662418
39.207802 -19.405834 18.239481
47.565601 -22.589031 19.395678
46.632999 -23.258362 19.643845
44.2785 -38.4221 31.370884
36.409302 -18.268394 17.849567
48.581501 -22.770241 19.437174
51.6805 -33.20472 31.768112
51.0243 -24.118668 19.771183
43.864899 -19.985987 18.248446
39.444298 -19.304409 17.927519
40.1194 -19.211479 17.678799
40.430199 -19.496943 18.036011
47.437599 -19.729708 18.139585
75.864799 -32.288807 21.441589
57.858002 -31.562599 30.124796
76.632896 -32.277901 21.75511
42.8078 -52.689011 26.882557
42.3587 -51.970142 26.836958
54.953602 -46.068333 24.319723
54.972599 -45.549114 24.036177
53.876301 -46.385223 24.511482
47.1185 -19.657185 22.030485
36.2407 -14.160627 16.949299
59.792599 -30.986538 28.534657
73.759796 -31.078075 23.520258
38.960999 -13.168459 17.121071
39.1497 -12.908087 17.566938
38.4142 -13.024313 17.831226
47.834301 -19.249531 22.30658
42.464802 -11.899652 18.445292
69.096199 -45.130283 24.431801
40.149498 -12.603149 18.705503
75.790001 -31.49044 23.650089
76.798798 -31.688354 23.805935
42.366798 -12.09453 18.807226
42.2593 -12.245613 19.159256
78.212196 -31.991173 23.935925
77.803802 -31.881935 24.29752
48.928299 -18.295795 22.810654
44.8242 -10.380625 16.294132
47.109798 -8.802887 19.001394
47.5966 -7.7891579 18.915812
46.1147 -12.938496 21.196041
46.415401 -12.546749 20.858671
51.136398 -12.081814 21.153028
43.082199 -6.2735176 16.411695
77.832901 -31.896858 24.567167
73.8246 -31.041607 24.985172
72.811798 -30.919361 25.365314
58.3811 -19.015177 23.064281
51.275002 -12.498318 21.517872
51.368801 -8.3157787 19.935038
44.621899 -8.0087852 15.784922
44.384602 -7.6453266 15.727315
53.5257 -9.1617775 16.658253
46.450199 -8.5462151 18.694633
44.123001 -7.9578037 15.843485
51.1026 -10.535692 16.407089
49.316101 -5.7079983 18.943913
49.049599 -5.8452215 18.907425
43.184299 -7.1153336 16.739576
45.1129 -6.777729 15.441307
44.854599 -6.7397518 15.456442
54.665798 -10.140955 17.359388
54.866901 -9.6052685 17.441879
55.017799 -9.0783405 17.51844
54.637699 -8.2672081 17.152321
55.759399 -9.6667385 18.479902
55.6203 -9.6025734 18.223045
54.7141 -12.603783 21.860785
54.957699 -12.16217 21.560242
55.467999 -12.104603 21.449965
53.033901 -8.2887058 16.346617
53.180901 -7.7003956 16.291626
55.322899 -9.6694527 17.833782
55.056702 -8.4622116 17.535498
51.3601 -3.4403 18.822889
51.128502 -3.1367416 18.724995
69.102295 -34.25956 34.392666
52.184898 -6.1349602 15.714683
52.5532 -7.5443382 16.073172
53.097099 -3.8747034 15.690342
52.941601 -3.6773176 15.58733
55.5373 -9.9674435 18.084717
51.040199 -3.3357019 14.910116
55.827 -9.6033916 18.709835
50.965401 -0.11298275 17.990883
46.2939 -2.332056 14.354986
45.953999 -2.5681686 14.426729
51.247501 -4.4972363 15.177887
51.5499 -4.4958439 15.245271
50.422501 -1.7638903 14.487032
50.7248 -1.9494572 14.586114
54.4953 -7.6244164 19.656065
54.636799 -7.3783894 19.497456
55.011398 -9.9069576 20.294693
75.341499 -42.929741 28.393269
54.305698 -5.1640015 18.858347
54.5135 -4.6533604 18.451387
54.6535 -4.9410267 18.408745
47.490002 5.6707954 12.977482
43.730999 -66.875786 29.582384
43.444698 -67.278282 29.750053
43.5033 -68.4692 29.994587
43.2327 -67.974945 29.990541
45.027401 -68.760391 29.780197
45.470798 -69.58596 29.927742
45.5075 -76.588684 31.595444
43.080502 -69.724106 30.487391
47.551201 -64.69632 28.686653
46.694599 -75.223 31.192188
47.090698 -74.761726 31.076817
42.8433 -67.651482 30.287355
42.9053 -67.970383 30.502855
42.8433 -66.708534 30.21171
43.1581 -68.339264 30.838785
43.376598 -68.034256 30.943232
43.994099 -73.466965 32.489021
51.882599 -69.142754 30.156443
51.499901 -68.754128 29.983366
50.749298 -74.73214 31.410839
50.938 -74.968102 31.524567
44.315102 -71.226669 32.215096
44.5042 -72.578674 32.608299
44.560299 -71.670097 32.442421
52.094398 -64.818871 29.061405
51.808998 -73.772949 31.414852
51.635399 -73.604919 31.308273
51.9893 -73.849663 31.503963
46.726398 -73.576485 33.817291
47.0728 -74.11808 34.070625
46.9109 -72.837654 33.717236
46.644901 -66.875206 32.190788
47.335899 -67.01944 32.463581
47.082001 -65.814552 32.106636
54.430401 -67.413422 30.564569
54.1437 -72.429794 32.547222
54.121399 -72.692368 32.68037
51.118198 -75.442986 35.346672
51.833 -64.984726 33.126678
51.178398 -65.410538 33.114246
53.2864 -65.312553 33.3013
55.352402 -66.09317 32.75666
55.446201 -66.381348 32.653595
54.377701 -65.887489 33.257713
43.662601 -62.635048 27.78709
36.295502 -61.358391 27.803703
46.995998 -62.341713 31.998722
46.6101 -61.964775 32.112442
38.2099 -56.170128 27.909927
41.7743 -55.063744 28.602169
41.91 -55.13826 28.905331
41.268898 -62.584305 30.135824
46.673302 -61.651489 32.266518
43.1124 -62.608788 30.784601
43.741798 -62.382767 31.170589
48.6926 -61.214073 32.683098
42.0443 -55.303032 29.258972
46.696899 -55.641426 31.001934
46.393501 -55.352982 30.617188
