# .PCD v0.7 - Point Cloud Data file format
VERSION 0.7
FIELDS x y z
SIZE 4 4 4
TYPE F F F
COUNT 1 1 1
WIDTH 1633
HEIGHT 1
VIEWPOINT 0 0 0 1 0 0 0
POINTS 1633
DATA ascii
-2.3908899 2.47732 -73.922096
-4.3417802 3.3127201 -74.350601
20.8036 45.0242 -78.219597
-19.3591 29.185301 -64.692101
21.2591 46.420101 -77.642502
-4.8635702 3.9997599 -75.182899
20.302799 45.5723 -78.500702
-3.9672401 3.86554 -76.125
-4.9239101 4.0320101 -75.661697
-16.0553 8.5662003 -75.802696
-17.8937 27.7668 -65.060699
-14.9184 8.3703098 -75.878899
-1.48806 2.8078899 -74.909103
20.0909 46.486301 -78.389603
-2.53473 3.4830301 -75.3339
-1.28616 2.89239 -75.487602
-18.1236 28.2197 -62.865898
-18.280399 28.3556 -64.107201
16.950001 46.2514 -79.339401
17.912901 46.2061 -79.269997
-2.4605501 3.4386899 -76.312698
-14.2518 9.6899595 -75.5112
-2.62499 3.6586399 -75.863403
-18.911301 27.941 -60.386002
-3.84723 3.86923 -75.509399
-18.481501 28.2687 -61.791901
14.3359 32.936501 -66.029503
14.7645 33.2313 -65.754303
-11.625 6.05266 -75.7034
14.3475 33.393299 -65.137703
-4.6761498 3.18682 -76.509499
-19.406799 28.6443 -60.807598
-4.6357498 3.6336 -76.338097
-11.6481 7.5329399 -75.308998
-6.02704 4.1417298 -75.952797
-10.5999 6.7874699 -75.045097
15.1645 34.144501 -64.808098
-19.107 27.570601 -59.599899
-5.42588 4.0218501 -75.912399
15.7706 33.9202 -65.638702
-20.2637 28.736099 -59.944901
-12.0187 7.0349598 -75.635399
16.2062 34.576698 -65.247902
-12.9346 7.3656502 -75.8843
17.141899 34.4557 -66.1614
-5.1435699 3.3580301 -73.850998
-10.29 7.0719099 -74.593102
-10.9947 7.5743799 -74.813499
-20.7724 29.4086 -60.312599
-5.5760298 4.0397902 -74.423599
-5.57581 4.3501902 -75.052803
-6.6656098 5.1365399 -74.510201
15.9528 34.654301 -64.448196
-18.9443 28.8125 -62.136002
-6.7486601 5.0344 -75.6073
-19.632401 29.491699 -62.7938
-5.94104 4.6146302 -75.174301
-6.5071101 5.1206698 -74.8629
-20.0623 29.562099 -62.001301
15.1281 36.6903 -62.902599
13.7435 35.939701 -62.529099
-10.1519 -6.9762101 -58.910801
-9.8283701 -6.2772102 -59.319199
-21.985201 30.1061 -63.1493
-19.5168 29.4697 -63.837898
-20.2302 29.820999 -62.873199
-8.4724903 -6.0261302 -59.499699
-10.5318 7.83991 -74.033699
16.42 36.424999 -63.622101
-21.156401 30.001101 -62.861401
-21.020599 30.0417 -62.187199
-20.687901 29.756001 -61.504002
-9.9602604 -5.1792898 -59.823799
-8.6424599 -4.9576402 -59.915001
-21.859699 30.4259 -62.935299
-11.0503 8.7016697 -74.025497
-5.5352702 -5.9492402 -60.629002
-5.0238299 -6.42623 -60.889198
-5.9888701 -6.0581398 -60.018299
-11.4123 10.446 -73.252502
17.689199 38.438702 -63.512901
-21.2953 30.5784 -62.313301
-21.070299 30.502199 -61.617802
-6.2381301 -4.8885498 -60.7696
-10.5878 8.5515604 -73.1782
-6.5578899 -6.14256 -59.6978
17.3146 35.203899 -65.574799
17.7784 35.644299 -65.0448
-7.76406 -5.3765998 -59.855598
-23.6686 22.9128 -69.107803
19.1521 36.2477 -66.262497
-6.9167199 -4.9047298 -60.212399
20.2076 37.0079 -66.319199
-7.4661999 -4.2385402 -60.327999
-13.4076 8.8238096 -75.587303
-24.8729 23.5755 -67.502899
-11.6868 8.6629105 -74.823898
17.9792 36.128101 -64.746498
-24.263201 23.726101 -68.217903
-23.627701 24.3953 -68.543404
-7.26722 -3.7160101 -60.648998
-6.7630301 -3.7890899 -63.531898
-22.642401 23.474001 -69.727097
-20.6677 24.6842 -69.809196
21.0495 37.9011 -66.306999
-6.8042002 -3.7779701 -61.024799
21.9711 37.9795 -67.7967
-12.3144 10.7016 -74.297997
-11.133 -5.13237 -60.0229
-23.1901 25.517099 -68.337601
19.792601 37.054501 -65.604202
-22.1045 25.0567 -69.187599
19.8843 37.900101 -65.118698
-21.134399 26.093201 -68.861702
-16.013901 10.4765 -75.454102
-10.5784 -3.8299201 -60.3139
-11.5071 -4.84131 -60.259499
-15.1264 10.057 -75.532501
-25.142799 24.607401 -66.780296
-24.449499 25.326 -67.316597
17.6381 37.6973 -63.7327
-9.5836496 -4.5282602 -59.996101
17.831499 36.7873 -64.268204
-10.9979 10.1568 -72.294601
-11.2758 10.7304 -72.607803
-11.6913 9.8957005 -74.1166
-25.3195 25.8421 -65.9216
-9.7785902 -2.8595901 -60.386902
-11.3452 -3.3744299 -60.599098
-10.771 -1.92111 -60.6059
-22.360901 25.9709 -68.524803
-11.5183 11.8979 -71.746399
18.195 39.4594 -63.626701
19.8174 38.643398 -64.744202
-21.6154 27.371901 -67.772697
-7.8654799 -3.3823299 -60.4776
-23.801001 26.673401 -67.178299
-8.7998199 -3.3710999 -60.324799
-22.983101 27.002399 -67.501099
-13.0474 10.5721 -74.783997
20.6418 38.364498 -65.516701
21.0998 39.318501 -65.578903
-19.353399 25.140699 -69.476898
-12.3285 12.1002 -73.387199
19.7113 39.574001 -64.434601
-7.5241899 -1.3199199 -62.037201
-7.89323 -1.75893 -61.106899
-7.41466 -2.02478 -61.532101
20.264799 40.593102 -64.634499
20.6551 39.996498 -64.980904
-9.9414902 -1.87791 -60.516602
-19.780001 26.3612 -68.635902
-18.667999 25.3864 -69.057503
-8.8407202 -1.87192 -60.610001
-8.3394804 -1.74976 -60.7528
12.8183 36.9879 -62.246201
13.9565 36.908298 -62.4706
-19.2325 26.705099 -68.151199
-6.2199502 -4.0050602 -61.694901
-18.859699 27.6623 -66.845596
12.0169 37.3409 -62.287399
-6.0171099 -4.25878 -62.048
13.4419 38.284901 -62.4529
-6.4415102 -3.5408199 -62.861401
-12.2003 14.3049 -70.963501
-20.494499 26.4266 -68.674896
12.1877 38.209702 -62.507301
-11.6408 11.8489 -70.283897
-20.0476 27.2493 -67.868401
-12.4615 14.1456 -68.775497
-11.8586 13.1287 -71.078201
-7.1142998 -2.1234 -62.033501
-19.6117 27.9503 -66.993797
-6.8482699 -2.6636901 -63.016399
-11.9256 13.2246 -70.4543
-12.5108 15.4235 -69.838203
-12.9557 12.1787 -73.982002
-21.2822 28.021099 -67.2472
-7.4570899 -2.8602099 -64.501701
14.9888 37.726799 -62.700001
16.4132 38.5327 -62.967899
-12.2583 12.7606 -72.795502
-12.3794 13.7938 -72.146301
-12.056 13.3286 -71.829903
14.4755 38.2728 -62.553101
-25.509399 26.342501 -65.189903
-7.9430499 -2.4491899 -64.985397
-24.7841 26.6766 -66.121498
-24.6724 27.5716 -65.389397
-12.5047 14.8355 -71.440399
-12.9939 13.9642 -72.894402
-12.645 -2.59952 -66.3228
-25.442101 27.050501 -64.418701
15.1886 39.755699 -62.673698
-12.3738 -1.6766 -66.010498
-12.9534 15.9199 -71.271797
-13.0756 15.6365 -71.744202
15.6747 40.988499 -62.807899
-13.5045 15.5274 -72.324501
10.8925 37.372398 -62.521801
-18.546 9.7401896 -74.949898
-24.8811 28.0509 -63.973499
-10.9936 -1.85224 -66.784798
-24.638901 28.055099 -64.678497
-24.046101 27.305099 -66.405296
13.3775 40.128502 -62.869999
-17.6982 11.2599 -75.055099
-12.7205 -1.15467 -65.652298
-11.3056 -1.11972 -66.449303
-10.9244 -0.86224198 -66.4189
12.4185 40.3671 -63.1502
-9.4633703 -1.75799 -66.403999
-8.7389803 -2.10113 -65.817299
-19.423201 11.3985 -74.3274
14.2088 39.794498 -62.677299
-23.470301 27.993999 -66.2444
-18.7183 12.7665 -74.457603
-22.2768 28.2295 -66.819298
-10.3459 -1.56344 -66.696899
-22.426201 29.178801 -65.682198
-24.063 28.381201 -65.080597
-9.90767 -0.34789899 -65.7062
-8.8216801 -1.09763 -65.1092
12.3959 41.4744 -63.562302
-9.2821598 -1.05195 -65.575699
-8.3307695 -0.85812598 -64.728798
-22.9174 29.101801 -65.178497
-22.4394 29.397301 -64.697502
-10.4139 -0.65269202 -66.199997
-23.993299 28.7813 -64.289902
-10.6063 0.32666701 -65.861298
-17.0748 11.309 -75.176102
-23.1901 29.524799 -63.111198
-21.9832 29.8951 -63.4907
14.6737 41.948002 -63.147499
13.9452 43.0923 -63.773102
-11.4283 -2.2520399 -60.756401
-23.632401 29.8365 -62.574902
-16.3626 11.9847 -75.093597
16.801399 39.504601 -63.009602
-20.343599 12.3389 -73.6605
-7.9619098 -0.75776899 -61.536598
18.2195 40.327 -63.639801
-23.8328 30.8876 -63.127499
-20.813 28.789801 -66.349602
16.1574 39.949902 -62.8083
-8.8645601 0.156563 -64.898399
-8.29568 -0.42806399 -64.4142
-21.786699 29.117201 -66.010902
17.0222 40.503201 -63.127499
-20.497999 14.2467 -73.268799
-19.7439 12.947 -73.949303
-9.7112703 0.036540002 -65.415199
-20.2286 29.0483 -65.755203
-9.5756197 0.82799 -65.299599
-21.1432 29.387199 -65.682198
-21.2626 29.5846 -65.285103
-9.32201 1.20481 -64.901497
-20.109699 29.606899 -64.717003
17.9202 41.268902 -63.589901
-21.4217 29.723801 -64.289001
-7.2972798 -2.05093 -63.9576
16.240999 41.054401 -62.914902
-17.883101 13.857 -74.465302
-16.652599 14.71 -74.259399
-7.4391799 -1.4066499 -63.201401
-21.6234 31.025499 -63.118401
-18.796499 14.4814 -74.108002
19.9762 41.360901 -64.453598
-8.1586704 0.207816 -63.274899
-7.6711702 -1.53992 -64.289902
-8.1834698 0.182759 -61.794601
-22.9368 30.761999 -63.224998
-18.738501 15.73 -73.781601
-17.471701 14.6774 -74.283897
-8.1232204 0.25702101 -62.771599
-22.058001 31.451401 -63.573601
-14.0813 11.334 -74.917297
17.762199 42.665798 -63.778999
-21.305099 32.268299 -63.9576
19.036699 42.699299 -64.230499
-8.7151299 1.25634 -63.6008
19.629 42.146801 -64.382004
-15.2776 12.1721 -74.935402
-20.7376 32.893902 -63.932701
-14.5101 12.7207 -74.5355
-22.187 33.373699 -64.907402
-21.238199 32.896999 -64.343903
-11.7713 -0.93828499 -60.808102
-12.4144 -1.01284 -61.087799
-13.7213 12.368 -74.3601
-10.495 -0.78470302 -60.5383
15.8131 42.8531 -63.397301
-10.1046 38.320499 -70.8461
-10.0904 38.412601 -70.3274
-15.5563 14.0953 -74.325203
-13.4048 -0.019005001 -61.524399
-10.8932 39.382401 -73.305603
16.684099 43.110298 -63.600399
-10.8008 38.762199 -71.900101
-11.1075 39.0872 -72.558403
-13.7651 14.5605 -73.237999
-14.2043 14.6468 -73.522301
-11.3164 0.36069199 -60.553299
-14.8974 14.7955 -73.813301
-16.5317 15.8132 -73.836502
-12.7094 0.296074 -61.036999
-12.1075 0.97458202 -60.658501
-11.2569 39.337799 -72.855797
10.2951 40.479198 -63.993
-15.0905 16.5072 -72.952797
-13.2558 41.030102 -73.057999
-10.6929 0.57819098 -60.4631
-8.6236 -0.54468697 -60.910999
11.2103 41.815899 -64.091797
-4.2032299 16.9632 -74.964401
-9.4092798 0.181181 -60.649899
10.3663 41.594601 -64.490303
-4.5855198 17.104601 -74.6026
-9.8693104 0.30834699 -60.538799
10.9416 42.916199 -64.817703
-3.4657199 16.9375 -75.076897
-11.1777 39.501202 -69.1754
-10.3108 2.2602 -60.340199
-9.3441296 1.0348001 -60.779499
-1.82294 17.3927 -75.884804
-2.34269 17.158701 -75.142601
-2.7788601 17.382799 -75.872101
13.4269 43.534401 -64.119003
-9.1934795 1.8559999 -61.184799
-13.7115 0.91204 -61.4147
12.0689 43.582802 -64.626801
-12.5718 39.7052 -71.286697
-2.48949 17.1059 -74.690102
-1.90397 17.2435 -74.114799
-13.3463 40.626701 -72.502701
-12.7221 1.94081 -60.5592
-3.19415 16.846201 -74.021004
-13.4787 40.347401 -71.653
-13.8279 40.490601 -70.0522
-11.0631 2.13043 -60.221001
9.6994801 42.862999 -65.741203
-2.43944 17.229099 -72.9039
-1.28645 17.874001 -72.719803
-10.7784 2.5294199 -60.189201
-9.8031702 2.19716 -60.6385
-15.0729 41.249401 -70.8293
-2.34835 18.3591 -70.009598
-13.3211 1.47243 -60.976299
-2.9385099 18.191401 -70.713203
-2.3626299 17.766701 -71.1856
-1.83268 18.254601 -70.407204
-1.84481 17.6127 -72.345299
10.5477 43.804298 -65.592903
10.0248 44.965599 -66.819298
-15.5641 41.995098 -72.032097
-11.5171 1.51327 -60.375599
-4.4727402 17.304899 -73.665497
12.6006 45.208401 -65.340401
-11.9432 3.8759699 -59.883202
-14.484 41.077099 -71.879303
-13.0642 4.1944499 -59.934898
-15.524 42.246498 -72.537102
-4.5279999 18.124001 -72.298203
11.7246 45.023899 -65.640099
-14.1366 1.8453701 -61.257401
-15.4553 5.9245801 -60.030998
-5.15132 17.9014 -73.487801
-5.4353499 18.791401 -72.655403
-13.9651 3.21345 -60.551899
11.5189 45.871498 -66.336899
-3.46489 16.936001 -73.658302
-2.96527 17.0721 -73.147797
-3.3879499 17.5784 -72.047897
15.3332 43.964401 -63.881901
-3.88007 17.1367 -75.858498
-14.3537 42.055302 -73.132797
-11.3563 4.2755299 -59.852798
-15.6412 43.036301 -73.0009
-10.5453 4.1443 -60.307098
-5.4029799 17.638 -74.633003
14.7838 44.9967 -64.5252
-5.2399502 18.1535 -75.941399
-5.0043402 17.3927 -75.351097
-10.8493 4.1451998 -60.081799
-14.1142 42.694302 -73.501404
-11.0437 6.50951 -60.077301
-10.0828 4.2497201 -60.777699
15.4641 45.575001 -64.720596
-8.7032099 1.7832201 -62.573002
-8.8500099 1.71875 -61.612801
-14.3083 43.816502 -73.638802
-2.0873101 18.002399 -76.500397
17.7334 45.066299 -64.392403
18.516701 44.707699 -64.470802
-3.2355599 18.0215 -76.672699
-8.8810196 2.20383 -62.905399
-9.2802095 1.94912 -64.288597
-9.4817305 3.88375 -63.208199
16.947599 45.2537 -64.424599
-9.1402998 2.5673599 -63.430801
-4.47932 17.820801 -76.229797
-22.291599 26.3948 -56.6707
-3.28093 18.8132 -77.043999
-9.1417503 2.75845 -61.993198
16.5676 45.921799 -64.783203
-4.3620701 19.0441 -76.781502
-19.9867 26.4888 -56.744099
-5.0627298 18.820601 -76.344498
-9.4794598 3.0899301 -61.224701
-22.942699 26.047001 -56.790798
13.4959 46.167099 -65.648697
-9.5462904 4.3084402 -62.3241
-24.314199 26.0856 -57.554298
-9.87883 4.5570002 -61.2696
-10.4896 6.2937102 -60.7691
-6.32517 18.581499 -74.876503
15.1845 46.5098 -65.387497
-23.583099 26.388 -57.111301
-22.787399 27.0756 -56.951801
-11.2988 -1.79749 -67.498398
-13.3378 -1.48087 -67.677498
-6.04672 18.552 -75.386101
-5.81636 18.9069 -75.819
-12.1835 -1.19024 -67.731903
17.609301 46.683899 -65.1577
16.7796 47.232498 -65.555298
-6.6455202 19.4622 -73.544899
-6.5573902 18.853701 -74.247704
-20.520901 27.2174 -56.862
-12.3227 -0.29025301 -67.934097
-6.6184502 19.216499 -75.020599
-21.430901 27.5753 -56.939098
-6.99439 19.912001 -74.459801
-21.0574 28.1882 -57.3176
16.754801 48.4702 -66.496498
-6.9386201 20.4198 -74.8116
-22.421 27.687201 -57.09
-14.0886 -0.223139 -67.8629
-23.0151 28.419001 -57.667198
-22.1134 28.3666 -57.423698
-9.8884001 -1.4679101 -67.545097
-10.3791 -1.58453 -67.485298
-6.30056 20.044201 -75.667099
-21.3016 28.811399 -57.776001
21.918501 39.2649 -66.524597
-6.4215102 21.2369 -75.596901
-19.4613 27.4142 -57.589199
-9.1025295 -0.160303 -68.311699
22.9314 39.422298 -67.884697
-10.0589 -0.20798901 -68.028801
22.930401 39.108799 -68.321297
-11.0504 -0.197586 -67.968102
-20.142799 28.727699 -58.735802
-20.2756 28.2325 -57.686199
-5.4387102 20.5688 -76.534897
-4.7059302 20.5721 -76.968803
-24.364401 27.2297 -57.843498
-11.2597 0.988563 -68.143501
23.6691 40.452202 -68.670799
23.9758 40.632 -69.491898
-25.181601 27.337601 -59.604401
-25.220301 27.825399 -59.269402
-14.1211 0.48560399 -67.928596
-24.883499 28.172899 -58.810101
-5.7376599 21.516899 -76.371201
-23.5714 27.702 -57.492599
-5.0447798 22.3095 -76.957397
-24.507099 28.119101 -58.34
-12.8443 0.65097398 -68.000298
23.844299 41.979698 -68.127197
3.4310701 11.6556 -77.291496
4.1394 12.825 -77.663803
-22.9545 29.4259 -58.4356
-10.5668 1.29857 -68.347099
3.04649 12.3275 -77.307404
22.3283 40.680599 -66.398102
-10.1196 1.92022 -68.721603
23.1194 41.104698 -67.235901
6.0813098 12.4584 -77.2798
22.184799 41.6497 -66.060799
4.9576402 12.3977 -77.452904
-22.072901 29.7645 -58.766102
20.864 41.740601 -65.004898
-23.0916 29.929399 -58.7593
-14.0839 0.232342 -64.8834
-22.226999 30.517401 -59.143799
-13.4375 0.34539601 -65.244301
-25.2052 28.636101 -60.221401
22.720301 41.933701 -66.547203
-11.6142 -0.226569 -66.220398
6.2613401 13.0664 -77.625198
-12.4729 0.456453 -65.660004
21.941999 42.6992 -65.860397
-25.252199 29.476801 -60.9604
-24.3442 29.8731 -62.277
5.6909099 13.6093 -78.027397
-13.8222 0.76927 -65.0588
-25.226 28.763 -59.7323
23.3862 42.400501 -67.304398
3.74295 14.0402 -78.111702
-11.894 1.09935 -65.920197
6.8796802 14.0902 -78.2314
-24.200899 29.164 -58.670502
-13.1291 1.43819 -65.436501
-25.3494 29.7101 -60.570099
-11.2251 0.42754599 -66.059402
24.714399 42.352001 -70.958504
-10.7586 1.25406 -65.7416
-10.1677 1.86897 -65.514503
24.4993 42.347198 -69.711304
24.7131 43.554199 -70.103897
-25.098 30.5989 -60.401001
24.414499 42.858501 -69.271103
-9.9853697 2.3562 -65.251503
-11.8473 1.92063 -65.8563
-24.8169 30.3566 -59.792099
-24.385201 31.1049 -59.786201
-23.876801 30.505899 -59.180099
-11.5776 2.4852901 -65.811401
24.0275 43.431099 -68.334
23.7159 44.541401 -68.128098
-23.3239 31.859501 -59.590401
24.2463 44.914902 -69.212997
-10.5687 2.83197 -65.552597
-15.085 1.31239 -67.9291
-20.5317 28.927299 -58.3563
-20.982901 29.7206 -59.575401
-21.2859 29.8246 -59.171902
-21.6968 30.1619 -59.2304
-21.1765 30.0933 -59.8923
-13.7419 1.80695 -67.958099
-20.896601 29.9795 -61.0434
-14.5705 3.0179901 -67.829399
-20.9618 30.636999 -60.8493
24.374701 43.884102 -69.1446
-20.8962 31.921 -60.8979
24.830601 43.884998 -70.624802
24.6362 44.518299 -69.982803
-12.0549 2.7567999 -68.224701
-11.7146 2.29403 -68.249603
-20.764 31.7246 -62.458801
24.812201 43.771301 -71.737396
-20.7729 31.5261 -61.666302
24.4718 44.966202 -73.184998
-20.7012 31.945499 -61.445499
6.6493702 14.757 -78.595001
-11.5231 2.9254401 -68.3843
7.66083 13.4407 -77.541397
-21.2101 30.753401 -60.253201
8.2206497 14.5021 -78.255402
-21.259899 32.2957 -60.432201
-10.9573 3.22278 -68.729301
-22.750601 31.017099 -59.192299
8.7960596 14.2299 -77.769897
-22.2316 31.967199 -59.655201
24.7554 45.0438 -71.333397
-21.861401 31.037399 -59.628399
24.3309 46.420502 -72.411499
7.9979601 15.2463 -78.743698
24.2516 45.871498 -69.8078
10.3769 15.342 -77.732697
24.6395 45.535999 -70.886902
-8.2919598 1.80827 -69.706703
-9.8249702 2.3574901 -69.086998
10.8981 15.6705 -77.527802
-21.867701 32.667198 -60.028801
9.9530897 15.8669 -78.544701
24.4328 46.362099 -71.533401
24.234501 46.513901 -70.542801
-25.276899 30.5005 -61.159
14.3099 17.0229 -78.462997
-9.4408398 3.37239 -69.8536
23.822001 46.894798 -69.830101
-8.3069201 3.0697999 -70.502899
14.5077 17.381001 -78.904198
14.9993 17.062099 -79.067398
-10.39 3.59461 -69.2108
-24.2192 31.022301 -62.9552
-9.9583502 4.1605902 -69.8255
-24.314199 32.139801 -63.357399
-24.8675 31.564501 -62.411201
20.847099 43.104801 -65.084198
14.0731 18.068701 -78.769997
-24.996201 32.2738 -61.5144
-24.975201 32.694302 -62.415298
14.5765 18.6175 -79.389297
15.075 18.4596 -79.550697
16.1555 17.610399 -79.445503
19.4447 44.791599 -64.7864
17.084299 17.4266 -79.371597
22.705601 43.751999 -66.647003
17.590099 17.409401 -79.298103
-8.9554596 4.3681502 -70.905899
20.1702 44.628201 -65.040703
21.7006 44.000702 -65.828201
-24.844101 32.733501 -62.863701
18.160299 18.0219 -79.212898
-24.6992 34.483002 -63.6675
19.435801 18.2292 -78.500198
-24.7654 32.1647 -60.853401
-9.4876699 5.2593598 -71.021004
23.0977 44.2355 -67.169296
18.554501 19.1001 -78.993896
-7.1465302 2.6064 -71.2146
-23.747101 32.902599 -60.271801
-7.1771402 3.7211001 -72.329002
17.7896 19.114201 -79.330299
22.2019 44.818802 -66.460602
-24.181601 33.3988 -60.834801
23.065201 45.3452 -67.502899
-24.416401 34.969898 -62.035801
-9.02351 5.3594098 -71.711502
23.5823 46.0284 -68.573303
22.4016 46.265499 -67.232697
22.846201 46.5606 -67.922798
-8.9790401 5.9032698 -72.526199
1.9778301 12.2158 -76.165802
-24.833 33.475601 -61.942902
2.71171 12.1552 -76.9674
1.9928401 12.5844 -76.929298
-8.2164297 5.3983102 -72.990501
-7.4706502 5.2057199 -73.785202
21.358101 45.8801 -66.154198
-24.7292 34.900799 -63.304798
2.10322 13.0133 -77.301102
-20.9228 31.910801 -63.253101
-9.7301302 6.4431801 -74.905502
-9.4750204 6.52529 -74.690598
-20.335501 32.8092 -62.4062
-9.0237799 6.5025301 -73.756203
1.2464401 12.9192 -76.002602
21.789499 46.9786 -67.031403
-20.3039 33.191299 -63.233101
-9.36726 6.7237301 -74.0382
-9.5466099 6.8807702 -73.265701
-9.8896198 7.1684799 -73.915298
1.32407 12.9618 -76.557999
-20.0732 33.782001 -63.826099
0.98150897 13.8425 -76.934303
22.046301 48.154202 -68.185204
-19.976601 33.9711 -63.023201
-9.6580896 4.72089 -70.477898
-20.011299 34.100201 -62.524101
-21.0254 33.207199 -60.7356
20.1185 45.882401 -65.4039
2.7275801 13.2136 -77.603897
-20.3316 33.778599 -61.720699
18.803499 46.150799 -65.033897
-19.376101 35.929699 -63.4557
-19.7939 35.5592 -62.6175
-23.1106 32.846199 -64.434601
19.8913 47.151402 -65.9189
-22.359699 34.5602 -65.694504
-9.8032999 5.9549098 -71.164803
-10.5236 5.67872 -69.875397
20.8204 46.815399 -66.248497
-23.8083 32.6968 -64.099998
1.92105 14.1115 -77.622498
-11.0873 5.1625199 -69.076103
19.243299 47.367599 -65.832298
-11.5134 6.3638902 -68.967796
-21.5527 33.993301 -65.256104
3.42222 14.7721 -78.289902
-11.1846 6.7760401 -69.495903
18.389999 47.3214 -65.621902
18.9226 48.1619 -66.325104
-9.6485701 6.2684999 -71.814003
-10.0668 7.31845 -72.376602
1.80475 15.4199 -77.800697
-10.235 6.9958401 -71.414101
-20.4548 34.165798 -65.046204
-20.049101 34.940701 -65.324501
2.8392601 15.9037 -78.291199
19.225 49.8675 -67.919998
-10.8507 7.1609502 -70.209099
19.7418 48.494202 -66.851402
-19.5588 35.132198 -63.738602
-19.814501 34.778099 -64.506599
-10.5961 6.75419 -70.420303
-20.5867 34.862999 -65.705803
1.50774 12.9035 -75.404198
-21.246401 35.428799 -66.296501
-11.0301 8.1199102 -70.291603
-10.4662 8.2438602 -71.9786
-10.6552 9.0174398 -72.150803
20.922899 48.000999 -67.0877
1.33691 14.0726 -74.206802
0.68366098 13.9153 -75.489899
0.47655001 14.0969 -76.166801
-10.2397 7.8612199 -72.941101
0.69570702 14.7689 -74.380501
0.045563001 15.0462 -75.310303
-14.4124 2.3536201 -65.008499
20.5511 48.740898 -67.431801
21.3062 48.580399 -67.820297
-12.4114 2.41114 -65.759804
0.16608199 15.0186 -76.332703
-22.494699 33.412701 -60.117599
23.0588 47.308201 -68.814499
-23.01 34.610401 -60.763199
22.889799 48.0536 -69.476898
23.6362 47.671398 -70.6679
0.890387 15.2477 -77.224899
-10.8286 4.4042501 -65.413803
22.2192 48.7663 -69.230698
-11.9585 4.2821898 -65.778801
-23.439899 35.214298 -61.3032
0.134927 15.7978 -76.588402
-0.45896 16.089899 -75.634003
-22.1495 35.450401 -61.0089
-0.54329002 16.4538 -75.936897
8.0110998 43.539299 -72.641403
0.029906999 16.808001 -76.568398
-21.096701 34.104698 -60.891499
9.3153 41.063801 -76.074303
10.1408 42.110802 -76.959702
-14.9028 4.1731601 -65.098701
8.8206301 41.828899 -75.434601
-20.465099 34.608299 -61.577
-13.8955 3.7300601 -65.398003
-20.1896 36.2356 -62.103401
1.20393 16.8228 -77.413002
10.5523 43.151901 -77.332802
-21.767401 34.4874 -60.635399
2.2677 17.1521 -78.080902
9.6710501 43.345699 -76.460098
8.23316 42.3806 -74.2127
1.25389 17.5728 -77.316902
0.264718 17.8608 -76.663597
-12.9348 3.7527201 -65.694901
9.31915 43.271702 -75.993103
-24.5179 36.157001 -63.337002
9.2285299 43.841702 -75.604599
-11.3596 4.7594299 -65.5811
6.5970101 15.6557 -78.903297
-24.0951 35.729099 -62.0961
-12.2357 5.3362899 -65.726196
9.9252596 44.3862 -76.443802
-12.4539 6.5706201 -65.723
10.8214 44.463902 -77.349602
11.4865 43.9389 -78.034599
-15.8967 4.9927301 -64.712898
4.0833998 16.1381 -78.681999
-16.183701 5.8517199 -64.746498
-23.3811 36.643002 -62.053902
10.5827 45.387798 -76.714897
11.5524 45.224201 -77.694099
-14.85 5.0852199 -65.230202
-13.8954 6.2779799 -65.558502
-22.5898 35.841499 -61.2687
-15.1108 6.81639 -65.372101
-21.0884 36.6343 -61.715698
-20.683001 36.038101 -61.6754
8.3784199 43.750401 -73.752098
7.8874698 16.505501 -79.2369
-13.1109 6.0605402 -65.732101
7.1641302 16.989 -79.310799
9.8004904 45.0588 -75.867104
-21.336201 37.645802 -62.052101
-11.7206 6.9363999 -65.508102
-24.1292 33.968399 -64.455902
-22.9112 34.7481 -65.6269
6.2041702 18.136999 -79.388802
-11.719 7.7765799 -65.445099
-23.397301 35.158199 -65.608299
-10.503 4.4456201 -65.137703
-9.71947 2.5213599 -64.793602
2.75653 18.591101 -78.287102
-23.774799 36.228001 -65.826797
-24.3678 35.381699 -64.704803
-10.2385 4.3264298 -64.803596
-9.9267101 4.7028499 -63.978001
1.66176 18.540199 -77.306999
10.0654 46.387402 -75.012497
4.98983 17.8922 -79.133102
-9.6560001 4.8162799 -62.687698
-22.056999 35.675598 -66.433403
10.5496 46.244202 -75.976303
-20.1744 35.454899 -65.9851
-20.094 37.4366 -67.550499
3.8411701 18.4056 -78.800797
-9.9871397 5.75738 -63.3601
12.5307 45.172001 -78.433098
12.4666 45.952702 -78.078598
14.06 45.753201 -78.933197
-10.0442 6.1862202 -62.088799
13.3387 46.402 -78.388702
-10.2684 7.3106999 -62.785702
11.4907 46.038799 -77.189499
-23.3605 36.956699 -66.542702
-23.7391 37.786499 -66.496002
-22.278999 36.5271 -66.9394
-11.1515 6.49827 -65.2565
-10.7325 6.0980401 -64.872101
2.5548 20.178801 -77.614304
11.2898 46.6395 -76.524498
14.0689 47.729 -77.894997
12.9538 46.896599 -77.887703
3.11045 20.0355 -78.236801
3.97541 20.754299 -78.6362
14.8301 47.202599 -78.5755
-10.4126 6.4446301 -64.144402
-22.7962 36.056999 -66.450203
5.3790898 19.323 -79.306297
15.7124 46.473099 -79.131302
-22.7281 37.827599 -67.474403
-10.8231 8.6577396 -64.100403
15.7345 47.421101 -78.698303
-12.3289 8.01056 -65.534401
-11.3959 8.4905796 -65.030296
-10.9354 8.1058102 -64.497597
4.5166402 20.3587 -78.952698
-16.0952 4.4451499 -67.576797
-14.9514 4.3975902 -67.666199
4.7174001 21.541201 -78.837997
5.0949702 20.5326 -79.153999
12.6654 47.958801 -76.612396
-15.5336 5.2792602 -67.494301
5.6343298 21.824699 -79.1576
-24.4597 36.253101 -64.5951
1.14118 15.1979 -73.135101
11.3959 47.736198 -75.404602
-24.223301 38.119202 -65.592903
-24.41 37.207699 -64.651299
1.50236 15.2826 -72.537102
-16.9559 6.56183 -67.261299
0.220167 16.077999 -73.782997
-0.40610901 16.1234 -74.987099
-23.633101 38.445599 -63.472099
-24.073099 37.7327 -63.6063
-12.608 4.9685702 -68.066002
13.8858 48.528702 -77.168701
-13.303 4.8895001 -67.848
0.731727 16.798201 -72.151299
15.2953 48.625301 -77.783897
-11.8831 5.3766398 -68.500298
-0.506908 17.030899 -73.761597
0.377951 16.4786 -72.989998
-23.8307 39.325901 -64.527
14.6169 49.2328 -76.900703
-24.1418 37.157902 -65.6455
-1.15908 16.823299 -75.159401
-14.4193 6.6835999 -67.419998
-1.4886301 17.069401 -74.547302
-0.96215498 16.8141 -74.6838
-1.48932 17.057699 -75.453201
-13.076 7.00282 -67.769501
-12.4478 6.6521401 -68.127701
-13.2486 5.8012199 -67.775902
-24.145901 38.638401 -64.845299
-1.08999 17.2808 -76.026703
-0.48213601 17.227699 -76.295998
8.5532398 44.103001 -68.467201
-23.238701 38.953201 -67.629402
8.4247503 44.664001 -69.761101
-1.02439 17.6565 -73.350403
-23.6133 39.148499 -67.194199
-23.8465 39.190201 -66.749001
8.46311 45.004002 -70.626602
-16.329 6.6937599 -67.282204
-24.1588 38.844299 -65.651398
8.6188402 44.9981 -72.833603
-0.42229101 17.791201 -72.405602
0.156334 17.5884 -71.995796
8.0377197 44.0093 -71.469002
-23.801201 40.5425 -65.811401
-23.8102 40.481701 -66.720901
8.9240904 45.922699 -71.667503
-15.3732 7.8018298 -67.173798
-0.88021803 18.2265 -71.938698
-23.0581 38.582802 -63.0387
-16.3894 7.1328001 -64.893799
-1.31434 18.2332 -71.259499
-17.204 9.2917204 -65.098297
-22.6551 37.196098 -61.987301
-22.075001 37.404202 -61.9347
-0.64629501 18.330799 -71.074501
0.29857701 18.1126 -71.239601
1.24454 18.451401 -70.185501
0.48555899 18.529499 -70.350502
-21.6355 38.643002 -62.526798
-15.2382 7.6491799 -65.495003
-20.632999 41.108101 -63.788502
8.9647598 45.902802 -70.258003
-22.2054 38.975201 -62.819199
-1.14139 17.927099 -76.3517
-13.0793 7.5504799 -65.787399
8.8257999 43.937199 -67.620399
9.3186998 44.063202 -66.939903
-0.066863 18.362 -76.598396
-0.911623 18.797001 -76.695396
-21.2724 40.304001 -63.3578
-13.7717 8.0672302 -67.439499
-1.45553 19.0347 -76.920197
-2.09813 19.628901 -77.416199
-14.3732 8.2118998 -65.658203
-13.4918 7.5495801 -65.825897
9.23456 45.8951 -69.253799
9.3481197 45.306702 -68.055099
-21.6408 40.9105 -63.737701
-22.227301 40.562801 -63.761799
-13.2433 8.7030296 -65.786903
-14.2529 10.3181 -65.918404
-13.6125 10.419 -65.800598
10.1998 46.376999 -68.001602
-23.336 39.740501 -64.093201
-14.4223 9.6028204 -65.850403
0.57463199 19.9172 -76.874901
-23.316099 41.0788 -65.103302
1.0282 18.660801 -76.924797
-22.689899 40.890499 -64.303101
-22.563101 42.314499 -65.182602
10.8396 46.408699 -67.289902
-17.1985 7.7017298 -67.0532
2.0097599 20.110201 -77.288399
-16.3685 8.0997801 -66.9879
0.196537 20.2614 -76.983704
-23.552299 41.220001 -65.749802
-15.9711 9.0781002 -66.773003
-0.812186 20.155899 -77.189102
1.61852 21.3424 -77.153297
11.5484 47.012199 -67.274399
0.55681002 21.7216 -77.354103
-14.311 9.5546303 -67.047302
-13.0157 8.6423702 -67.6408
-19.0303 36.633999 -65.456001
-18.875401 36.9771 -64.322601
-2.05474 22.330601 -77.993797
-2.8301401 20.313999 -77.564903
-1.98911 20.730101 -77.7118
-18.663401 37.444901 -65.026199
-11.9503 6.90838 -68.532501
-0.98644602 21.197599 -77.7304
-18.347401 38.550201 -65.044296
-12.5178 8.8281603 -67.980797
0.572519 22.3554 -77.571701
-19.344601 37.223499 -63.224499
-10.6437 8.4255199 -71.483498
-11.3704 7.8432698 -69.527702
-20.0194 37.4319 -62.5368
-3.65504 19.9233 -77.280701
-10.8707 9.8474998 -71.6689
-19.241899 36.657398 -63.4576
-4.0615802 22.767099 -77.530502
-18.2806 39.5868 -64.953697
-12.1287 9.3590899 -68.472198
-2.4003301 23.1078 -78.051399
-11.5008 9.1993303 -69.427002
-20.346001 38.082199 -62.5205
-11.2047 8.97645 -70.044998
-10.9781 9.6821203 -71.043701
-19.763201 38.873798 -63.083099
-19.189199 38.606602 -63.511501
-1.11571 22.111401 -78.012901
0.024011999 22.898399 -78.133003
-19.273199 36.490501 -66.076202
-19.4613 37.242199 -67.0541
-11.7477 8.9808102 -65.273697
-18.9527 37.388401 -66.466499
-12.7988 10.5539 -67.820297
3.65504 21.6859 -77.9244
-18.9107 38.110901 -67.315201
3.01071 21.5044 -77.581299
2.69592 22.004601 -77.3908
3.9907899 21.2904 -78.469398
-18.285801 38.616901 -65.926102
-18.3978 38.6031 -66.7649
4.3619699 23.2714 -77.7631
5.2421699 23.745001 -78.093597
-21.0998 37.7346 -67.952698
-20.392401 38.132099 -68.202003
5.0162201 22.593901 -78.636703
-19.3039 38.187698 -67.876999
-11.9803 11.0731 -68.950104
-11.81 11.593 -69.5467
2.7386799 22.765699 -77.343201
-21.296301 38.648499 -68.572403
-19.702 39.109402 -68.8526
-13.2317 10.2476 -67.4757
-12.3343 11.3643 -68.442299
-13.3289 11.0716 -67.3293
1.9455301 22.7416 -77.346901
-12.9945 11.8677 -67.666199
2.4477 23.987101 -77.525902
-18.577101 39.639 -68.649002
1.32459 24.365 -78.230003
-12.2538 12.4789 -68.727501
-18.9084 39.605701 -68.934196
-18.4098 40.3265 -69.262001
-18.128599 39.803398 -68.0923
1.76203 23.951099 -77.713203
19.667101 -8.7871304 -64.941902
-17.796101 40.199799 -67.704697
19.782101 -7.78546 -64.391899
-17.539301 40.666199 -67.430397
3.7429199 23.597 -77.484703
-17.912399 40.607101 -69.016296
23.367001 -9.0310802 -73.265701
21.974001 -8.8055801 -74.511101
5.0128598 24.5783 -77.663803
-17.5282 41.6301 -69.028099
4.4080801 25.176201 -77.462898
23.444401 -8.5980301 -73.8741
24.343599 -7.7621102 -73.729897
2.84975 25.2306 -77.745796
3.5211101 24.556801 -77.4729
-17.615801 40.495998 -66.647003
3.7908299 26.119699 -77.689102
25.1849 -7.2663598 -73.020401
-17.7391 41.048698 -65.991898
11.6088 16.334499 -77.253502
-18.4697 40.1385 -64.725601
11.2928 16.484501 -78.140297
-19.194201 39.853401 -63.856998
25.2901 -6.42804 -73.212196
24.4053 -6.7124801 -74.099403
-18.308701 41.229301 -65.030701
-18.025499 42.298302 -65.733902
12.5745 17.4347 -76.8368
12.2932 17.4436 -77.630699
-17.438101 41.1455 -68.173897
-17.507401 41.335899 -66.6642
13.1051 17.8514 -77.149696
13.6342 18.0515 -78.030998
-17.7978 42.199501 -66.943901
11.2854 17.4531 -78.8797
11.9004 17.508699 -78.141602
12.8252 18.124399 -78.073196
13.3544 18.249201 -78.063202
25.7623 -5.77987 -72.587898
-12.1222 40.764198 -68.089104
8.89149 17.0301 -79.350304
-11.3589 40.8078 -67.842102
9.9378099 17.044901 -79.176598
22.568399 -7.7540398 -64.570999
11.0412 18.0965 -79.332603
9.8542099 46.737 -69.072502
22.2668 -6.9538102 -64.155701
23.4575 -6.9155002 -64.699303
8.4113302 18.015699 -79.630898
23.052299 -6.2775202 -64.327103
24.2152 -7.5075498 -65.431503
9.7608204 47.087002 -70.4244
-15.4624 41.593201 -70.027702
9.82234 19.413799 -79.862099
8.4127398 19.132401 -79.774597
10.5513 47.932499 -70.166496
11.5473 18.4842 -79.017998
-17.3636 41.876099 -68.5466
12.3833 18.636801 -78.800797
10.6247 47.5345 -68.972702
11.3148 19.0193 -79.635002
10.911 47.408001 -68.325302
11.1999 48.3437 -69.579803
13.0108 18.9603 -79.241898
-16.3032 42.394199 -69.259697
12.0836 19.2799 -79.668503
24.2054 -6.20644 -65.005302
-15.3962 42.130798 -68.823601
10.6629 19.063299 -79.751099
12.3322 46.453602 -66.328697
-13.8776 40.759102 -69.442398
12.2868 19.885201 -80.105103
23.793301 -5.3422799 -64.702904
10.9618 20.055799 -80.190399
-13.0976 40.9748 -68.357101
-14.8021 41.389801 -69.258797
14.2797 47.568501 -66.438004
13.4358 48.0821 -67.258598
24.9487 -5.4718499 -65.635498
-14.4026 41.8214 -68.233299
-13.6759 41.828999 -67.839302
25.534401 -4.5644798 -66.345901
26.4853 -6.1918802 -68.403297
16.283501 19.4377 -79.7062
26.2358 -4.9672499 -67.278099
16.9433 21.2526 -79.540199
26.2952 -5.6368699 -67.079903
15.877 48.286098 -66.522797
25.899099 -5.7354398 -66.612999
-15.2366 42.5784 -68.163498
17.896999 20.434099 -79.221497
-16.715099 42.922401 -68.568802
13.7864 18.6597 -79.095901
-15.0294 43.0728 -67.681099
14.9778 48.983898 -67.458099
14.247 49.337002 -68.181602
13.6583 19.3783 -79.739304
-16.947901 43.432301 -68.050598
14.2927 19.454901 -79.801399
16.092899 49.580898 -67.678802
-17.819 42.706402 -67.262703
-18.0798 42.972801 -66.399399
14.7367 19.7211 -79.866203
15.3501 19.6835 -79.8349
-17.375299 43.604198 -67.612198
26.762699 -5.6721501 -69.113297
11.2929 48.6311 -70.293404
-17.5158 44.135101 -67.350601
12.0307 48.2635 -68.397903
13.3473 20.1502 -80.104202
-16.740299 43.968102 -67.674797
12.9582 48.658401 -68.152603
-14.6107 42.457298 -67.776802
-14.1666 42.573101 -67.559601
26.7227 -4.8244901 -69.904404
12.1749 49.1353 -69.723099
-14.4136 43.375702 -67.3302
12.3146 48.967499 -69.151398
26.554001 -5.4618702 -70.755402
26.3013 -5.64961 -71.479401
-13.5553 43.7463 -67.250397
15.4448 20.653999 -79.918404
25.327499 -3.94873 -73.115196
25.7635 -3.3721001 -72.294998
14.3487 50.0257 -68.991302
15.4783 50.1744 -68.573799
-15.0717 43.6828 -67.444901
15.5435 50.800499 -69.359497
26.2533 -3.9821801 -71.287201
-14.7919 44.356499 -67.264
26.704901 -4.21773 -69.698997
13.8867 50.314499 -69.9702
26.191601 -2.9128101 -70.8787
-14.5819 44.824501 -67.284401
15.1536 51.054798 -70.180099
15.7235 21.721399 -79.875298
14.8128 21.985901 -80.066101
-20.215401 40.014301 -63.366402
26.676701 -4.6099601 -68.662697
26.0889 -3.5863299 -67.500702
26.2269 -3.18243 -68.158501
9.2876396 45.740501 -73.973396
26.5382 -3.6199601 -68.963699
15.6264 23.5686 -79.825401
25.3113 -3.4675801 -66.574898
9.19203 20.0916 -79.956398
9.97966 46.854 -74.109398
25.3771 -2.68134 -67.119797
-19.5294 40.436001 -63.818001
10.9228 47.892601 -74.416801
25.8615 -2.42292 -68.237801
10.1249 20.7321 -80.281502
11.4916 20.531799 -80.302399
26.3209 -2.8787799 -69.9683
9.4766102 46.716099 -72.713501
-19.027 41.142502 -64.3974
9.8140898 47.334999 -71.810402
10.3698 21.356501 -80.360802
25.6999 -1.6801 -70.446198
26.046499 -2.32373 -69.1437
25.6479 -1.6827199 -69.392998
25.2348 -1.71582 -68.135399
-22.002199 42.185398 -64.747398
10.567 47.908501 -73.518204
9.2792597 21.2188 -80.204903
-21.2353 42.937199 -64.870697
7.9898 19.919001 -79.769203
-20.9869 41.983002 -64.2519
8.4149599 20.6394 -79.903801
25.4121 -1.23411 -70.303398
24.9855 -0.92057699 -69.714897
25.1719 -0.30018401 -69.784302
25.3545 -0.629933 -70.4729
10.5725 48.200001 -71.643501
11.3076 48.574001 -73.786102
2.6140001 -8.7033005 -77.412102
-21.622601 43.571301 -65.494499
7.2973199 21.817801 -79.6418
11.3954 48.9603 -72.362099
10.7806 48.312401 -72.980003
7.3247499 22.6598 -79.581497
-19.349501 42.197201 -64.672096
13.2527 -9.79142 -75.405098
12.2183 49.532398 -73.234398
8.4223099 23.1574 -79.896103
-18.648399 42.8605 -65.291901
-18.4951 43.2472 -65.703499
8.9710598 22.056601 -80.176804
9.8646402 22.162399 -80.280602
-18.9942 43.618801 -65.470901
14.5704 -8.3849001 -76.7267
13.0733 50.056999 -73.706299
10.7869 23.287901 -80.196297
13.9282 -7.4475198 -77.311996
-19.421499 43.754799 -65.378899
9.0654001 22.828899 -80.090599
11.3211 -10.1487 -74.839302
11.7465 -9.9841499 -74.948097
-19.7425 44.637901 -65.800102
12.0254 48.883701 -74.558197
12.67 48.695099 -75.741501
9.3740997 -8.6448202 -76.942497
11.4973 -8.6020203 -76.779297
-18.337 43.687 -66.265198
13.7736 50.022499 -74.8479
14.2063 49.744598 -75.833504
12.7741 -9.6450796 -75.262703
-15.9494 45.165501 -67.346497
12.3087 -9.1394396 -76.067902
5.1737199 -9.7152596 -76.201698
10.8135 -10.0559 -75.460899
7.6238799 -9.46101 -76.440598
12.9458 21.4319 -80.327698
-22.5422 39.714199 -68.6119
14.0955 50.536201 -74.230904
14.9391 50.930199 -74.0037
15.6249 50.696201 -75.185204
12.6782 -8.7652798 -76.717598
11.4629 48.995701 -71.6054
12.3547 22.3197 -80.3545
-23.0212 40.627499 -68.507599
-22.592199 40.909698 -69.101997
12.4428 49.792702 -72.622299
-22.970301 42.444599 -69.075203
11.9918 23.294901 -80.294601
12.9571 49.9445 -70.490601
-23.561399 40.756599 -67.671997
-23.617599 41.6451 -66.736702
13.1453 23.760201 -80.247902
-23.622601 41.4874 -67.242699
-23.245899 42.684399 -68.3358
13.939 50.596001 -70.757202
12.6498 49.921902 -71.4468
10.6204 24.2915 -79.9841
14.0219 50.7901 -71.9786
15.6763 51.365799 -71.4599
20.773199 -8.0387602 -75.474503
-23.451401 42.1404 -66.547699
13.3619 50.402401 -73.1287
20.018299 -9.0416899 -75.260902
14.6374 51.073002 -72.689903
14.8092 22.9403 -80.052498
-20.238001 39.9506 -69.646004
13.8412 24.168501 -80.135498
-20.6026 41.0849 -70.388603
15.5133 -8.0076103 -76.799698
-21.618 40.2117 -69.461899
17.092699 -8.3910198 -76.338997
18.0007 -7.7772999 -76.462799
21.364799 48.562698 -76.261497
15.329 24.629 -79.804604
15.2902 26.3559 -79.419601
24.1905 45.3078 -73.979301
24.505899 45.483898 -72.770599
-21.5725 41.010201 -69.907997
12.6243 24.7708 -80.139099
19.936899 -7.4202299 -76.111397
23.3699 45.807598 -75.386101
-20.0464 42.103901 -71.077698
17.438601 -7.42241 -76.769302
23.870701 46.347099 -74.323402
-19.222 40.481998 -69.897598
-18.9277 41.143501 -70.259804
-17.897499 41.399601 -69.428398
-19.701099 41.235199 -70.540001
16.117701 -6.9001298 -77.173698
24.008101 46.848099 -73.324203
17.1577 -6.4415998 -77.1147
22.877899 47.034901 -75.610001
-18.207001 41.863201 -69.834602
-17.6229 42.598801 -70.193703
19.2598 -6.4981799 -76.608803
-18.8304 42.163502 -70.577202
14.4215 24.054399 -71.994003
15.11 24.388599 -72.421997
15.4894 25.1758 -72.647301
-19.8463 42.742599 -71.358803
14.2972 25.641899 -71.984497
23.362801 47.397999 -74.476196
17.987801 -5.6291699 -77.059402
14.7345 26.2703 -72.339897
22.308701 48.201801 -75.468102
-20.8545 42.909401 -71.138
23.923599 47.3708 -72.6278
16.6966 -11.1297 -72.647697
7.86516 23.6003 -79.5765
5.7749701 23.003201 -78.919098
-19.0326 43.4734 -71.499397
11.8484 -8.2557802 -77.170998
23.305401 47.929798 -73.8405
11.5889 -7.6050701 -77.579399
23.922001 47.4193 -71.552399
10.4353 -7.8418598 -77.5672
5.7589598 23.724001 -78.545998
23.300699 48.303799 -71.728798
6.8624601 24.930901 -78.580002
23.152399 48.4865 -72.680801
10.1557 -7.00073 -78.005096
10.6644 -6.32581 -78.171097
8.5708704 24.729099 -79.441902
22.6056 48.985199 -73.486
22.205 48.979801 -74.541901
-21.7782 41.9426 -70.188698
13.8605 -6.9348602 -77.541397
6.6971598 24.288799 -78.859703
9.31213 25.434 -79.417801
7.7947102 25.7481 -78.5709
-21.9536 42.677101 -70.322899
22.023399 49.449501 -73.756699
9.5327301 26.5597 -78.906403
20.8895 50.184799 -73.950699
5.7192001 25.764799 -77.562202
6.4973202 25.366699 -77.997902
-22.731501 44.033501 -69.567596
19.317101 48.3564 -77.885902
-22.478901 42.897499 -69.908897
-22.3305 44.568401 -70.357803
5.04142 26.237 -77.443398
8.9088097 -6.7353301 -78.2146
20.534 48.240299 -77.362297
9.1264296 -6.0353799 -78.390999
21.899401 47.4674 -76.539902
6.64434 26.367599 -77.606201
19.5453 47.408901 -78.321602
6.9286499 27.280001 -77.328697
6.8520699 28.218599 -77.116096
20.299299 47.5331 -77.900398
6.0202398 27.1765 -77.351402
11.0511 -5.66149 -78.246803
-21.332199 44.233101 -71.2817
5.0719299 27.271299 -77.541801
4.5238299 27.4149 -77.793404
-19.7616 43.8923 -71.814003
7.1837602 -5.0468602 -78.698799
-20.4793 43.736698 -71.5923
10.6644 -4.9767699 -78.3638
21.495501 49.132999 -75.430496
8.8449802 27.5438 -77.721298
-15.7261 41.785198 -71.173401
7.5689802 26.5916 -77.798897
-16.802799 42.798199 -71.361504
13.6443 -4.3025899 -77.9104
16.755899 47.033001 -79.022903
8.3612404 28.0387 -77.216698
11.5753 -4.31112 -78.239098
-17.591299 42.123001 -69.605698
16.768299 47.8899 -78.556396
-16.7728 42.4464 -70.156502
-17.302601 42.739498 -70.399902
18.313999 47.510399 -78.704697
-17.1339 42.423801 -68.956001
-16.896299 42.504501 -69.562103
13.5188 -6.2241602 -77.790298
14.024 25.954 -79.806801
14.3867 26.900299 -79.419601
15.1871 -6.06984 -77.5336
16.244699 48.557701 -78.0401
-18.091499 43.1063 -70.9571
15.8032 -5.2747202 -77.555
17.0961 49.014702 -77.705002
17.475901 48.3269 -78.247704
-16.851999 44.0522 -72.796898
11.4483 25.375601 -79.854401
13.0874 -5.1766601 -77.976601
-16.7941 43.411598 -72.290901
12.9013 26.4203 -79.656799
20.811001 49.726898 -75.295403
10.908 26.0068 -79.5597
20.4571 49.388302 -76.221603
15.8196 -4.2684498 -77.574898
18.517401 49.289001 -77.253502
-16.2346 44.001701 -73.093803
-17.6287 43.266602 -71.146202
10.7483 27.033001 -79.016197
18.8592 50.1227 -76.1894
-18.260599 44.147999 -71.845703
12.1447 26.875799 -79.392899
19.9741 49.1852 -76.806396
-17.837299 44.267399 -72.175301
-18.5203 44.7253 -72.193901
13.5037 27.1675 -79.388802
17.3619 -3.8740799 -77.211304
19.8578 50.3503 -75.118103
15.8978 -3.0127499 -77.416199
9.6390495 27.2251 -78.504799
-15.2129 43.640701 -73.379898
5.9435802 -4.2022099 -78.800301
15.4105 49.5411 -76.932503
11.3378 28.1196 -78.471703
9.6769896 -4.4529099 -78.488403
17.524599 50.039299 -76.556602
9.6906404 28.442499 -77.367699
-15.1459 44.934299 -73.498199
16.3246 49.682999 -77.0028
15.2105 50.116402 -76.059799
10.363 28.222799 -77.998299
10.037 28.8253 -77.126999
-15.8598 45.647499 -73.365898
-16.2043 44.9743 -73.318703
13.0316 27.922199 -78.918198
10.2572 -3.81514 -78.401398
11.551 28.7565 -78.0215
13.8734 28.6283 -78.399101
-16.802799 44.615299 -67.482498
12.2617 29.253401 -77.713203
14.3702 29.2157 -77.778503
12.9559 29.738501 -77.1306
20.7542 50.538502 -72.730202
19.785101 50.871201 -73.155502
-4.4328198 23.876499 -77.379097
-3.1501 22.8818 -77.8619
-20.6556 45.568199 -72.023903
-3.5083001 24.3909 -77.804802
-21.295601 46.3008 -71.735603
19.4918 51.005402 -71.461304
-22.1078 46.028801 -70.702797
20.195801 50.810001 -71.749603
16.8398 -2.5950601 -77.134697
-0.302017 23.928699 -78.3284
-2.12375 24.5977 -78.235001
-20.489799 46.711102 -72.230202
17.707899 48.528198 -66.467903
17.021 49.2001 -67.146103
-1.6725301 26.011499 -78.392799
-1.53424 24.209999 -78.307999
-0.171738 25.443001 -78.521103
-17.8799 45.823898 -73.023102
18.6199 50.1096 -68.073303
12.3529 -3.5185499 -78.065903
-16.079599 46.556099 -73.095703
-19.508499 45.3433 -72.422897
10.8091 -2.53474 -78.1493
-18.6789 45.575901 -72.634102
1.0057499 26.743401 -78.632103
-19.891199 45.840698 -72.4142
13.4287 -2.82815 -77.784401
17.664301 50.7257 -68.7397
15.2095 -1.6475101 -77.183601
0.69014502 24.236 -78.348801
-18.239599 46.2356 -72.951897
-19.2337 46.928299 -72.754303
21.2766 49.455799 -68.705704
-17.951401 46.776001 -72.963699
20.653601 49.692902 -68.3666
1.4376301 26.652599 -78.596298
20.4312 50.3195 -69.194397
14.7249 -1.99932 -77.389
20.6821 50.475899 -69.885803
2.2399099 26.431601 -78.448502
12.0756 -0.76442403 -77.401703
2.1445 28.3067 -78.812103
19.330299 50.4324 -68.667603
2.8257201 26.4245 -78.2976
4.2007198 28.023701 -78.257698
3.4527199 28.4363 -78.610802
15.93 -1.02587 -76.767899
-16.412701 47.2701 -72.765602
-17.916901 47.5966 -72.695801
19.0961 19.453699 -78.560997
17.011 51.5019 -71.239601
19.304501 20.664499 -77.693703
16.527 51.154598 -69.377602
18.952801 20.7633 -78.233597
12.2261 -0.221481 -77.126503
-22.9846 43.7808 -67.138397
18.4156 21.015699 -78.740501
-23.3295 43.022301 -67.589996
16.846901 51.4706 -70.286102
-22.948601 44.480598 -68.216499
17.3771 51.305099 -69.7285
-22.653799 43.297199 -66.149597
18.155899 51.445599 -70.848801
18.937 50.9991 -69.571602
14.2995 -0.222322 -76.696297
19.205799 51.1278 -70.389099
18.3426 51.312801 -70.1483
-21.1402 44.459301 -65.841797
17.5968 23.0667 -78.947197
17.040001 22.424801 -79.397003
16.066799 -0.18231399 -76.236099
18.1926 51.134201 -71.5438
-22.1716 45.010899 -67.061798
19.2358 21.891399 -76.5308
-21.812599 44.999699 -66.720398
19.240499 21.4519 -77.181801
14.894 0.67353302 -75.842598
-20.251801 44.801399 -65.8731
18.5005 22.282499 -78.190102
16.801201 1.06089 -74.844704
18.917801 22.6959 -75.444504
22.285101 49.504299 -72.348099
21.670799 -7.33214 -75.489899
18.8591 23.1912 -76.1278
-19.881901 45.801701 -66.518204
18.846201 23.0142 -76.845901
-19.280001 45.728199 -66.580803
22.545401 48.947102 -70.630203
-20.7911 45.370098 -66.400398
21.9797 49.576401 -70.058601
18.4806 24.3426 -77.0327
22.8116 -7.2831302 -74.945801
-21.225599 46.0737 -67.175201
18.055799 23.008499 -78.529198
21.3001 50.007599 -69.628304
21.9888 49.900101 -70.899597
21.3172 50.3811 -70.885498
21.847 50.123199 -71.702499
-22.851999 44.6073 -68.971802
22.2582 -6.9094701 -75.372498
21.638399 50.144001 -72.342598
20.7864 -6.7681999 -76.050697
21.5014 50.372501 -71.601799
16.4473 24.656 -79.463203
16.8986 24.488501 -79.223801
18.550501 22.9615 -77.759003
18.123699 24.932899 -77.820198
16.9711 50.528 -75.868401
17.1586 51.048901 -74.7658
17.550699 24.364401 -78.752296
-22.3612 45.482498 -67.807098
22.976999 -6.12356 -75.185699
17.4119 51.236198 -72.005302
-22.7505 44.902302 -68.018898
-22.3503 45.877899 -70.138802
16.196899 51.230701 -73.877701
-20.7411 48.335602 -68.863503
-21.7293 46.469002 -67.9944
15.6098 51.229801 -73.4067
17.243299 51.253899 -73.5812
23.6143 -5.4233398 -74.867401
-22.0093 46.768299 -68.778702
19.503201 50.829498 -74.066299
18.196899 51.126499 -74.208702
24.4475 -5.5169601 -74.194199
18.5933 24.331301 -76.282799
18.6663 23.8951 -75.5914
18.3808 25.586399 -75.9636
-20.0329 47.459702 -67.695602
-20.606701 46.873501 -67.469803
18.989 50.7701 -74.8955
18.1497 50.751499 -75.372498
18.0772 23.972601 -74.348297
23.645399 -3.9992001 -74.841103
19.1129 51.100201 -72.828598
18.202 51.2584 -72.937401
18.468901 23.8811 -74.996201
-17.5268 44.805401 -67.303902
19.963499 -5.5738602 -76.538101
-17.9408 45.453098 -67.2005
-18.6469 44.419102 -66.244797
21.534401 -5.81777 -75.944099
18.129 25.493099 -74.799896
-17.081499 45.725101 -67.394997
22.5735 -5.04845 -75.502098
18.2195 25.9512 -76.792397
-18.755199 45.567299 -66.720001
17.719299 25.259701 -78.344704
18.011499 -4.7881298 -77.110703
20.7628 -4.5249701 -76.295502
17.017799 25.8321 -78.803497
17.3463 26.9086 -78.003304
16.1618 51.3083 -72.4505
17.962999 26.2027 -77.544098
-18.156601 46.7719 -67.4599
16.107 51.416599 -71.717903
-18.901699 47.1278 -67.450798
18.028601 26.896999 -76.201698
-17.751499 46.2981 -67.4132
17.8459 26.9258 -77.075699
16.878901 24.529301 -73.395798
17.1506 25.338499 -73.546303
20.1287 -3.71471 -76.440102
-12.2463 40.922298 -73.606598
-16.2216 46.099998 -67.489799
-10.9447 40.073101 -73.803802
-16.4188 46.805901 -67.755898
21.7244 -3.8338799 -75.857597
17.458799 25.445601 -73.836899
22.367701 -3.3383601 -75.436798
-15.4721 46.867599 -68.0774
17.7306 25.926001 -74.264397
18.116899 26.3451 -75.128502
24.933001 -4.3155398 -73.671898
16.586599 26.241301 -73.360397
-14.4018 47.671799 -69.442001
16.1915 27.045601 -73.330498
-9.6819801 41.0923 -74.486099
-10.0973 40.667702 -74.356003
-11.854 41.358002 -73.945702
-16.7616 47.3246 -68.012497
16.8972 27.0753 -73.855904
-11.6427 42.761299 -74.129799
-7.92555 40.1301 -74.846497
17.516001 27.0811 -74.519203
-8.3140001 41.151798 -74.656998
17.8344 27.2637 -75.356102
-9.8855 42.333302 -74.332901
-18.386101 47.979198 -68.138603
21.5142 -2.61183 -75.660301
-7.1947699 40.758999 -74.787201
17.447001 27.8885 -76.208
17.558001 27.7584 -75.5606
-7.4668398 41.704201 -74.471199
16.1432 28.023199 -73.8256
22.732401 -2.3051701 -74.901001
17.118099 27.790501 -74.617599
-15.3798 48.1828 -69.539902
16.2153 28.5138 -74.389603
-6.3639398 41.411701 -74.412697
21.4321 -1.89663 -75.417297
-7.4781699 42.6712 -73.899498
22.966499 -1.58794 -74.364601
16.639 28.5896 -75.259102
-12.4382 42.372002 -73.974701
-12.9004 43.360199 -73.918999
16.203899 26.181101 -79.155296
-7.6461 43.983002 -72.657204
-9.3419104 42.6236 -74.238098
-19.5725 47.948799 -68.033401
-8.3831797 42.742802 -74.083504
16.5818 27.253799 -78.419998
-20.0152 48.720501 -68.832199
21.6476 -0.83854002 -74.598602
-11.0193 44.2827 -73.669197
15.7393 27.4261 -78.821198
-10.242 44.325699 -73.493301
14.1179 27.798201 -79.038803
14.9984 28.2838 -78.505699
21.561501 0.72140402 -72.644096
17.004801 27.932199 -77.387199
16.7421 28.615801 -75.912003
21.0888 0.64278603 -73.053497
-21.640699 46.162998 -71.415497
-21.837299 47.0457 -70.948997
-9.1425695 44.216999 -73.230797
15.5026 28.611799 -78.014198
21.801901 0.21563999 -73.3423
-16.4531 49.076401 -70.5019
-21.002199 47.928902 -71.829903
-21.2617 48.503799 -71.327103
-19.294399 50.0466 -70.150101
