# .PCD v0.7 - Point Cloud Data file format
VERSION 0.7
FIELDS x y z
SIZE 4 4 4
TYPE F F F
COUNT 1 1 1
WIDTH 1726
HEIGHT 1
VIEWPOINT 0 0 0 1 0 0 0
POINTS 1726
DATA ascii
39914.844 5427799.5 326.97
39914.844 5427799.5 327.07001
39914.813 5427800 327.10001
39914.813 5427800 327.16
39914.813 5427800 327.39001
39914.844 5427800 327.41
39914.844 5427800 327.38
39914.844 5427800 327.38
39914.844 5427800 327.44
39914.844 5427800.5 327.41
39914.844 5427800.5 327.45999
39914.844 5427800.5 327.41
39914.875 5427800 327.38
39914.906 5427800 327.26999
39914.938 5427799.5 326.92001
39915 5427799 326.67999
39915.031 5427798.5 326.56
39915.094 5427797.5 326.67001
39915.313 5427796.5 322.70001
39915.469 5427794 322.42999
39915.563 5427793 322.35001
39916.875 5427776.5 315.04999
39917.156 5427774 311.45001
39917.219 5427772 313.82999
39917.281 5427771 313.88
39917.469 5427769.5 311.54999
39917.844 5427763.5 311.85999
39917.938 5427762.5 310.98999
39918.188 5427761 306.67999
39918.281 5427760 305.82999
39918.344 5427758.5 306.29999
39919.344 5427743 307.19
39919.563 5427740 307.54999
39919.625 5427738.5 307.94
39919.75 5427737 307.31
39919.844 5427735.5 307.76001
39919.938 5427734 307.88
39921.469 5427712 305.39001
39921.75 5427709 302.60999
39921.844 5427707.5 302.54001
39921.969 5427706 302.57999
39922.063 5427704.5 302.53
39922.125 5427703.5 302.48001
39922.969 5427692.5 298.23999
39923.063 5427691 298.25
39923.125 5427690 298.53
39923.188 5427688.5 298.67999
39923.313 5427687 298.81
39923.406 5427685.5 299.04001
39923.5 5427684 299.14001
39923.594 5427682.5 299.26999
39923.656 5427681 299.60001
39924.219 5427681.5 299.47
39924.156 5427682.5 299.26001
39924.094 5427684 299.10999
39924.031 5427685.5 298.91
39923.938 5427687 298.81
39923.844 5427688.5 298.59
39923.781 5427690 298.48001
39923.688 5427691.5 298.39001
39922.969 5427702 302.51001
39922.906 5427703.5 302.51001
39922.813 5427705 302.56
39922.719 5427706.5 302.54001
39922.656 5427708 302.57001
39922.563 5427709.5 302.60999
39922.406 5427711 305.32999
39922.25 5427712.5 305.79001
39921.063 5427734 307.73001
39920.938 5427735.5 307.51999
39920.781 5427738.5 307.92999
39920.719 5427740 307.66
39920.531 5427743 307.10999
39919.719 5427758.5 305.60001
39919.656 5427760 305.63
39919.5 5427761.5 306.69
39919.344 5427762.5 310.78
39919.031 5427767 311.85001
39918.969 5427768.5 311.82999
39918.906 5427770 311.47
39918.813 5427771.5 311.48999
39918.75 5427772.5 311.51999
39917.031 5427797.5 322.29001
39916.875 5427797.5 326.72
39916.875 5427798 326.67999
39916.844 5427798.5 326.47
39916.844 5427798.5 326.48001
39916.844 5427798.5 326.45001
39916.844 5427799 326.51001
39916.844 5427799 326.54001
39916.844 5427799 326.53
39916.813 5427799.5 326.60999
39916.813 5427799.5 326.62
39916.813 5427799.5 326.64001
39916.844 5427799.5 326.67999
39916.844 5427799.5 326.62
39916.813 5427800 326.67999
39916.844 5427800 326.70999
39916.844 5427800 326.67001
39916.844 5427800 326.66
39916.844 5427800 326.73001
39916.844 5427800 326.69
39916.875 5427800 326.70999
39916.875 5427800 326.76001
39916.875 5427800 326.64999
39916.906 5427799.5 326.62
39916.969 5427799 326.51999
39917.031 5427798 326.72
39917.219 5427797.5 322.29999
39917.438 5427794 322.45001
39919.281 5427772 311.54001
39919.375 5427770.5 311.54001
39919.5 5427769 311.54999
39919.563 5427767.5 311.69
39920.063 5427762.5 306.92999
39920.156 5427761 306.28
39920.281 5427759.5 305.75
39921.281 5427743.5 307.13
39921.469 5427741 307.16
39921.563 5427739.5 307.31
39921.625 5427738 308.03
39921.781 5427736.5 307.29001
39921.875 5427735 307.42999
39923.406 5427712 305.76999
39923.5 5427710.5 305.76001
39923.813 5427707.5 302.51001
39924 5427704.5 302.57001
39924.094 5427703 302.45999
39924.219 5427701.5 302.45001
39924.313 5427700 302.5
39924.688 5427694 302.51999
39925.125 5427689.5 298.72
39925.219 5427688 298.85001
39925.313 5427686.5 298.95001
39925.406 5427685 299.12
39925.5 5427683.5 299.29999
39925.594 5427682 299.42999
39925.688 5427680.5 299.62
39926.219 5427681 299.63
39926.125 5427682.5 299.45001
39926.063 5427684 299.29001
39925.969 5427685.5 299.10999
39925.906 5427687 298.95999
39925.813 5427688.5 298.85999
39925.375 5427694.5 302.53
39925.125 5427699 302.47
39925.031 5427700.5 302.42001
39924.969 5427701.5 302.42999
39924.906 5427703 302.54999
39922.938 5427735.5 307.29001
39922.844 5427737 307.28
39922.781 5427738.5 307.23001
39922.688 5427740 307.26999
39922.625 5427741.5 307.29999
39922.563 5427742.5 307.26999
39922.469 5427743.5 307.23999
39922.219 5427748 306.35001
39922.156 5427749.5 306.32001
39921.594 5427759.5 306.69
39921.5 5427761 306.69
39921.313 5427762.5 310.29001
39921 5427766.5 311.48001
39918.938 5427797.5 323.45001
39918.969 5427798 322.92999
39918.969 5427798.5 322.47
39918.938 5427799 322.38
39918.875 5427799 324.14001
39918.813 5427799 325.79999
39918.813 5427799 326.70001
39918.813 5427799 326.75
39918.781 5427799.5 326.73001
39918.813 5427799.5 326.76001
39918.813 5427799.5 326.66
39918.781 5427800 326.42999
39918.781 5427800 326.47
39918.781 5427800 326.45001
39918.813 5427800 326.47
39918.813 5427800 326.51001
39918.781 5427800.5 326.45999
39918.813 5427800.5 326.54001
39918.813 5427800.5 326.48999
39918.813 5427800.5 326.54001
39918.844 5427800.5 326.48999
39918.844 5427800.5 326.45999
39918.875 5427800 326.45999
39918.906 5427799.5 326.60999
39918.938 5427799 326.48999
39919.156 5427798.5 322.45999
39919.156 5427798 322.64001
39922 5427762.5 307.48999
39922.156 5427761 305.95001
39922.875 5427749 306.25
39923.25 5427743.5 307.42001
39923.406 5427741 307.60001
39923.5 5427739.5 307.47
39923.594 5427738 307.14001
39923.719 5427736.5 307.12
39925.688 5427708.5 303.14001
39925.875 5427705.5 302.59
39925.969 5427704 302.51001
39926.094 5427702.5 302.44
39926.156 5427701.5 302.47
39926.25 5427700 302.41
39926.406 5427698.5 302.45999
39926.469 5427697 302.45999
39926.75 5427692.5 302.54999
39927.313 5427686 299.10999
39927.406 5427684.5 299.22
39927.438 5427683.5 299.38
39927.563 5427682 299.53
39927.656 5427680.5 299.78
39928.125 5427681 299.70001
39928.125 5427682 299.57001
39928.031 5427683.5 299.42001
39927.938 5427685 299.29999
39927.625 5427688.5 302.47
39927.25 5427695.5 302.37
39927.188 5427697 302.39001
39927.094 5427698.5 302.48999
39927 5427700 302.45001
39926.938 5427701.5 302.47
39926.844 5427703 302.56
39926.563 5427708 302.60999
39924.938 5427735.5 307.47
39924.875 5427737 307.06
39924.75 5427738.5 307.04999
39924.656 5427740 307.35999
39924.594 5427741.5 307.26001
39924.5 5427743 307.39001
39924.438 5427744 307.35001
39924.313 5427745.5 307.35999
39923.5 5427761.5 306.06
39923.375 5427762.5 308.69
39921.094 5427795.5 322.35999
39921.031 5427796.5 322.34
39920.969 5427797.5 322.48001
39920.969 5427798 322.38
39920.938 5427798.5 322.35001
39920.906 5427799 322.37
39920.906 5427799 322.38
39920.906 5427799 322.64001
39920.906 5427799.5 322.48001
39920.906 5427799.5 322.39999
39920.938 5427799.5 322.41
39920.906 5427799.5 322.84
39920.875 5427800 322.73001
39920.906 5427800 322.51999
39920.875 5427800 323.57999
39920.844 5427799.5 326.39999
39920.813 5427800 325.48001
39920.781 5427800 326.48999
39920.781 5427800 326.73001
39920.813 5427800 326.70001
39920.813 5427800 326.73999
39920.844 5427800 326.67999
39920.844 5427800 326.69
39920.844 5427800 326.63
39921 5427800 322.67001
39921.094 5427799 322.31
39921.125 5427798.5 322.39001
39921.188 5427797.5 322.35999
39921.25 5427796.5 322.34
39923.906 5427765 305.47
39924.125 5427761 305.95001
39924.813 5427750.5 306.39999
39925 5427747.5 307.07001
39925.063 5427746.5 307.09
39925.25 5427744 307.26001
39925.344 5427742.5 307.13
39925.438 5427741 307.04999
39925.563 5427739.5 307.04999
39925.656 5427738 306.98999
39925.719 5427736.5 307.06
39925.813 5427735 307.14001
39925.969 5427733.5 305.39001
39927.75 5427707.5 302.98001
39927.969 5427704.5 302.51001
39928.281 5427700 302.47
39928.375 5427698.5 302.42999
39928.469 5427697 302.39001
39928.563 5427695.5 302.35999
39928.656 5427694 302.41
39928.781 5427692.5 302.42001
39928.875 5427691 302.39999
39928.969 5427689.5 302.48999
39929.531 5427682 299.73001
39930.188 5427681 299.85999
39930.094 5427682.5 299.78
39929.844 5427685.5 302.5
39929.688 5427688.5 302.45999
39929.594 5427690 302.38
39929.5 5427691.5 302.42999
39929.406 5427693 302.35001
39929.344 5427694.5 302.42999
39929.25 5427696 302.47
39929.188 5427697.5 302.37
39929.063 5427700 302.48999
39927.219 5427731 305.35001
39927.125 5427732.5 305.35999
39927.063 5427734 305.39999
39926.906 5427735.5 307.25
39926.875 5427736.5 306.95001
39926.813 5427738 306.88
39926.719 5427739.5 306.91
39926.594 5427741 307.23001
39926.531 5427742.5 307.34
39926.438 5427744 307.29001
39926.375 5427745 307.26999
39926.281 5427746.5 307.14999
39926.188 5427748 307.16
39926.094 5427749.5 307.16
39926.063 5427751 306.31
39925.438 5427762.5 305.44
39923.031 5427796.5 322.39999
39922.969 5427797.5 322.41
39922.969 5427798 322.31
39922.938 5427798.5 322.38
39922.969 5427798.5 322.32999
39922.906 5427799 322.34
39922.938 5427799 322.35999
39922.938 5427799 322.32999
39922.906 5427799.5 322.35001
39922.906 5427799.5 322.35999
39922.938 5427799.5 322.29001
39922.938 5427799.5 322.29999
39922.938 5427799.5 322.39001
39922.906 5427800 322.31
39922.906 5427800 322.31
39922.906 5427800 322.39999
39922.938 5427800 322.32999
39922.938 5427800 322.31
39922.938 5427800 322.35999
39922.969 5427800 322.29001
39922.969 5427800 322.39999
39922.969 5427800 322.32999
39922.969 5427800 322.38
39923 5427800 322.31
39923.031 5427799.5 322.26999
39923.063 5427799 322.35001
39923.156 5427798 322.35999
39923.438 5427796.5 316.34
39926.75 5427751.5 306.28
39926.813 5427750.5 306.34
39926.875 5427749 307.22
39927.063 5427746 307.23999
39927.156 5427744.5 307.28
39927.375 5427742 307.29999
39927.469 5427740.5 306.98999
39927.563 5427739 306.84
39927.656 5427737.5 306.82999
39927.75 5427736 306.81
39927.906 5427734.5 305.42999
39927.938 5427733.5 305.45001
39928.063 5427732 305.35999
39928.188 5427730.5 305.39999
39930.094 5427702.5 302.48999
39930.375 5427698 302.45999
39930.5 5427696.5 302.48999
39930.594 5427695 302.41
39930.688 5427693.5 302.45999
39930.781 5427692 302.42999
39930.875 5427690.5 302.5
39930.938 5427689.5 302.5
39931.094 5427687.5 302.45999
39931.125 5427686.5 302.45999
39931.219 5427685 302.5
39931.313 5427683.5 302.41
39932.031 5427682 302.35001
39931.938 5427683.5 302.35999
39931.875 5427685 302.48999
39931.75 5427686.5 302.5
39931.656 5427688 302.44
39931.594 5427689.5 302.42999
39931.531 5427691 302.45001
39931.438 5427692.5 302.39999
39931.344 5427694 302.42001
39931.25 5427695.5 302.51001
39931.156 5427697 302.41
39931.094 5427698.5 302.51999
39929.344 5427729 305.37
39929.25 5427730.5 305.37
39929.125 5427732 305.44
39929.063 5427733.5 305.48999
39928.938 5427735 306.63
39928.844 5427736.5 306.70001
39928.781 5427738 306.72
39928.719 5427739 306.78
39928.656 5427740.5 306.92001
39928.281 5427746 307.42999
39928.219 5427747.5 307.32001
39928.125 5427749 306.98001
39928.063 5427750.5 306.54001
39927.781 5427755 307.26001
39925.156 5427798 316.29999
39925.031 5427797.5 322.17999
39924.969 5427798 322.42001
39924.969 5427799 322.41
39924.969 5427799 322.48999
39924.938 5427799.5 322.41
39924.938 5427799.5 322.42001
39924.938 5427799.5 322.32999
39924.938 5427799.5 322.39001
39924.938 5427800 322.39001
39924.938 5427800 322.29001
39924.938 5427800 322.39999
39924.969 5427800 322.38
39924.969 5427800 322.32999
39924.906 5427800.5 322.37
39924.938 5427800.5 322.35999
39924.938 5427800.5 322.29001
39924.969 5427800.5 322.32001
39925.031 5427800 322.35999
39925.031 5427800 322.29001
39925.063 5427799.5 322.32001
39925.344 5427798 316.44
39928.469 5427756 306.17999
39928.563 5427754.5 306.56
39928.656 5427753 306.54001
39928.719 5427752 306.29001
39928.781 5427750.5 306.67999
39929.375 5427742 306.92999
39929.469 5427740 306.79001
39929.563 5427738.5 306.79001
39929.688 5427737 306.64001
39929.781 5427735.5 306.54999
39929.875 5427734.5 306.56
39929.969 5427733 306.44
39930.094 5427731.5 305.42999
39930.188 5427730 305.45001
39932.313 5427699 302.45001
39932.406 5427697.5 302.47
39932.781 5427691.5 302.45001
39932.906 5427690 302.45001
39932.938 5427689 302.48999
39933.063 5427687.5 302.48999
39933.156 5427686 302.39999
39933.25 5427684.5 302.34
39933.344 5427683 302.29999
39933.438 5427681.5 302.14001
39934 5427682 302.20001
39933.906 5427683.5 302.23999
39933.719 5427687.5 302.45001
39933.594 5427689 302.56
39933.5 5427690.5 302.47
39933.281 5427695 302.5
39933.094 5427698 302.51001
39931.313 5427729 305.47
39931.25 5427730.5 305.60001
39931.125 5427732 306.26001
39931.063 5427733.5 306.35999
39930.969 5427735 306.45001
39930.875 5427736.5 306.56
39930.781 5427738 306.62
39930.688 5427739.5 306.79999
39930.625 5427741 306.82001
39930.531 5427742.5 307.34
39930.469 5427743.5 307.12
39930.281 5427746 307.37
39930.219 5427747.5 307.37
39929.969 5427752 307.37
39929.781 5427755 307.01999
39927.875 5427784.5 315.89001
39927.781 5427786 315.92001
39927.094 5427798.5 315.84
39927.188 5427799 313.35999
39927.125 5427799 315.13
39927.063 5427799 317.5
39927.031 5427799.5 316.48001
39926.906 5427799 322.39999
39926.906 5427800 322.51001
39926.938 5427800 322.42001
39927.063 5427798.5 322.20001
39927.281 5427798.5 315.75
39928.125 5427786 315.89999
39928.219 5427784.5 315.73999
39930.563 5427753 307.42001
39930.844 5427748.5 307.32001
39931.156 5427744.5 307.10001
39931.25 5427743 307.07999
39931.344 5427741.5 306.84
39931.469 5427740 306.76001
39931.5 5427739 306.70999
39931.625 5427737.5 306.57001
39931.75 5427736 306.39001
39931.844 5427734.5 306.35001
39931.938 5427733 306.20001
39932.031 5427731.5 306.14001
39932.125 5427730 306.07001
39932.25 5427728.5 305.56
39932.344 5427727 305.56
39932.438 5427725.5 305.5
39934.656 5427693.5 302.47
39934.875 5427690.5 302.44
39935.469 5427681.5 302.14999
39935.5 5427690.5 302.45001
39935.313 5427693.5 302.39999
39933.531 5427724.5 305.5
39933.438 5427726 305.57999
39933.313 5427727.5 305.70001
39933.25 5427729 305.89001
39933.156 5427730.5 306.01001
39933.125 5427731.5 306.07999
39933.031 5427733 306.25
39932.938 5427734.5 306.35999
39932.875 5427736 306.42001
39932.781 5427737.5 306.57001
39932.656 5427739 306.67001
39932.594 5427740.5 306.85001
39932.344 5427744.5 307.04001
39932 5427750 307.41
39931.938 5427751.5 307.26001
39930 5427781.5 315.5
39929.906 5427783 315.89001
39929.813 5427784.5 316.35001
39929.781 5427785.5 315.95999
39929.719 5427787 315.88
39929.625 5427788.5 315.57001
39929.094 5427799 315.76001
39929.125 5427799 315.66
39929.063 5427799.5 315.81
39929.063 5427799.5 315.95001
39929.063 5427799.5 316.10999
39929.031 5427799.5 317.69
39928.906 5427799.5 322.26999
39928.906 5427799.5 322.10999
39928.906 5427799.5 322.26001
39928.938 5427799.5 322.31
39928.938 5427799.5 322.32999
39928.938 5427799.5 322.32999
39928.969 5427799.5 322.13
39929.031 5427799 322.23999
39929.125 5427799.5 317.70999
39929.938 5427788 316.62
39930.031 5427787 315.75
39930.125 5427785.5 315.81
39930.188 5427784.5 315.76999
39930.281 5427783 316.09
39930.406 5427781.5 315.42999
39930.469 5427780.5 315
39932.875 5427748 307.29999
39933.063 5427745 307.07001
39933.656 5427737 306.60999
39933.75 5427735.5 306.29999
39933.844 5427734 306.25
39933.938 5427732.5 306.07001
39934.063 5427731 305.92999
39934.156 5427729.5 305.85999
39934.25 5427728 305.67999
39934.344 5427726.5 305.57999
39934.438 5427725 305.48999
39934.594 5427723.5 305.39001
39936.844 5427690 302.56
39935.938 5427718 304.07999
39935.625 5427722.5 305.32999
39935.531 5427724 305.41
39935.469 5427725.5 305.54999
39935.375 5427727 305.54001
39935.313 5427728.5 305.69
39935.188 5427730 305.92001
39935.125 5427731.5 306.06
39935.031 5427733 306.07001
39934.969 5427734 306.28
39934.906 5427735.5 306.29999
39934.281 5427745.5 307.10999
39934.188 5427747 307.42999
39932.375 5427777.5 312.13
39932.313 5427779 312.04999
39932.219 5427780.5 312.12
39932.063 5427781.5 315.31
39931.969 5427783 315.47
39931.844 5427784.5 315.95999
39931.781 5427786 315.85999
39931.719 5427787.5 315.79999
39931.625 5427789 315.82999
39931.563 5427790.5 315.45001
39931.938 5427789.5 315.53
39931.969 5427788.5 315.76001
39932.063 5427787 315.79001
39932.188 5427785.5 315.92999
39932.219 5427784.5 315.81
39932.344 5427783 315.47
39932.469 5427781.5 315.29001
39932.625 5427780.5 312.13
39932.688 5427779.5 311.70999
39932.781 5427778 312.29001
39932.875 5427776.5 312.17001
39935.156 5427744.5 307.01999
39935.281 5427743 306.82999
39935.375 5427741.5 306.89001
39935.688 5427737 306.38
39935.813 5427735.5 306.19
39935.906 5427734 306.16
39936 5427732.5 305.92001
39936.094 5427731 305.85999
39936.156 5427730 305.73999
39936.25 5427728 305.64001
39936.375 5427726.5 305.47
39936.469 5427725 305.37
39936.594 5427723.5 305.29999
39936.688 5427722 305.20001
39937.75 5427721.5 305.14999
39937.656 5427723 305.16
39937.625 5427724 305.23001
39937.5 5427725.5 305.41
39937.438 5427727 305.54001
39937.344 5427728.5 305.63
39937.25 5427730 305.78
39937.188 5427731.5 305.82001
39937.063 5427733 305.92001
39936.969 5427734.5 306.16
39936.813 5427737.5 306.95001
39936.75 5427739 306.54001
39936.688 5427740 306.70999
39936.594 5427741.5 307.07001
39936.5 5427743 307.04001
39934.563 5427774.5 312.17999
39934.531 5427775.5 312
39934.406 5427777 311.98999
39934.25 5427780 312.01999
39934.188 5427781.5 312.48999
39934.031 5427782.5 315.22
39933.938 5427784 315.47
39933.844 5427785.5 316.16
39933.75 5427787 315.92999
39933.656 5427788.5 315.84
39933.594 5427790 315.75
39933.531 5427791.5 315.45999
39937.125 5427745 307.42999
39937.219 5427744 307.19
39937.313 5427742.5 306.92999
39937.406 5427741 306.82001
39937.844 5427735 306.29001
39937.938 5427733.5 306.01001
39938.063 5427732 305.91
39938.156 5427730.5 305.82001
39938.219 5427729.5 305.64999
39938.313 5427728 305.45001
39938.438 5427726.5 305.5
39938.531 5427725 305.26001
39938.625 5427723.5 305.07999
39938.719 5427722 305.01999
39938.813 5427720.5 305.06
39938.938 5427719 304.95999
39939.25 5427714.5 304
39939.344 5427713 303.78
39940.438 5427710.5 303.60001
39925.719 5427880.5 348.34
39925.813 5427879.5 348.16
39925.906 5427878 348.07999
39926.031 5427876.5 347.87
39926.125 5427876 347.60999
39926.219 5427874.5 347.63
39926.375 5427873 347.60001
39926.5 5427871.5 347.53
39926.563 5427870.5 347.54001
39926.688 5427869 347.35001
39926.813 5427867.5 347.32999
39926.875 5427866.5 347.23999
39927 5427865 347.17999
39927.125 5427863.5 347.23999
39927.656 5427856.5 344.84
39927.844 5427854 342.98001
39927.938 5427852.5 342.14001
39928.063 5427851 341.39999
39928.156 5427849.5 340.82999
39928.25 5427848 339.89001
39928.906 5427839.5 336.28
39929 5427838.5 336.54001
39929.125 5427837 336.28
39929.219 5427835.5 335.76001
39929.313 5427834 332.92001
39929.438 5427832.5 332.88
39929.781 5427828 332.23999
39929.875 5427827 332.14001
39929.969 5427825.5 330.66
39930.063 5427824 329.98001
39930.188 5427822.5 328.67001
39930.313 5427821 328.51001
39930.438 5427819.5 328.35999
39930.531 5427818 328.16
39930.656 5427816.5 328.14999
39930.781 5427815 328.10001
39930.938 5427813.5 328.41
39931.031 5427812 328.16
39931.156 5427810.5 327.35001
39931.25 5427809 326.60999
39931.375 5427807.5 326.57999
39931.563 5427804.5 322.39001
39931.688 5427803 322.42001
39931.563 5427800 316.56
39931.313 5427803.5 322.32001
39931.25 5427804.5 322.35001
39931.094 5427806.5 326.67999
39931 5427807.5 326.53
39930.875 5427809 326.64001
39930.625 5427812 328.10999
39930.531 5427813 328.42001
39930.406 5427814.5 328.07001
39930.281 5427816 328.14001
39930.156 5427817 328.12
39930.031 5427818.5 328.14999
39929.875 5427820 328.57001
39929.75 5427821.5 328.48999
39929.625 5427823 329.98999
39929.5 5427824.5 330.42001
39929.406 5427826 332.51001
39929.313 5427827 332.07999
39929.188 5427828.5 332.32001
39928.75 5427833 332.89001
39928.531 5427836 336.22
39928.406 5427837.5 336.37
39928.313 5427838.5 336.44
39927.906 5427843 337.54999
39927.781 5427844.5 338.23999
39927.563 5427847 339.82001
39927.438 5427848.5 340.48999
39927.313 5427850 341.17999
39927.188 5427851.5 341.84
39927.031 5427853 342.73999
39926.969 5427854 343.51001
39926.25 5427862.5 347.12
39926.125 5427863.5 347.17001
39926 5427865 347.10999
39925.875 5427866.5 347.29001
39925.75 5427868 347.32001
39925.594 5427869.5 347.34
39925.531 5427870.5 347.45999
39925.375 5427872 347.47
39925.313 5427873 347.48001
39925.125 5427874.5 347.56
39925 5427876 347.73001
39924.656 5427879.5 348.22
39924.531 5427881 348.48999
39924.344 5427883.5 351.89001
39924.188 5427885 351.63
39922.25 5427906.5 352.67001
39922.156 5427907.5 352.92001
39922 5427909 353.01001
39921.875 5427910.5 352.66
39921.813 5427911.5 355.13
39921.719 5427913 357.48001
39921.625 5427914 357.63
39921.125 5427919.5 357.01001
39920.938 5427922 361.12
39920.844 5427923 363.01999
39920.719 5427924.5 362.23999
39920.531 5427927 364.89001
39920.281 5427929.5 364.32001
39920.188 5427930.5 365.31
39920.063 5427932 365.67001
39919.938 5427933.5 365.87
39919.563 5427937.5 366.92001
39919.5 5427938 367.06
39919.281 5427940 368.26999
39919.281 5427940 368.10001
39919.156 5427941 368
39919.156 5427941 367.64001
39919.125 5427941 367.60001
39919.125 5427941 367.64001
39919.125 5427941 367.64999
39919.094 5427941 367.66
39919.094 5427941 367.73001
39919.219 5427939 367.79999
39919.313 5427938 367.13
39919.375 5427937 367.17001
39919.594 5427934 366.06
39919.719 5427932.5 365.69
39919.781 5427931.5 365.69
39919.875 5427930.5 365.29001
39919.969 5427929 364.48001
39920.25 5427925.5 363.39999
39920.313 5427924.5 362.88
39920.563 5427921 361.06
39921.219 5427912 356.5
39921.25 5427911 352.81
39921.344 5427910 353.22
39921.469 5427908.5 352.98001
39921.563 5427907 352.91
39923.281 5427885.5 351.04999
39923.344 5427884.5 350.70999
39923.438 5427883 348.63
39923.656 5427880.5 348.81
39923.781 5427879 348.98999
39924.094 5427875.5 347.60001
39924.219 5427874 347.54001
39924.313 5427872.5 347.44
39924.406 5427871.5 347.35999
39924.531 5427870 347.39001
39924.625 5427868.5 347.31
39924.719 5427867.5 347.20001
39924.844 5427866 347.19
39924.938 5427864.5 347.04999
39925.094 5427863 347
39925.156 5427862 347.01999
39925.688 5427855 344.01001
39925.906 5427852 342.64999
39925.969 5427851 342.10999
39926.438 5427845 339.57999
39926.531 5427843.5 338.54001
39926.844 5427839.5 336.14999
39927.406 5427832 332.85001
39927.594 5427829.5 332.75
39927.719 5427828 332.42001
39927.813 5427826.5 332.14001
39927.969 5427825 332.70001
39928.063 5427823.5 330.5
39928.188 5427822 330.75
39928.281 5427820.5 328.48999
39928.5 5427817 328.29999
39928.625 5427816 328.12
39928.75 5427814 328.12
39928.844 5427813 328.39001
39928.969 5427812 328.39001
39929.063 5427810 327.92999
39929.156 5427808.5 326.81
39929.281 5427807 326.57001
39929.531 5427803.5 322.38
39929.656 5427802 322.35999
39929.906 5427799 322.41
39929.531 5427799 315.79001
39929.438 5427801 322.48999
39929.281 5427802.5 322.41
39929.188 5427803.5 322.38
39929.094 5427805.5 326.67999
39928.938 5427807 326.60999
39928.875 5427808 326.79999
39928.594 5427811 328.48001
39928.469 5427812.5 328.42001
39928.344 5427813.5 328.14001
39928.219 5427815 328.20999
39928.094 5427816.5 328.20999
39927.969 5427818 328.19
39927.875 5427819 328.5
39927.75 5427820.5 330.04999
39927.594 5427822 331.10999
39927.5 5427823.5 332.10001
39927.344 5427825 332.32999
39927.094 5427828 332.70001
39926.969 5427829.5 332.79001
39926.75 5427832 332.94
39926.5 5427835 336.17001
39926.219 5427838 336.25
39926.125 5427839 336.35999
39925.906 5427842 338.28
39925.781 5427843.5 339.01001
39925.406 5427847.5 341.39999
39925.156 5427850.5 342.82999
39924.906 5427853.5 343.89999
39924.375 5427860 346.95999
39924.188 5427861.5 346.84
39924.063 5427863 346.94
39923.969 5427864 347.01001
39923.844 5427865.5 347.10001
39923.719 5427867 347.23001
39923.594 5427868.5 347.20999
39923.469 5427869.5 347.22
39923.344 5427871 347.32001
39923.219 5427872.5 347.37
39923.063 5427874 347.45001
39923 5427875 347.57001
39922.844 5427876 347.60001
39922.688 5427877.5 347.66
39922.656 5427878.5 349.01999
39922.5 5427880 350.09
39922.375 5427881.5 349.76001
39922.281 5427882.5 349.97
39922.125 5427884 350.29999
39922.031 5427885.5 351.01001
39921.875 5427887 351
39919.969 5427908 352.85999
39919.844 5427909.5 353.07001
39919.719 5427911 353.04001
39919.656 5427912 357.04001
39919.531 5427913.5 357.63
39919.469 5427914.5 359.32999
39918.594 5427924.5 364.51001
39917.719 5427934.5 367.41
39917.469 5427937 367.48999
39917.313 5427938.5 367.89001
39917.813 5427929.5 365.70999
39918.844 5427916 360.66
39919 5427914 358.04001
39919.094 5427912.5 357.72
39919.125 5427911.5 355.25
39919.188 5427910.5 352.82999
39919.313 5427909 352.85999
39921 5427887.5 351.53
39921.125 5427886 351.06
39921.188 5427885 351.94
39921.344 5427883.5 351.45999
39921.469 5427882 351.32001
39921.531 5427881 351.14001
39921.625 5427879.5 348.98001
39921.719 5427878 347.63
39921.844 5427876.5 347.62
39921.938 5427875.5 347.51999
39922.031 5427874.5 347.45999
39922.156 5427873 347.42001
39922.25 5427872 347.35001
39922.344 5427870.5 347.20001
39922.469 5427869 347.16
39922.625 5427867.5 347.17001
39922.656 5427866.5 347.07001
39922.813 5427865 347.07001
39922.938 5427863.5 346.97
39923 5427862.5 346.87
39923.125 5427861 346.82001
39923.25 5427859.5 346.85999
39923.75 5427852.5 343.79999
39923.969 5427850 343.79001
39924.094 5427848.5 342.23001
39924.5 5427842.5 339.10999
39924.906 5427837 336.01999
39925.031 5427835.5 335.85001
39925.156 5427834 336.07999
39925.25 5427833 336.26999
39925.438 5427830 333.29999
39925.563 5427828.5 332.82001
39925.688 5427827 332.38
39925.813 5427825.5 332.26999
39925.906 5427824 332.14001
39926.031 5427822.5 331.76001
39926.125 5427821 331.39999
39926.25 5427819.5 330.60001
39926.375 5427818 328.88
39926.469 5427816.5 328.29999
39926.594 5427815 328.35001
39926.781 5427812.5 328.89001
39927.031 5427809.5 327.82001
39927.281 5427806.5 326.63
39927.469 5427803 322.41
39927.625 5427801.5 322.39001
39927.781 5427798 315.78
39927.375 5427800.5 322.34
39927.25 5427802 322.39999
39927.094 5427803.5 322.37
39927.031 5427805 326.69
39926.906 5427806.5 326.79999
39926.781 5427808 327.09
39926.688 5427809 327.64001
39926.406 5427812 328.78
39926.281 5427813.5 329.45001
39926.031 5427816 328.45001
39925.906 5427817.5 328.78
39925.781 5427819 329.82999
39925.688 5427820.5 330.94
39925.531 5427822 331.82001
39925.406 5427823.5 332.34
39925.344 5427824.5 332.29001
39925.156 5427826 332.32999
39925.031 5427827.5 332.60001
39924.531 5427833.5 335.92001
39924.469 5427834.5 335.91
39924.313 5427836 336.07999
39924.156 5427837.5 336.10001
39923.281 5427848.5 342.85999
39923.094 5427850.5 343.45999
39923 5427851.5 343.79001
39922.281 5427860 346.64001
39922.156 5427861 346.69
39922.031 5427862.5 346.89999
39921.875 5427864 346.94
39921.813 5427865 346.98999
39921.656 5427866.5 347.03
39921.375 5427869.5 347.09
39921.281 5427870.5 347.23001
39921.156 5427872 347.26001
39921.031 5427873.5 347.37
39920.906 5427875 347.39001
39920.813 5427875.5 347.42001
39920.656 5427877 347.54999
39920.531 5427878.5 347.57001
39920.375 5427880 347.57001
39920.344 5427881 351.41
39920.188 5427882.5 352.20001
39920.125 5427883.5 352.26001
39919.969 5427885 352.23001
39919.844 5427886.5 352.42999
39919.719 5427888 352.17999
39917.781 5427909 352.95001
39917.656 5427910.5 352.84
39917.594 5427911.5 357.39001
39917.5 5427913 358.64999
39917.438 5427914 360.04001
39917.219 5427916.5 362
39916.281 5427927 365.64999
39916.188 5427928 365.92999
39915.688 5427934 368.98001
39915.594 5427935 369.16
39915.5 5427936 368.76001
39915.313 5427938 369.66
39915.25 5427938.5 369.79001
39915.094 5427939.5 369.79999
39915.094 5427939.5 369.64999
39915.063 5427939.5 369.73999
39915.063 5427939.5 369.85999
39915.063 5427939.5 370.32999
39915.031 5427939.5 370.5
39915.031 5427939.5 370.03
39915.156 5427937.5 369.31
39915.344 5427935.5 369.04001
39915.813 5427929 366.04999
39915.844 5427928 365.84
39916 5427926.5 365.70001
39916.688 5427917 362.42999
39916.781 5427916 361.35999
39916.938 5427913.5 358.92001
39917.031 5427912 357.79999
39917.094 5427911 355.14999
39917.156 5427910 352.75
39918.875 5427888.5 352.42999
39919 5427887 353.35001
39919.063 5427886 352.54999
39919.313 5427883 352.32999
39919.344 5427882 350.37
39919.438 5427880.5 347.60001
39919.563 5427879 347.51001
39919.625 5427878 347.39999
39919.75 5427876.5 347.39999
39919.875 5427875.5 347.32001
39919.969 5427874 347.23001
39920.063 5427873 347.26001
39920.313 5427870 347.28
39920.438 5427868.5 347.10001
39920.75 5427864.5 346.91
39920.844 5427863.5 346.87
39920.969 5427862 346.84
39921.063 5427860.5 346.70001
39921.188 5427859 346.57999
39922.031 5427848 342.82001
39922.094 5427847 342.20999
39922.406 5427842.5 339.70999
39922.531 5427841 338.95999
39922.781 5427838 337.75
39922.938 5427835.5 336.01999
39923.063 5427834 335.98999
39923.188 5427832.5 336.10001
39923.625 5427826.5 332.53
39923.75 5427825 332.54999
39923.844 5427823.5 332.07999
39924.281 5427818 330.39001
39924.531 5427815 329.67999
39924.625 5427813.5 329.01001
39924.719 5427812 328.60999
39925.125 5427807.5 327.35999
39925.219 5427806 326.76999
39925.344 5427804.5 326.56
39925.469 5427802.5 322.42001
39925.594 5427801 322.39999
39925.656 5427800 322.32999
39925.781 5427798.5 322.39999
39925.906 5427797 322.39001
39925.563 5427797 315.64001
39925.313 5427800.5 322.39001
39925.25 5427801.5 322.39999
39925.094 5427803.5 326.91
39924.969 5427805 326.51999
39924.844 5427806.5 327.95001
39924.75 5427807.5 327.94
39924.625 5427809 327.92999
39924.406 5427811.5 328.62
39924.281 5427813 328.91
39924.125 5427814.5 329.73999
39923.875 5427817.5 330.78
39923.531 5427821.5 332.57999
39923.406 5427823 332.01999
39923.281 5427824.5 332.07999
39923.125 5427826 332.26001
39923.063 5427827 333.03
39922.406 5427834.5 336
39922.188 5427837 337.64001
39922.031 5427838.5 338.12
39921.656 5427843 340.54001
39921.219 5427848.5 343.28
39920.469 5427857 346.39999
39920.375 5427858 346.44
39920.219 5427859.5 346.54999
39920.094 5427861 346.66
39919.969 5427862.5 346.75
39919.875 5427863.5 346.70999
39919.531 5427867.5 346.95001
39919.375 5427869 347.14999
39918.875 5427874.5 347.26999
39918.75 5427875.5 347.26999
39918.656 5427876.5 347.37
39918.5 5427878 347.41
39918.375 5427879.5 347.38
39918.25 5427881 347.57001
39918.156 5427882 347.57999
39918 5427884.5 353.20001
39917.844 5427886 352.41
39917.688 5427887.5 352.39999
39917.563 5427889 352.44
39915.875 5427907.5 352.92999
39915.719 5427909 352.81
39915.688 5427910 354.56
39915.563 5427911.5 357.69
39915.5 5427912.5 359.06
39915.406 5427914 360.73001
39915.313 5427915 361.26999
39914.438 5427925 366.94
39914.313 5427926.5 367.37
39914.094 5427929 367.85001
39913.938 5427930.5 368.07999
39913.875 5427931.5 367.97
39913.781 5427932.5 369.09
39913.344 5427937 370.06
39913.344 5427937 370.13
39913.313 5427937.5 370.14001
39913.156 5427938.5 370.17001
39913.125 5427939 370.20999
39913.125 5427939 370.37
39913.094 5427939 370.20001
39913.094 5427939 370.37
39913.094 5427939 370.51001
39913.031 5427939 370.48001
39913.031 5427938.5 370.25
39913.156 5427937 370.06
39913.219 5427936 369.98999
39913.469 5427933 369.29001
39913.625 5427930.5 368.42999
39913.719 5427929.5 368.04999
39913.781 5427928.5 367.82999
39913.875 5427927.5 367.64999
39914 5427926 367.32001
39914.875 5427914 361.14999
39914.906 5427913 359.44
39915.125 5427909.5 353.60999
39915.219 5427908 352.81
39915.313 5427907 352.88
39916.75 5427889.5 354.85001
39916.813 5427888 352.39999
39916.906 5427887 352.44
39917.031 5427885.5 353.64001
39917.156 5427884 353.29999
39917.156 5427883 347.87
39917.281 5427881.5 347.53
39917.406 5427880 347.48999
39917.469 5427879 347.45999
39917.594 5427877.5 347.32001
39917.719 5427876 347.32001
39917.844 5427875 347.28
39917.906 5427874 347.23999
39918.375 5427868.5 347.13
39918.469 5427867 346.89001
39918.594 5427865.5 346.70999
39918.781 5427863 346.63
39918.906 5427861 346.70001
39919 5427860 346.59
39919.094 5427858.5 346.48999
39919.219 5427857 346.42999
39919.344 5427855.5 346.35999
39919.406 5427854.5 346.32001
39919.563 5427853 346.39001
39919.969 5427847.5 343.39999
39920.063 5427846 342.98999
39920.531 5427840 339.89001
39920.594 5427839 339.32999
39920.813 5427836 337.51999
39920.906 5427834.5 336.01001
39921 5427833 335.92001
39921.156 5427831.5 335.95001
39921.281 5427830 335.94
39921.563 5427826 332.85001
39921.656 5427824.5 332.85999
39921.781 5427823 331.97
39921.875 5427821.5 331.89999
39922.25 5427817 331.07001
39922.344 5427816 330.98001
39922.594 5427812.5 329.20999
39922.719 5427811 328.92999
39922.781 5427810 328.54001
39922.906 5427808.5 328.72
39923.031 5427807 328.78
39923.125 5427805.5 328.28
39923.25 5427804 326.89999
39923.344 5427802.5 326.56
39923.469 5427800.5 322.64999
39923.594 5427799 322.42001
39923.844 5427796 322.38
39923.594 5427795.5 322.42001
39923.344 5427798.5 322.35001
39923.25 5427799.5 322.32999
39923.094 5427801.5 326.73999
39923 5427802.5 326.64999
39922.875 5427804 327.39001
39922.781 5427805.5 328.29999
39922.656 5427807 328.75
39922.531 5427808 328.85001
39922.406 5427809.5 328.54001
39922.281 5427811 328.92001
39922.156 5427812.5 329.23001
39921.781 5427816.5 331.07001
39921.656 5427818 331.35001
39921.313 5427822 332.14001
39921.063 5427825 332.85001
39920.656 5427829.5 335.92001
39920.438 5427832 335.89999
39920.313 5427833.5 335.97
39920.188 5427835 337.32999
39920.063 5427836.5 337.92999
39919.781 5427839.5 339.53
39919.719 5427840.5 340.32999
39919.469 5427843.5 341.79001
39919.219 5427846.5 343.39999
39919.094 5427848 344.73999
39918.719 5427852 346.19
39918.594 5427853.5 346.29001
39918.5 5427854.5 346.20999
39918.375 5427856 346.26999
39918.25 5427857.5 346.39999
39918.156 5427858.5 346.44
39918 5427860 346.48999
39917.656 5427864 346.57001
39917.531 5427865.5 346.79999
39917.281 5427868 347.09
39917.156 5427869.5 347.17999
39916.781 5427873.5 347.23999
39916.656 5427875 347.28
39916.5 5427876 347.28
39916.375 5427877.5 347.44
39916.281 5427878.5 347.47
39916.156 5427880 347.54001
39916.031 5427881.5 347.98001
39915.969 5427882.5 352.22
39915.844 5427884 352.54999
39915.813 5427885 356.04001
39915.688 5427886.5 356.73001
39915.531 5427888 356.48001
39915.344 5427889.5 352.48001
39914.031 5427904 352.98001
39913.875 5427905.5 352.85999
39913.75 5427907 352.81
39913.688 5427908 355.17001
39913.625 5427909 358.73001
39913.5 5427910.5 359.01999
39913.406 5427911.5 360.22
39913.219 5427914 362.23999
39913.094 5427915.5 363.64001
39912.813 5427919 366.13
39912.688 5427920.5 367.17001
39912.219 5427925.5 368.03
39911.781 5427930.5 369.62
39911.656 5427932 369.29001
39911.563 5427933 369.48001
39911.125 5427935.5 370.94
39911.469 5427931 369.34
39912.781 5427913.5 362.44
39912.875 5427912 360.89001
39912.906 5427911 360.63
39913.031 5427909.5 358.87
39913.063 5427908.5 357.28
39913.125 5427907.5 355.07999
39913.219 5427906 352.87
39913.313 5427905 352.89999
39913.406 5427903.5 352.94
39914.375 5427891.5 352.62
39914.5 5427890 352.56
39914.656 5427888.5 356.91
39914.75 5427887.5 356.64001
39914.875 5427886 356.95001
39914.969 5427884.5 357.17001
39915.125 5427883 355.82999
39915.125 5427882 352.26001
39915.219 5427880.5 347.85999
39915.281 5427879.5 347.53
39915.406 5427878 347.5
39915.531 5427876.5 347.38
39915.594 5427875.5 347.32001
39915.719 5427874.5 347.28
39916.031 5427870.5 347.26999
39916.156 5427869 347.16
39916.25 5427867.5 347.17999
39916.469 5427865 346.70001
39916.563 5427863.5 346.60001
39916.938 5427859.5 346.42001
39917.031 5427858 346.35001
39917.156 5427856.5 346.25
39917.219 5427855.5 346.20001
39917.344 5427854 346.07001
39917.469 5427852.5 346
39917.531 5427851.5 346.13
39917.875 5427847 344.88
39918 5427845.5 343.42999
39918.031 5427844.5 343.01001
39918.281 5427841.5 341.38
39918.375 5427840 340.48001
39918.719 5427835.5 338.13
39918.781 5427834.5 337.59
39918.875 5427833 335.39001
39919.031 5427831.5 335.17001
39919.125 5427830 334.53
39919.219 5427828.5 333.85999
39919.594 5427824 332.73999
39919.688 5427822.5 332.07999
39920 5427818.5 331.97
39920.125 5427817 331.39001
39920.25 5427815.5 331.04999
39920.469 5427812.5 329.66
39920.594 5427811 329.19
39920.688 5427809.5 329.04001
39920.813 5427808 328.95001
39921.063 5427805 328.09
39921.156 5427803.5 327.10999
39921.281 5427802 326.73001
39921.375 5427800.5 326.72
39921.5 5427798.5 322.39999
39921.563 5427797.5 322.39001
39921.719 5427796 322.48999
39921.781 5427795 322.44
39921.375 5427796.5 322.44
39921.25 5427798 322.37
39921.125 5427799.5 322.35999
39921.031 5427801 326.53
39920.875 5427802.5 326.88
39920.75 5427804 327.17999
39920.688 5427805 327.76001
39920.406 5427808 328.95001
39920.281 5427809.5 329.48999
39920.188 5427810.5 329.70999
39920.063 5427812 329.59
39919.813 5427815 331.06
39919.656 5427816.5 331.42001
39919.438 5427819 331.76999
39919.188 5427822 332.10001
39919.031 5427823.5 332.07999
39918.688 5427827.5 333.60999
39918.563 5427829 334.20001
39918.438 5427830.5 334.89001
39918.281 5427832 335.17999
39918.188 5427833.5 337.28
39918.063 5427835 337.98001
39917.938 5427836.5 338.62
39917.563 5427840.5 341.09
39917.469 5427842 341.95999
39917.344 5427843.5 342.67001
39917.25 5427844.5 343.12
39917.125 5427846 344.59
39916.75 5427850.5 346.01001
39916.656 5427851.5 346.01001
39916.531 5427853 346.07999
39916.375 5427854.5 346.14001
39916.219 5427856 346.17999
39916.125 5427857 346.29999
39916 5427858.5 346.23999
39915.875 5427860 346.35001
39915.656 5427862.5 346.53
39915.281 5427867 347.76999
39915.188 5427868 347.47
39915.031 5427869.5 347.28
39914.406 5427875.5 347.44
39914.281 5427877 347.45999
39914.156 5427878.5 347.56
39914.031 5427880 347.81
39914 5427881 352.16
39913.875 5427882.5 355.04999
39913.813 5427883.5 357.51001
39913.688 5427885 357.81
39913.563 5427886.5 357.38
39913.469 5427887.5 359.41
39913.313 5427889 357.20999
39913.125 5427890.5 352.64999
39912.969 5427892 352.66
39912.906 5427893 352.70001
39912.031 5427902.5 352.92001
39911.813 5427905 354.32999
39911.75 5427906 357.82001
39911.625 5427907.5 359.04999
39911.5 5427909 359.39001
39911.219 5427912.5 362.78
39911.094 5427914 363.42001
39910.813 5427917.5 365.88
39910.594 5427920 366.47
39910.375 5427922.5 368.20999
39910.031 5427926.5 368.98999
39909.875 5427928 369.31
39909.5 5427932.5 370.60001
39909.406 5427933.5 370.20999
39909.219 5427935.5 372.76999
39909.156 5427936 371.45001
39909.125 5427936.5 373.60001
39909.031 5427937 373.5
39909 5427937.5 373.09
39908.969 5427936 371.95999
39909.094 5427934 370.48001
39909.188 5427933 370.73999
39909.469 5427929.5 369.79999
39909.531 5427928.5 369.51999
39909.594 5427927.5 369.20001
39909.781 5427925 368.94
39910.063 5427921.5 367.85999
39910.313 5427918 365.85001
39910.438 5427916.5 365.89001
39910.688 5427913 363.44
39910.906 5427909.5 359.45999
39911.031 5427908 359.54999
39911.094 5427907 359.10001
39911.219 5427905.5 358.19
39911.438 5427902 352.97
39912.063 5427894 352.79999
39912.219 5427892.5 356.82999
39912.375 5427891 358.84
39912.469 5427889.5 358.97
39912.656 5427887 357.92999
39912.813 5427885.5 357.81
39912.875 5427884.5 358.03
39912.969 5427883 355.41
39913 5427882 352.42001
39913.125 5427880.5 352.25
39913.188 5427879 347.88
39913.281 5427878 347.53
39913.406 5427876.5 347.45999
39914.063 5427868.5 347.22
39914.156 5427867.5 347.57999
39914.594 5427862 346.38
39914.688 5427860.5 346.28
39914.813 5427859 346.22
39914.906 5427858 346.16
39915 5427856.5 346.19
39915.125 5427855 346.10999
39915.219 5427854 345.95999
39915.313 5427852.5 345.97
39915.438 5427851 345.89999
39915.531 5427849.5 345.85001
39915.625 5427848.5 345.98999
39915.969 5427844 343.10999
39916.094 5427842.5 342.88
39916.156 5427841.5 342.10999
39916.281 5427840 341.29001
39916.375 5427838.5 340.45999
39916.469 5427837 339.67999
39916.594 5427835.5 339.13
39916.906 5427831 335.22
39917 5427830 336.29999
39917.125 5427828.5 336.60001
39917.25 5427827 336.39999
39917.344 5427825.5 336.07001
39917.469 5427824 332.91
39917.563 5427822.5 332.07001
39917.688 5427821 332.03
39918 5427816.5 331.26999
39918.156 5427815 331.03
39918.344 5427812.5 329.98001
39918.469 5427811 330.04999
39918.563 5427809.5 329.41
39918.938 5427805 327.76001
39919.031 5427803.5 327.28
39919.156 5427802 326.79001
39919.25 5427800.5 326.45999
39919.375 5427798.5 322.54001
39919.688 5427794.5 322.5
39919.125 5427798 323.13
39919.031 5427799.5 326.67999
39918.906 5427801 326.67999
39918.75 5427802.5 326.98999
39918.688 5427803.5 327.31
39918.563 5427805 327.82001
39918.188 5427809 329.35001
39918.063 5427810.5 329.91
39917.594 5427816 331.17001
39917.063 5427821.5 332.10999
39916.938 5427823 332.85999
39916.719 5427826 336.26001
39916.594 5427827.5 336.59
39916.313 5427830.5 335.54999
39915.969 5427834.5 338.97
39915.844 5427836 339.54001
39915.75 5427837.5 340.51999
39915.625 5427839 341.26999
39915.469 5427840.5 341.92999
39915.406 5427841.5 342.76999
39915.281 5427843 342.89999
39914.906 5427847.5 345.92999
39914.75 5427849 345.76999
39914.656 5427850 345.81
39914.531 5427851.5 345.79001
39914.406 5427853 345.95999
39914.313 5427854 345.98001
39914.156 5427855.5 346.04001
39914 5427857 346.12
39913.875 5427858.5 346.09
39913.813 5427859.5 346.23001
39913.656 5427861 346.32999
39913.188 5427866.5 348.12
39913.063 5427868 347.85999
39912.094 5427878 347.84
39912 5427879.5 352.20001
39911.875 5427881 352.35999
39911.781 5427882 353.14999
39911.688 5427883.5 356.23999
39911.563 5427885 357.66
39911.469 5427886 357.82999
39911.375 5427887.5 359.85001
39911.281 5427888.5 360.94
39911.156 5427890 360.73001
39911 5427891.5 359.81
39910.844 5427893 356.79001
39910.625 5427894.5 352.85999
39910.563 5427895.5 352.92001
39910.031 5427901 352.92001
39909.906 5427902.5 353.51999
39909.844 5427903.5 356.41
39909.656 5427906 359.51999
39909.25 5427911 363.25
39908.844 5427916 365.70001
39908.688 5427917.5 365.88
39908.469 5427920 367.32001
39908.406 5427921 368.63
39908.25 5427922.5 369.12
39908.188 5427923.5 369.64001
39908 5427926 370.87
39907.844 5427927.5 371.32001
39907.781 5427928.5 372.10001
39907.563 5427931 373.22
39907.156 5427935 371.47
39907.063 5427936 373.07999
39907.063 5427936 373.29999
39907 5427936.5 373.39999
39907 5427936.5 373.45001
39906.969 5427936.5 373.51001
39906.969 5427936.5 373.51999
39906.938 5427937 373.45001
39906.875 5427937.5 373.57999
39906.844 5427937.5 373.57001
39906.906 5427936 373.41
39907 5427934.5 372.56
39907.156 5427932.5 372.42999
39907.219 5427931.5 372.81
39907.469 5427928 371.5
39907.563 5427927 371.41
39907.688 5427925.5 371.45999
39907.75 5427924.5 369.89001
39907.813 5427923.5 369.45001
39908.031 5427921 368.73999
39908.125 5427919 366.10999
39908.25 5427917.5 366.07999
39908.313 5427916 365.67999
39908.5 5427914 365.09
39908.625 5427912 364.32999
39908.688 5427911 363.57999
39908.781 5427909.5 363.04001
39908.906 5427908.5 364.35999
39909 5427907 362.31
39909.031 5427906 360.19
39909.219 5427903.5 358.35999
39909.281 5427902.5 356.60001
39909.375 5427901 353.76001
39909.438 5427900 352.95001
39909.844 5427895.5 357.13
39909.875 5427894.5 352.94
39910.031 5427893 357.89999
39910.188 5427891.5 358.89999
39910.344 5427890 360.29999
39910.406 5427889 361.28
39910.531 5427887.5 361.07001
39910.656 5427886 360.98999
39910.688 5427885 357.47
39910.781 5427883.5 356.29999
39910.844 5427882.5 353.47
39910.969 5427881 353.39001
39911.063 5427879.5 352.38
39911.156 5427878.5 351.82999
39912.156 5427865.5 348.01999
39912.594 5427860 346.17001
39912.719 5427858.5 346.09
39912.813 5427857 345.97
39912.906 5427856 346
39913.031 5427854.5 345.92999
39913.125 5427853 345.87
39913.25 5427851.5 345.88
39913.344 5427850.5 345.70999
39913.438 5427849 345.56
39913.594 5427847.5 345.72
39913.719 5427846 345.78
39914.188 5427839 342.09
39914.313 5427837.5 341.29001
39914.375 5427836.5 340.72
39914.844 5427830.5 337.69
39914.969 5427829 336.22
39915.156 5427826.5 336.79001
39915.281 5427825 336.57001
39915.5 5427822 332.89001
39915.594 5427820.5 332.07999
39915.719 5427819 332.17001
39915.938 5427816 331.48999
39916.313 5427811.5 330.17001
39916.656 5427807 328.81
39916.781 5427805.5 328.95999
39916.875 5427804 328.47
39916.969 5427803 328.01001
39917.094 5427801 327.32001
39917.219 5427799.5 326.64001
39917.281 5427798.5 326.79001
39917.406 5427796.5 322.76999
39916.938 5427799 326.48999
39916.813 5427800.5 326.76999
39916.75 5427801.5 327.62
39916.625 5427803 328.10999
39916.5 5427804.5 328.59
39916.25 5427807 328.98001
39916.094 5427808.5 329.29001
39915.5 5427815.5 331.59
39915.375 5427817 331.84
39915.281 5427818 332.04999
39915.156 5427819.5 332.03
39914.531 5427827 336.81
39914.406 5427828.5 336.57999
39914.25 5427830 338.26999
39913.688 5427837 341.32999
39912.844 5427846.5 345.53
39912.719 5427848 345.48001
39912.594 5427849.5 345.70999
39912.469 5427851 345.73999
39912.344 5427852 345.73999
39912.219 5427853.5 345.87
39912.094 5427855 345.85001
39912 5427856 345.87
39911.875 5427857.5 345.94
39911.75 5427859 345.98999
39911.25 5427864.5 348.07001
39909.875 5427880 353.01999
39909.719 5427881.5 353.57999
39909.563 5427883 353.72
39909.406 5427885.5 357.76999
39909.313 5427886.5 359.32999
39909.188 5427888 358.70001
39909.063 5427889.5 359.44
39908.969 5427890.5 360.13
39908.875 5427892 362.82001
39908.75 5427893 362.41
39908.563 5427894.5 357.17001
39908.375 5427896.5 352.97
39908.281 5427897.5 352.98001
39908.125 5427899 353
39908.063 5427900 355.64999
39907.969 5427901.5 357.29001
39907.75 5427904 360.12
39907.656 5427905 360.64999
39907.375 5427908 362.26999
39907.344 5427909 365.34
39907.188 5427910.5 364.42001
39907.031 5427912.5 366.01999
39906.906 5427914 365.98999
39906.781 5427915.5 365.89001
39906.688 5427916.5 366.07999
39906.344 5427920.5 368.82999
39906.25 5427921.5 369.51001
39906.063 5427924 372.25
39905.969 5427925 372.01999
39905.844 5427926.5 372.41
39905.719 5427928 372.35999
39905.625 5427929 373.5
39905.125 5427934.5 373.47
39905 5427935.5 373
39905 5427935.5 373.09
39904.938 5427936 373.14999
39904.844 5427936.5 373.41
39904.844 5427936.5 373.39999
39904.781 5427937 373.47
39904.781 5427937 373.41
39904.781 5427937 373.48001
39904.75 5427937 373.53
39904.75 5427937 373.51999
39904.75 5427937 373.56
39904.719 5427937 373.37
39904.781 5427936 373.39999
39905.469 5427927 372.29001
39905.563 5427926 372.48999
39905.75 5427923.5 372.26001
39905.813 5427922.5 371.54001
39906.063 5427919 368.25
39906.156 5427917 365.91
39906.313 5427915.5 365.84
39906.375 5427914.5 365.73999
39906.5 5427913 365.66
39906.563 5427912 365.73999
39906.656 5427910.5 365.13
39906.844 5427908 363.87
39906.938 5427907 364.66
39907.094 5427904.5 360.23999
39907.219 5427903 360.17001
39907.281 5427902 358.98001
39907.375 5427900.5 357.59
39907.438 5427899.5 355.97
39907.531 5427898 353.54001
39907.594 5427897 353.06
39907.75 5427895.5 357.29999
39907.969 5427894 363.67001
39908.094 5427892.5 363.94
39908.219 5427891 363.54001
39908.25 5427890 360.20001
39908.375 5427888.5 359.57999
39908.438 5427887.5 358.70999
39908.656 5427884.5 357.44
39908.688 5427883.5 354.10999
39908.813 5427882 353.78
39908.906 5427881 353.39999
39910.219 5427864 348.51001
39910.469 5427861 348.89001
39910.75 5427857 345.92001
39910.844 5427855.5 345.73001
39910.969 5427854 345.81
39911.063 5427853 345.72
39911.156 5427851.5 345.70001
39911.313 5427850 345.66
39911.438 5427848.5 345.51001
39911.5 5427847.5 345.39999
39911.625 5427846 345.44
39912.125 5427839 342.63
39912.75 5427830.5 338.39001
39912.875 5427829 337.79999
39913.125 5427826 336.94
39913.219 5427824.5 336.62
39913.438 5427821.5 335.28
39913.625 5427818.5 332.06
39913.781 5427817 332.01001
39913.844 5427816 331.82999
39913.969 5427814.5 331.32999
39914.313 5427810 330.12
39914.406 5427808.5 329.51999
39914.563 5427807 329.23999
39914.875 5427802.5 328.29001
39915 5427801 327.78
39915.094 5427799.5 326.78
39915.25 5427798 326.54999
39915.344 5427796.5 326.60999
