# .PCD v0.7 - Point Cloud Data file format
VERSION 0.7
FIELDS x y z
SIZE 4 4 4
TYPE F F F
COUNT 1 1 1
WIDTH 1566
HEIGHT 1
VIEWPOINT 0 0 0 1 0 0 0
POINTS 1566
DATA ascii
30.08869 58.819878 -24.515297
17.770504 8.379076 -18.683201
29.175869 58.929337 -24.232399
11.735594 65.833122 -35.242302
27.753784 57.442348 -24.498497
37.553024 50.991455 -37.792099
27.202011 57.172558 -24.916
37.392952 52.050938 -37.951698
26.601454 57.77953 -24.596001
18.505489 9.2343655 -19.833401
25.667109 57.935028 -25.001297
38.615849 47.576996 -32.994102
39.680298 46.992023 -33.408501
37.171707 48.171402 -33.925797
8.5484219 58.082561 -37.271103
7.7359047 57.657814 -37.008698
37.209038 48.165497 -34.448502
17.119102 9.7062683 -18.361698
38.436478 47.892662 -32.5924
36.977253 48.340607 -33.498703
7.5520515 58.605309 -36.514503
17.952213 10.35656 -19.463001
28.830666 58.168034 -24.183899
8.2349434 59.174927 -36.554802
6.4202499 59.086601 -35.212402
7.3586731 59.276024 -35.895203
26.809061 59.267365 -23.930901
37.271606 48.311687 -35.259598
15.583325 6.8001328 -19.316502
15.212349 7.2946739 -19.73
10.40659 49.432816 -26.839203
28.273655 58.989605 -24.048302
9.7923088 51.380936 -27.126602
37.527256 48.600838 -36.173103
27.2733 59.88588 -23.8978
11.836933 51.532043 -26.224899
26.000034 58.496742 -24.256798
34.044376 49.634987 -35.276299
18.095982 7.5887222 -22.262001
24.031706 51.426113 -27.591797
11.681715 53.463692 -26.605301
37.009247 48.828316 -32.564301
17.306835 7.6659184 -21.9664
36.587154 49.615883 -32.1726
11.974941 55.533264 -27.260399
23.143644 51.475933 -27.318901
18.93049 9.4774132 -24.611801
18.469263 8.7375469 -23.614399
17.871504 9.2999535 -23.692402
23.397192 52.530933 -27.691498
36.746738 48.668526 -32.968697
8.747364 52.089668 -28.085999
34.783314 49.350513 -34.410896
35.570816 49.710411 -32.708
18.24152 10.671871 -25.111
34.319572 51.063747 -32.520798
16.544647 10.801277 -23.599499
33.731808 49.972023 -34.316101
7.5001831 52.517487 -30.128799
7.0511703 53.161156 -30.561302
36.055565 49.140327 -32.930603
17.120045 10.045225 -23.6511
39.535023 53.379181 -36.292297
23.848186 53.054527 -28.1064
10.326294 52.663155 -26.864601
22.749672 54.987686 -28.701202
9.6723728 52.585571 -27.185997
23.682411 54.588303 -28.912498
17.12534 7.0287457 -21.251499
37.359531 49.76963 -31.375603
9.176033 55.174404 -27.642998
9.9416027 54.685783 -27.269501
17.027794 8.1401939 -22.197201
8.9864197 52.877041 -27.702904
23.031025 55.914848 -29.367599
36.432789 50.631073 -31.432701
16.050991 9.0088692 -22.120998
8.7973499 54.557716 -27.821602
22.260181 52.324471 -27.431297
12.262129 53.568886 -26.554001
15.494364 7.9190865 -20.7668
38.420254 54.192768 -31.863899
38.382378 54.30262 -31.229103
22.002522 53.802299 -27.8937
38.684505 54.088799 -31.596397
37.746391 54.846184 -32.4813
19.613853 53.869781 -28.0774
36.058624 49.590649 -37.098396
9.9574986 55.619438 -27.472099
35.106895 49.74461 -37.039001
10.589396 56.682137 -27.739601
20.64773 53.065994 -27.673897
35.845921 49.007626 -35.937302
20.988653 54.160892 -27.9608
35.681686 49.200081 -36.359901
22.365421 54.203278 -28.144897
9.0831947 56.597717 -27.916901
9.4533443 57.525116 -28.119499
21.415764 56.232628 -28.9972
7.752367 53.001404 -29.362198
22.157547 56.749844 -29.509499
6.5799389 53.790359 -30.781197
26.59656 56.927692 -28.2061
8.0226898 53.714363 -28.678101
32.970139 50.167847 -35.210602
8.3111305 54.453362 -28.197899
33.213387 50.397411 -34.097099
7.7332115 55.270317 -28.546097
27.021637 56.925781 -27.260399
7.2032623 53.95414 -29.746201
15.476563 6.6674042 -17.817699
26.362514 57.26091 -27.662102
6.7728386 54.826195 -29.545303
25.845421 57.736366 -27.724197
26.439144 57.66135 -28.060097
14.963039 7.017416 -18.672699
7.3310966 54.871414 -29.0616
24.828735 58.379391 -27.576797
27.090837 57.896851 -28.425102
6.658247 55.680115 -29.007698
8.1960144 55.810211 -28.152603
32.651711 50.540176 -37.089302
32.549679 50.804279 -37.576302
14.73516 7.2000046 -16.781799
33.192665 50.029129 -35.821701
13.815191 7.7943497 -16.8792
26.609684 58.968094 -28.313599
13.899807 8.4068069 -15.689999
31.153044 51.065308 -36.265099
7.4547138 56.831696 -28.430099
30.863178 51.333279 -37.277
26.156528 58.494122 -28.171204
7.8203926 57.71526 -28.445
25.362242 58.311417 -27.885597
7.3715744 56.220055 -28.549301
16.609039 8.112011 -15.910801
35.613956 50.230263 -37.673302
7.9835529 56.953396 -28.269096
6.6329498 56.488605 -28.667603
17.081507 7.9319649 -17.337101
17.132523 8.1529064 -17.7248
35.659531 50.922382 -38.095802
16.419865 9.0834293 -17.3176
35.717026 51.788074 -38.3787
23.442877 57.105297 -30.248497
16.419117 8.2905903 -16.7686
16.043564 8.6527481 -15.869999
22.896994 57.383102 -30.142899
16.74346 61.091091 -26.548599
17.202991 61.576027 -26.025902
15.788759 10.025507 -16.995701
17.159527 61.868652 -25.275101
25.402702 57.892002 -27.081299
38.519104 53.041183 -37.256203
37.296707 52.876915 -37.916298
16.610176 11.893555 -18.703098
16.964447 61.929226 -24.210602
16.467873 10.524689 -18.004902
25.524345 57.848778 -25.541702
16.366724 61.737976 -25.065201
23.243214 58.99247 -26.353699
36.951958 53.713417 -37.889099
18.466805 62.962582 -24.843498
25.458843 60.123837 -28.000298
15.536217 8.944212 -15.4842
17.741219 62.108849 -25.589699
18.092724 62.394531 -25.953796
15.029825 8.8585205 -15.1623
15.595293 9.0824318 -16.245399
18.799139 63.139496 -25.5961
23.966789 58.607903 -27.393204
23.310051 58.928062 -27.856102
34.747814 55.720879 -38.119904
15.129782 9.7121944 -16.033199
34.211678 52.723633 -38.886002
36.276176 52.219269 -38.319801
15.906137 61.0942 -26.569901
22.896084 59.273613 -27.372398
33.480667 51.487434 -38.510201
15.41703 60.73 -27.448997
23.091944 59.299847 -28.008904
14.359914 8.8771629 -15.128799
15.498341 61.351334 -26.3097
14.866222 61.572571 -26.556297
21.590256 60.046844 -28.412399
15.252974 9.7270184 -15.1768
25.167629 59.41502 -27.998901
34.068722 51.919647 -38.697403
24.182213 59.075985 -27.819801
24.626972 59.749298 -28.012497
15.767751 61.568123 -25.673103
14.734507 61.936829 -25.501297
13.226446 9.1495495 -15.640202
32.475582 52.49918 -39.000702
33.953159 52.446922 -38.875603
25.307062 60.543835 -27.917297
24.922253 61.35247 -27.786697
14.819306 10.465532 -15.4044
35.409985 53.601593 -38.545998
23.524708 59.814144 -28.009804
24.103214 60.498253 -28.188004
24.186104 61.061119 -28.208801
15.609108 11.374506 -17.568298
22.676832 59.72237 -28.1698
16.037527 62.172409 -23.2146
35.527039 54.611771 -38.263603
15.408087 62.402035 -22.983799
15.445322 61.974949 -24.458099
14.595716 10.61034 -16.015999
22.177687 60.138477 -28.490799
14.411492 11.352455 -15.545898
22.765751 60.629181 -28.371101
23.551157 61.327766 -28.509903
14.189378 11.989136 -16.072201
15.670494 62.957447 -22.245701
32.833561 51.303562 -38.287598
26.97558 60.344765 -23.890099
14.434234 7.5679703 -19.016399
14.876282 62.846996 -22.673698
32.844009 50.993031 -37.959396
26.28997 59.014946 -24.007004
14.203264 7.4458981 -17.548801
15.083474 64.313858 -22.164101
13.563841 8.0616951 -17.9007
13.161024 8.4817009 -16.623501
34.380192 53.503376 -38.8806
25.471733 60.430199 -23.653
14.686889 62.177666 -24.383301
14.633715 7.9778862 -19.916801
13.017448 62.950077 -25.6287
13.666138 62.606453 -25.006699
14.303941 62.517521 -23.9454
13.508924 9.5095596 -20.075401
34.40239 54.941635 -38.658401
24.562902 58.749245 -24.516602
13.745377 8.3077087 -19.092602
13.217531 63.160263 -24.5737
23.005577 59.112633 -25.960098
41.134087 50.985615 -25.809196
23.351768 59.681564 -24.074097
22.944572 59.337795 -24.732399
40.401287 48.868366 -26.480103
22.818903 59.269295 -25.358101
41.264145 49.000153 -26.265701
23.014462 59.550873 -24.294899
11.706577 57.456387 -28.1698
15.204004 9.7427521 -21.8857
40.590775 50.179596 -25.891701
14.532587 10.440546 -21.716599
23.482912 60.037418 -23.824299
12.312981 59.230423 -29.734398
24.144844 61.610146 -23.433998
21.947525 59.531925 -26.016296
10.833891 57.163517 -27.915497
14.611797 11.070961 -22.0821
22.524239 59.385857 -26.723198
21.586058 60.181435 -27.524696
42.300468 51.011131 -26.142403
13.760704 10.769577 -21.119598
11.796167 58.847546 -29.233398
14.520116 11.784155 -22.1786
21.269608 59.933788 -26.564003
42.022514 52.47324 -26.591698
14.293209 12.651659 -21.833099
10.709473 58.166103 -28.406502
41.923439 53.167244 -27.07
9.2969303 58.791176 -28.667603
13.488825 11.49139 -20.948601
13.730776 12.110966 -21.310001
11.067127 58.929501 -28.897903
20.700197 60.108177 -25.156799
20.443943 60.727047 -26.638397
40.707329 51.808155 -25.801903
22.113655 59.783852 -27.674301
13.570217 13.05917 -20.579102
9.2387733 59.584366 -29.1922
21.458668 60.036423 -24.113998
12.795572 9.6873131 -19.141998
12.515638 9.4344177 -18.099201
23.609966 61.244614 -23.4258
39.215263 51.849983 -25.454597
22.508339 60.257191 -23.741798
23.453758 60.527676 -23.607601
11.540718 60.142509 -30.314697
12.594978 9.1365337 -16.708801
11.004436 59.520195 -29.3209
12.59968 10.089878 -15.7952
22.703976 62.808937 -23.310699
37.44149 49.253616 -28.390198
22.252243 61.092892 -23.398201
10.846142 60.859612 -30.737701
12.15634 9.936512 -17.488998
11.830805 60.956123 -31.313004
11.141264 61.384254 -31.859802
22.435112 61.857399 -23.241299
37.818207 49.020447 -28.001602
36.6049 50.045898 -27.438103
38.205875 49.437115 -26.947601
21.578781 61.725765 -23.2953
14.454828 11.501186 -16.586399
21.299536 60.860806 -23.575401
9.75811 60.313988 -29.828697
37.513718 49.606728 -27.235497
14.843412 12.413506 -17.468102
36.425697 49.940693 -28.526604
21.108021 62.867081 -23.4403
21.299212 59.79023 -24.801804
14.29671 12.374456 -16.755001
20.819286 60.326244 -24.213303
14.273732 12.825462 -17.1422
14.204658 13.47049 -17.856701
8.4169025 59.494831 -29.183998
20.325848 60.736176 -24.584198
13.780258 13.124975 -17.181198
8.1878624 60.171394 -29.734901
36.120834 50.111885 -28.0923
20.225327 60.754692 -25.718903
19.98481 61.308445 -25.398399
14.495792 61.390327 -27.602699
35.465244 50.534435 -28.421501
13.297979 13.375675 -17.314899
14.20449 61.862957 -27.052299
13.177191 13.446817 -17.9687
12.25736 10.22123 -18.3354
38.555573 49.777374 -26.4561
19.902039 61.918453 -26.935303
13.894197 61.313438 -28.850304
12.785408 10.645308 -19.745399
38.946968 50.311565 -25.965599
12.394886 10.783545 -19.003201
20.640949 61.313221 -23.737701
20.243961 61.515324 -24.168404
11.891155 63.515362 -28.759697
12.773726 11.784954 -19.888699
37.262703 49.963432 -29.008598
13.286558 62.375938 -28.510803
20.516474 62.618088 -23.792599
12.946541 62.184746 -30.219002
20.185181 62.56424 -24.313103
19.976624 61.67244 -24.984901
19.886963 62.632919 -26.101997
36.632114 51.323227 -30.479301
11.900742 11.967667 -18.053902
12.809895 12.737978 -19.562698
12.647261 13.197823 -19.1642
12.425381 63.061729 -30.619797
20.138048 63.35284 -25.535301
36.257927 50.721539 -28.970001
35.199974 51.069771 -28.775101
17.795391 62.30534 -23.7015
12.617611 62.886234 -29.556198
12.416462 13.207476 -17.8009
37.360348 50.60408 -26.182701
12.018744 63.464729 -30.526901
39.0867 50.846207 -25.697197
20.139351 10.42992 -21.743401
18.97768 63.949455 -24.582802
13.80562 62.193504 -27.023697
19.173288 10.634106 -20.764099
18.124462 62.617756 -23.6203
36.913124 52.671623 -25.206596
17.899632 62.674126 -23.112999
18.585579 63.643547 -23.552299
17.390575 11.38604 -19.2258
12.169979 63.445168 -27.031898
16.057341 62.460949 -22.626099
17.254948 62.236431 -23.241299
25.631878 18.556992 -19.549999
37.56485 52.810936 -25.210701
12.043411 63.89167 -25.713997
16.882322 62.877617 -22.392101
36.458199 52.172539 -25.394798
36.525646 51.531784 -25.741203
11.681236 63.955116 -26.679199
16.983688 63.455334 -22.222099
17.572144 63.50592 -22.5182
17.25563 64.177628 -22.271099
39.097881 52.687462 -25.469597
39.707561 52.965248 -25.772903
16.368956 63.65044 -22.021301
11.083515 64.309654 -28.583298
21.076851 10.914738 -22.773899
39.702942 53.960659 -26.310997
16.584976 64.583748 -22.0508
21.607212 12.531942 -23.0872
20.505043 11.864552 -22.138302
10.861248 64.693741 -27.624001
30.739964 59.390511 -25.335899
39.98019 53.354576 -26.076202
37.433578 54.514389 -25.358101
9.5665226 66.03566 -29.235199
36.860989 54.218384 -25.103302
22.632164 13.660839 -23.693298
22.171242 14.792765 -23.289398
21.378071 14.084137 -22.8083
14.82131 63.280605 -22.446999
14.147692 64.259018 -22.642899
13.99297 63.157837 -23.3274
20.702431 13.208687 -22.384399
20.849321 14.274786 -22.540401
15.967643 64.689857 -22.033501
34.308525 51.816967 -26.620697
35.610409 51.350719 -26.274803
30.000137 59.974747 -26.790703
34.216 51.679409 -27.096703
17.808268 11.65414 -25.390297
34.024048 53.040581 -25.487701
28.477234 60.559563 -26.894501
29.844679 59.599796 -24.921898
17.706688 12.488968 -25.737099
29.652399 59.971451 -25.2202
29.662365 60.124325 -25.638702
29.618505 59.35284 -24.601898
27.694201 60.632896 -24.366997
12.802511 63.801647 -24.341599
17.345213 12.982605 -25.355797
27.977329 61.010017 -25.437401
26.835621 61.571632 -24.7864
36.54216 55.588879 -25.4673
18.28553 15.338089 -24.762802
12.793449 65.78492 -23.467098
19.105627 11.288649 -20.7836
34.578735 51.960415 -26.175499
12.744886 67.881386 -23.429501
28.365902 60.36367 -27.340202
20.240866 12.760609 -21.9986
13.092943 66.371979 -23.223202
18.508284 13.283382 -20.7519
13.062872 64.502991 -23.517399
27.154881 60.560616 -27.536499
26.446144 60.386261 -27.790398
18.683348 12.525734 -20.6684
27.467388 61.193188 -26.152802
27.061153 61.101387 -26.963898
33.043659 54.226696 -25.083801
26.052502 61.515789 -26.987503
25.87776 61.050255 -27.501999
34.526371 53.798218 -25.051102
19.540701 14.051791 -21.629601
11.708435 64.736504 -25.153603
26.006943 61.935368 -26.2603
26.66201 61.705574 -25.438797
20.309174 15.248789 -22.561699
11.296103 64.623795 -26.168701
25.20046 62.433514 -26.645203
36.503464 53.914989 -25.025299
19.400351 15.788157 -22.902199
34.683117 54.427235 -24.8993
35.403805 55.034313 -24.903801
36.077202 55.152 -25.091003
25.284637 61.960445 -27.155701
18.244907 14.176614 -20.923698
11.799957 65.302826 -24.640404
10.937283 65.60305 -25.795097
35.258034 56.234505 -25.201202
24.211731 62.104496 -28.088203
18.399055 14.862557 -21.663101
24.414036 62.581673 -27.782204
23.188225 63.545799 -28.537498
23.222179 62.107666 -28.862602
16.863174 12.011152 -24.528397
15.966002 11.86301 -23.5396
15.981163 12.511257 -23.663799
11.757978 65.91626 -24.424599
10.677086 65.09166 -27.137497
31.712803 54.199467 -25.5616
31.72592 54.604965 -25.218002
16.985264 13.693321 -24.855698
26.545494 61.090214 -24.011597
16.233921 13.337776 -23.965801
26.448378 61.622265 -24.3815
32.446568 55.054188 -24.858498
24.891224 62.5466 -24.133102
24.002056 62.149956 -23.478401
25.648834 62.343323 -24.679398
25.762344 62.273697 -25.605598
15.203297 12.878843 -22.828701
16.164867 14.310412 -23.193699
25.092693 62.859245 -26.016296
10.426558 66.928452 -25.772003
24.536743 63.798409 -25.899399
24.948517 63.1325 -25.265099
33.67997 56.596157 -24.796799
9.6518784 67.488007 -26.579399
9.7607841 66.722519 -26.974297
33.652485 55.624847 -24.700203
33.444527 56.190517 -24.684799
33.164242 55.280434 -24.747398
31.168003 56.760559 -24.506599
30.90126 57.383682 -24.431801
16.554558 14.16461 -23.899601
33.588791 57.11335 -24.970001
17.515747 14.961587 -24.107697
11.856268 66.484612 -24.1539
31.482628 57.51226 -24.5252
24.809286 63.118279 -24.681198
31.385563 57.871254 -24.581001
9.7429333 68.563568 -26.026802
26.983999 45.576576 -30.703697
9.1186543 68.167267 -27.096703
6.226902 53.52964 -31.842598
24.322952 64.09053 -24.972298
17.921141 14.962908 -21.937
24.489038 63.400833 -26.964302
17.65089 15.040419 -22.4384
27.44742 46.734192 -30.301598
17.213661 14.944178 -22.998299
27.788801 47.283684 -30.526901
22.751043 15.978765 -23.552799
24.021257 63.569382 -27.833
24.238071 64.522278 -27.2286
24.762436 40.723083 -36.206596
2.4647217 53.77494 -32.234299
24.180122 40.641098 -36.040703
23.202724 16.266562 -23.5355
24.051012 64.199928 -27.815804
25.028221 41.222717 -35.5243
3.5405674 53.919506 -32.627296
2.7147293 53.848049 -33.146004
23.650225 41.007118 -35.205597
24.090626 65.936203 -27.804001
22.401709 16.675581 -23.307899
22.126665 16.366142 -23.451698
21.973909 17.181213 -23.352798
24.21133 64.927368 -26.281998
21.376263 15.71109 -23.073101
24.019753 65.110718 -25.292801
25.483624 41.372612 -36.106499
19.895506 15.413676 -22.471001
20.664555 16.052418 -23.158298
24.5235 41.422672 -35.191101
20.38665 16.351873 -23.721401
27.501083 44.093864 -35.745102
21.583941 16.765575 -23.643902
0.98187637 53.526062 -31.584099
24.127098 65.609123 -26.7127
21.382767 17.104271 -24.108597
3.3004379 54.060814 -31.293999
3.4560642 54.23526 -30.628403
25.712299 41.995674 -35.277702
22.389191 17.210266 -22.5513
24.454288 62.228004 -23.681999
25.216608 41.893166 -34.8638
21.546234 17.674561 -23.886398
25.420092 42.451878 -34.033699
24.184063 63.56749 -24.204697
21.247232 17.460571 -25.552101
26.097633 43.45993 -33.091103
23.635338 64.173828 -24.080902
2.7760887 54.300949 -30.031403
19.453789 16.085243 -25.910698
23.113132 64.012398 -23.745899
20.736885 17.043709 -26.996498
21.820942 63.004093 -23.2789
23.633816 43.636932 -31.041901
21.946014 63.843853 -23.484798
23.873068 64.810883 -24.712502
5.8493977 53.582436 -32.861702
23.846085 41.539459 -34.481102
5.9838181 53.973274 -31.464897
19.357599 16.001057 -23.794899
23.425489 43.076897 -31.939102
20.622108 16.731514 -24.463997
22.991844 41.471455 -34.417198
21.174112 63.870789 -23.803501
5.9969521 54.288589 -30.789803
20.142799 16.559872 -25.148201
18.693352 15.663062 -24.275902
21.868353 65.012039 -24.114899
5.3722115 54.818092 -30.028603
22.641722 65.56411 -24.313499
5.5253887 54.226559 -31.337502
21.510021 17.760498 -26.547203
21.223888 64.852707 -24.432701
4.9680748 54.325203 -31.067703
21.353935 17.437174 -24.651299
20.159992 63.903862 -25.951103
20.453386 63.33952 -24.308998
5.2959023 54.027607 -33.016296
4.795517 54.189678 -32.910202
21.794138 42.302906 -33.029503
21.44883 17.879009 -25.544403
4.54673 54.322678 -33.906303
20.82819 64.743378 -24.886597
24.698799 43.860886 -31.355598
21.752033 18.837383 -26.224403
24.452759 42.37252 -33.433899
20.669554 65.169373 -25.707199
6.1476898 54.861259 -29.8573
21.545692 19.554987 -25.848602
23.150997 64.966049 -24.166199
21.355076 17.931 -24.403702
23.801495 66.025948 -25.305496
5.554491 55.552994 -29.151802
21.374363 18.454229 -25.422401
5.8843136 56.210537 -28.771004
21.074045 18.504723 -24.455002
4.351757 54.53138 -30.284798
23.450268 65.725616 -24.729202
20.752316 19.188244 -24.557899
4.0752525 54.940323 -29.490898
21.109716 19.785666 -25.363098
26.680771 43.594563 -33.861397
20.689619 19.823179 -24.956802
22.66313 66.59742 -24.927399
26.868298 44.956547 -32.308197
23.278774 67.06179 -25.250198
4.037159 56.782005 -28.483597
27.577471 45.305546 -33.720802
2.8794975 54.613029 -29.492302
21.262253 66.425415 -25.913902
21.543758 66.06675 -25.217102
27.781904 46.257065 -32.679901
4.018343 55.8228 -28.712502
21.990076 18.712536 -21.701698
21.964954 66.031815 -24.805
22.277447 67.196457 -25.618797
6.5411377 57.363209 -28.569298
21.434067 18.774496 -22.415298
22.15686 68.117401 -26.460602
21.041695 18.793903 -23.255402
5.9029045 57.303356 -28.571098
6.2819901 58.097919 -28.762802
27.990133 46.775505 -33.097
22.000385 19.228729 -21.4501
22.665337 19.668093 -20.9767
7.1397934 58.534298 -28.923798
24.012142 65.803375 -25.877197
28.10931 47.251331 -33.602097
24.081814 68.178543 -27.295303
20.614086 20.095682 -21.937
26.796055 43.310249 -34.829803
27.548454 44.453831 -34.917702
5.3653278 58.617577 -29.022202
20.85261 19.355751 -22.334599
23.895321 68.029755 -26.298302
23.655693 69.125092 -26.507301
27.887758 45.270363 -36.008499
23.948656 69.316872 -27.252197
23.278675 68.290619 -25.927002
20.486183 19.263962 -23.946701
22.976624 67.965759 -25.760201
28.079647 46.569168 -36.214401
19.908283 20.717312 -25.189003
27.898308 45.941578 -34.5047
20.112696 19.67935 -23.065399
2.8564625 54.023766 -33.7435
2.5594254 54.350594 -34.415398
18.522545 64.066216 -23.283001
19.948303 20.246929 -22.395302
19.555223 66.02771 -24.218803
19.002922 20.699808 -24.500702
27.270493 45.230713 -32.7901
26.969152 45.292336 -31.812599
20.152637 19.787012 -24.334396
19.537876 20.044537 -23.803501
19.567638 66.765106 -24.027
17.584826 12.560764 -19.7617
1.4521675 54.405773 -34.587196
18.470634 65.512512 -23.0695
25.812428 43.843559 -32.375702
25.749462 44.179211 -31.773201
17.991125 65.745758 -22.743999
18.380417 14.627766 -21.327202
0.18447495 53.632111 -33.622002
16.89255 14.446481 -20.707901
18.983467 66.708328 -23.497501
25.908319 44.604137 -31.022903
17.137814 13.413504 -19.837898
26.407383 45.118065 -30.2966
16.169861 12.953625 -18.882599
27.582233 46.44381 -30.764503
-0.79733467 53.203945 -32.507599
15.541563 13.83246 -19.250301
7.8312702 23.927906 -27.007401
27.579607 46.146065 -31.533401
27.905653 46.937759 -31.309799
17.044292 14.003345 -20.157501
7.0164623 22.981369 -28.061501
0.72963524 53.433327 -32.279602
-0.28568268 53.373627 -33.089798
16.57229 14.595104 -21.293201
16.271965 14.566574 -21.866199
6.2943001 24.063232 -27.174202
15.600207 14.376458 -21.365299
0.011440277 53.928543 -34.123001
15.838465 14.380791 -22.2892
15.536483 13.793396 -22.833302
27.600189 47.608681 -30.347801
28.017235 48.31147 -31.300797
-1.8755074 53.289272 -33.352699
7.4608669 24.66679 -26.619797
25.997116 45.202637 -29.656898
6.8765163 25.247288 -26.610298
26.443195 45.477341 -29.746597
7.8719406 25.39238 -26.6334
-3.1508904 54.104893 -34.171898
26.798817 46.41774 -29.570702
25.394371 45.888451 -28.611
0.35323334 54.582417 -34.715103
26.180286 46.446739 -28.892097
-1.100256 54.102051 -34.290703
14.941133 14.253991 -21.1726
25.472269 47.016155 -28.048798
5.7158833 23.696541 -27.874702
26.977911 47.147228 -29.5812
14.624522 13.520061 -21.8703
14.784198 14.056292 -21.523998
13.550367 13.594503 -20.1022
27.515718 48.303291 -30.177299
5.1502228 23.644455 -30.218597
15.978283 13.520309 -19.1479
-0.61956215 55.427536 -34.981201
4.4365654 23.995571 -29.563499
-0.61969376 56.154015 -35.034203
26.551941 47.697052 -28.7705
-1.3097935 55.05645 -34.7985
14.732738 13.304131 -18.1441
26.139141 48.137314 -28.290001
14.090719 13.758738 -19.195499
4.9789925 24.796265 -26.791603
14.163261 13.671196 -18.463299
15.323252 14.055297 -19.724098
14.015869 13.927746 -19.9884
6.294733 24.611732 -26.690498
5.7154369 25.548538 -26.462502
12.776186 13.651531 -18.811501
21.540627 20.361134 -21.296398
4.2784424 55.093975 -35.258698
7.4719696 26.401726 -26.063904
25.40192 47.552521 -27.8815
3.6657143 55.472603 -35.4291
2.8696442 55.11335 -35.180702
26.368511 48.814865 -28.446404
6.5142403 26.887054 -25.665001
18.971111 20.664755 -22.869099
25.609709 48.947563 -27.906898
6.3688469 26.953293 -25.108299
3.8217487 56.281303 -35.6259
5.9467506 27.015278 -25.365799
-0.024848938 54.941238 -34.883301
18.876396 21.183208 -22.132401
18.049511 21.187458 -22.6973
4.4359207 25.804716 -26.350502
4.9166813 26.892811 -25.509003
5.0997734 58.322693 -35.121696
17.420767 21.666847 -22.1759
5.029026 59.091351 -34.375504
4.2235832 57.064011 -35.606796
4.6876144 23.937054 -28.4151
16.07864 22.409283 -21.682598
17.971619 21.84548 -21.728901
25.11261 45.364964 -28.889801
24.557228 44.534607 -29.6623
23.745985 44.282719 -29.698097
23.765125 44.726952 -29.100098
18.551771 13.283831 -27.256798
4.5287361 23.92462 -29.083801
22.732153 44.142937 -29.916603
3.7898808 24.713833 -27.543297
3.8883133 25.080353 -26.861
17.652674 13.624453 -25.805099
2.8192596 57.904716 -35.051003
18.479038 13.842672 -27.042297
22.625038 42.42247 -32.800499
2.7612419 25.063686 -28.784103
3.0024872 24.966915 -28.001198
18.416595 14.415229 -26.607101
17.816601 14.786148 -25.075203
2.2091045 25.437937 -28.051498
4.316618 58.390831 -34.943604
18.626226 15.09059 -26.263397
1.365181 55.660645 -35.257301
17.61721 14.167192 -25.4533
2.2042236 56.428123 -35.410103
19.768293 16.210129 -26.628799
19.471348 15.591688 -27.428101
22.868824 43.272034 -31.554703
3.3975372 25.079353 -30.155602
22.136681 43.451118 -31.296204
21.30533 43.618626 -31.1847
21.786598 44.335499 -29.850899
4.2225056 59.372898 -33.798798
21.666557 19.75803 -27.291702
20.801756 19.236046 -27.6548
2.717823 58.503117 -34.623001
20.374943 19.364483 -27.731003
3.2991943 58.983891 -34.2481
5.9306679 25.921947 -33.1464
1.6633434 59.075527 -33.795601
19.614677 19.065157 -27.837097
21.630377 44.945751 -29.147301
3.8584919 59.770283 -32.6409
22.940838 44.706402 -29.080704
22.429211 45.372856 -28.492599
21.277618 46.113243 -28.302696
21.94668 46.197266 -28.018402
2.0343037 59.554283 -32.935204
4.0893879 26.267944 -31.938698
0.9749012 56.195381 -35.261803
2.1803818 57.11565 -35.2827
18.133694 17.39711 -28.833099
1.9188309 25.672016 -28.682098
19.520149 44.497696 -30.709999
1.0870457 57.358086 -35.002098
1.4475822 26.183067 -28.939201
20.314964 43.87632 -31.188797
4.2845192 24.931767 -31.116699
21.431231 45.414249 -28.760101
17.067793 17.284052 -29.265602
-0.35074615 56.840889 -34.939499
20.23295 45.099335 -29.766098
1.821394 26.196358 -29.539001
16.102791 18.406876 -28.757401
18.654352 18.504711 -28.211998
18.69277 19.259968 -28.005302
0.74201584 58.039536 -34.555901
1.4917755 26.874813 -29.922997
1.2250538 58.602806 -34.222702
2.7321053 26.379238 -30.802498
19.531754 45.494453 -29.589798
17.676105 19.325171 -28.137604
3.1691628 27.888594 -32.019798
3.4859734 55.187981 -29.028999
18.810476 20.26766 -27.9123
2.5375137 55.325493 -28.7248
17.816608 20.592569 -27.981697
24.771606 46.031254 -28.241898
23.599682 45.242138 -28.552002
2.5372963 26.986486 -31.057297
24.441132 46.689667 -27.796303
0.46536064 53.61808 -30.524597
22.93446 45.969254 -28.040199
16.816763 18.845844 -28.405602
5.3057785 26.71489 -24.518898
22.893707 48.244713 -27.191902
24.833475 47.456589 -27.656197
23.288567 48.650055 -27.177902
4.9437981 27.017776 -25.032501
1.888834 53.94899 -30.378197
1.5598621 54.321999 -29.463303
-0.47101974 53.738319 -29.6315
16.692612 19.959749 -28.097801
0.082214355 54.197968 -29.073799
15.195127 19.991236 -28.170303
24.502184 49.132404 -27.456703
4.8423157 26.334877 -23.644798
1.4226379 54.763222 -28.894302
0.77328491 55.16581 -28.437302
3.7992744 27.193504 -25.050697
16.798193 21.884521 -27.854797
3.645153 26.911707 -23.801201
36.532616 51.300701 -30.951698
2.7806549 25.783722 -26.5336
16.766987 17.129929 -29.610199
36.0439 51.37114 -29.7267
-0.91773987 54.506485 -28.419197
35.950974 52.427299 -31.042801
16.025099 17.052794 -31.228699
2.3610153 25.726101 -26.760803
1.4087372 26.582821 -26.102898
-2.5252419 53.990746 -28.431396
35.845173 52.540474 -30.647003
16.44125 17.026829 -30.161003
1.3749542 26.173166 -26.805702
15.559437 18.025928 -29.254303
35.028904 51.039665 -32.129501
35.594452 51.531837 -31.521103
0.78785896 26.680084 -26.315102
-1.8199577 54.550041 -28.141296
3.4255829 26.40999 -25.933403
35.537655 52.313766 -31.365196
14.590729 17.99617 -33.0802
2.4887791 26.440845 -26.007301
3.0608234 27.267693 -25.129097
35.061783 51.84462 -29.073402
-2.2761879 54.8134 -27.919998
34.936665 52.659424 -29.833702
-0.28006744 55.421303 -28.0923
14.34341 17.847847 -32.264198
3.4842796 26.159262 -22.911701
2.5539093 26.43401 -22.445599
14.878781 17.527489 -31.191498
-2.330883 55.417858 -27.7659
1.8252068 26.819235 -21.899799
13.302963 18.592766 -32.490898
37.21051 54.289093 -31.741898
3.6270866 26.564844 -23.308399
11.626686 19.585945 -31.776802
36.903847 54.425091 -31.2183
35.640949 53.138252 -30.778999
35.759731 53.212471 -31.243202
36.261658 54.237385 -31.457199
35.314571 53.52597 -31.590897
2.0745392 27.542648 -24.304901
35.647457 54.049931 -31.638496
1.411869 27.120014 -22.277
2.3225212 27.165127 -23.1651
3.1149082 56.020287 -28.488602
1.766367 27.546186 -23.189602
14.703545 18.082478 -29.748497
12.897717 18.778267 -30.199997
3.4273281 56.509575 -28.419601
36.07505 54.381832 -31.177498
0.94998741 27.937735 -23.111599
36.286072 54.449898 -31.798599
0.50343704 27.219578 -25.5979
1.8577003 56.041019 -28.2827
14.725306 19.44425 -28.473099
0.075654984 56.076561 -28.049698
2.0122604 27.440916 -25.089699
13.25642 20.236473 -28.235603
35.728241 53.995659 -31.128098
35.33049 53.803673 -30.835197
0.96781921 27.324532 -25.323196
4.3175659 58.156654 -28.735199
4.2913113 57.731647 -28.588303
1.0738163 27.838387 -23.649799
13.531187 19.43499 -28.764198
1.6606178 27.762135 -24.461304
0.18814659 28.301937 -23.7785
33.42672 52.310913 -32.312202
4.090559 58.729572 -29.091499
15.101758 20.636124 -27.970398
1.5493279 56.933765 -28.212402
34.46299 52.054798 -31.918297
12.970345 18.616573 -31.1838
0.5072155 26.629967 -27.440804
-0.13137817 27.164034 -27.544601
34.466831 52.745316 -31.7714
12.192467 19.441708 -29.4701
0.84943771 26.881748 -29.072899
3.8554459 59.541504 -29.849098
11.326561 19.712132 -30.399498
3.4988213 59.908279 -30.730003
32.77874 53.313709 -32.353996
17.864841 21.534174 -24.552902
2.5577316 58.3834 -28.775497
18.015396 21.846825 -24.832603
2.7482204 59.074936 -29.380302
-0.025382996 29.101692 -30.111099
18.058363 21.003288 -23.518299
1.4117737 28.570374 -31.002899
2.5538673 59.517303 -29.9067
34.29409 54.173515 -32.072899
0.27117538 28.155693 -29.724403
17.837185 21.257233 -24.243202
18.113571 20.979187 -23.969002
-0.30572891 28.160881 -29.018997
1.5198898 59.313885 -29.6129
16.135101 21.840115 -23.4403
0.01865387 56.864185 -28.112701
34.660229 54.686474 -32.184402
1.6281643 57.903259 -28.469101
15.723754 22.063536 -22.799702
35.404606 55.08812 -32.2873
1.5256748 58.56147 -28.874802
-1.1840134 57.003788 -28.0783
0.046535492 26.966473 -26.624298
34.313374 51.70929 -28.885696
34.41713 52.466026 -29.181702
-0.25634193 27.329918 -25.994598
34.379074 51.399036 -28.603699
-1.4451599 28.080845 -25.7892
15.208761 22.261593 -23.194199
33.509007 52.414162 -28.972298
15.998216 22.21063 -22.103401
-0.66743088 57.739452 -28.371101
34.229134 53.499203 -29.928398
-1.5175514 28.239147 -26.834198
-1.4097595 28.319935 -27.354202
15.433999 22.753757 -24.3983
-0.72126961 53.183052 -31.562798
-1.0375748 53.295944 -30.349602
15.145754 22.605043 -24.048698
12.373531 23.367729 -23.078499
-1.718483 29.50819 -28.568802
32.701088 52.923508 -28.752403
32.580143 53.361675 -29.217102
32.659912 54.160686 -29.719398
-0.90625191 29.54147 -29.563904
14.837776 22.549232 -23.686501
-0.87892914 28.251415 -28.261002
12.45933 23.760199 -24.078201
-2.4801865 29.641975 -27.633499
13.685432 23.571102 -24.386101
33.92897 53.896126 -30.029503
34.548187 54.658512 -30.612602
35.87133 55.502979 -30.511002
11.573515 20.775658 -28.2864
35.133598 54.828472 -30.790298
34.524559 55.99892 -30.194603
-2.698452 53.462788 -33.661903
32.916706 53.658318 -32.2882
0.15652084 27.795277 -21.6618
15.735528 21.629459 -27.819397
31.619873 54.210648 -29.618797
1.7629509 27.53392 -20.456299
13.452621 21.077032 -27.851097
1.5753136 27.11487 -21.3326
33.139534 54.751373 -30.091202
-2.6017609 53.059093 -29.844597
32.863007 55.338089 -29.988297
31.742111 55.085369 -29.819199
0.17296219 28.218445 -20.613602
-2.663063 53.740124 -28.688904
-3.5583 53.958847 -28.159401
28.232758 48.281757 -33.9244
33.15802 50.657856 -33.752098
0.44036102 28.043365 -22.632
-1.6735477 56.283638 -27.847504
-1.0091286 58.02607 -28.508003
12.978518 19.377695 -29.056602
0.047389984 28.29949 -24.124496
-0.95395279 28.336628 -24.444099
31.11475 51.215801 -35.115799
-0.0079231262 27.959362 -21.956001
31.546701 50.89735 -35.338898
-0.59726906 28.529793 -22.395302
31.222866 51.414742 -34.6035
-1.3553505 28.820129 -21.680401
-1.7395782 29.177845 -23.188702
10.792006 20.218973 -29.489601
1.9100018 59.865494 -31.930496
30.070404 52.334545 -34.521896
11.291277 20.502018 -28.632301
0.1012249 59.311535 -32.995003
28.342922 48.337776 -35.840302
2.5215969 59.943855 -31.181099
2.0478783 59.82806 -30.714996
1.4445229 59.57869 -30.064003
0.14433479 28.893209 -20.0238
28.283981 47.81498 -36.837303
10.019571 21.087252 -28.670799
28.416847 49.056164 -36.769302
12.128712 22.14484 -27.555496
12.985397 23.018911 -27.444504
0.44409561 59.727562 -31.851196
-0.11566734 30.106941 -19.1497
28.475025 49.694374 -36.468201
28.208113 47.496891 -34.735901
0.30726242 30.206224 -18.8251
11.613922 21.2174 -27.960403
-1.0891171 58.305408 -34.003304
-1.0936832 30.016403 -19.626202
-1.0702152 29.273737 -20.277599
9.5860786 21.797558 -28.1408
28.447254 50.822701 -35.369301
-1.9875221 29.362722 -22.543598
30.385183 51.432945 -35.587303
7.4659786 23.432301 -27.432198
9.1623821 22.667473 -27.6194
-2.7423172 29.83349 -21.768799
-1.1287003 58.734436 -33.548599
-1.3326473 28.984735 -20.9613
30.339706 51.696075 -37.686897
-2.0142441 30.015457 -20.229099
11.327353 22.568895 -27.419502
-2.8481445 30.042845 -21.137699
29.659302 51.854481 -36.497299
10.499981 23.100491 -27.305702
29.088551 52.190395 -36.892998
-1.8420982 58.992043 -33.004501
-2.7240868 29.744091 -22.320099
11.449499 23.929424 -27.165199
-1.3933678 59.3255 -32.561996
10.522419 22.251707 -27.642097
-1.3934002 28.30899 -24.909698
28.47036 51.447014 -36.150398
-1.2247658 59.112289 -29.575699
28.506611 51.8265 -36.4515
-1.3574333 28.021566 -26.4235
28.96212 52.278687 -36.108299
-2.5191803 29.352877 -23.273899
28.915506 52.695942 -35.376503
28.61528 52.097435 -36.378899
-2.7379227 29.098312 -25.717102
28.146513 47.809544 -31.991302
-2.6892242 29.008377 -25.169899
0.17878914 58.813335 -29.104698
28.563938 49.666504 -35.443604
28.337162 49.658451 -32.827698
-2.4092026 29.264751 -27.187798
28.254898 49.288528 -31.943604
-2.945591 29.4645 -26.345901
-3.7087555 30.90077 -27.250397
-2.4803047 30.548483 -28.561996
-0.10456085 59.647572 -30.558601
-0.38342285 59.719307 -31.114403
27.969654 49.496544 -30.885498
-1.5294266 59.538986 -31.864799
28.112446 50.272717 -31.463997
28.299253 50.147633 -32.3349
-2.1501732 59.527611 -31.537903
10.433876 24.82103 -26.880898
9.3397598 23.808628 -27.0364
-3.3077621 29.642691 -23.41
30.088776 52.580235 -34.237198
-2.8715172 59.236416 -32.190697
29.585173 18.903639 -26.208099
-3.5405807 29.744047 -23.5881
-2.0855598 59.349472 -30.201401
-4.7186928 30.648991 -23.3297
-2.1157379 59.541237 -30.8479
29.735596 23.260645 -25.571198
-3.3818207 29.899591 -22.6311
-3.6340561 30.27145 -21.7239
-4.3505096 30.487591 -22.427101
28.465954 50.986164 -34.108002
-4.4159927 59.045475 -32.000801
28.986071 21.023731 -23.955799
29.543272 19.66692 -23.780399
29.218216 20.442225 -24.046501
28.559437 20.974615 -24.463997
28.258959 51.377846 -32.586502
28.353693 20.894947 -24.922401
-4.0962219 30.666506 -26.259399
29.559435 52.454063 -34.981201
10.611969 61.556931 -32.388901
-4.5863113 30.571962 -24.299896
28.301615 52.338387 -34.580902
28.090879 21.764513 -24.172096
31.669134 26.101713 -25.812302
30.983788 19.832375 -22.8578
10.348045 61.469933 -31.4785
28.319775 52.457539 -35.083199
28.705767 21.441076 -25.390297
28.85149 22.420731 -25.507202
28.445135 52.699402 -35.366997
29.026188 17.109619 -25.602898
28.722738 18.012369 -25.877197
31.971569 20.862083 -20.990299
9.6702995 61.508644 -33.505997
28.409931 17.947441 -25.486397
8.3647423 61.730434 -31.639
-4.6475067 30.766552 -25.004898
28.776314 18.636835 -25.869499
27.996559 52.230709 -32.519897
29.860739 19.030996 -23.3778
9.3693047 60.880508 -30.474297
-4.9299088 31.574959 -25.910301
8.7035885 61.397694 -31.178398
31.997816 20.160364 -21.9986
-5.7416191 31.964676 -24.5103
27.773302 53.214588 -34.3778
30.849447 24.904858 -25.782898
32.165154 20.151936 -21.247398
31.866697 52.322189 -33.2444
1.235815 29.912327 -18.442001
-0.43663216 30.748795 -18.142799
32.688435 51.415066 -33.380402
-1.4382668 31.215036 -18.2099
28.68783 16.647503 -24.923698
28.667465 19.612213 -24.5103
28.252205 18.764685 -24.8013
28.610512 16.559011 -23.9739
27.651672 21.725735 -25.022102
33.420662 56.14164 -33.097
-1.6266747 31.215549 -18.8396
29.04051 19.621923 -25.679497
-1.3626099 31.012085 -17.231499
31.510033 52.8367 -33.168198
31.375784 53.421406 -33.0168
28.43005 19.986712 -25.364403
-1.58078 31.259022 -16.617599
30.874073 20.446133 -22.9063
-2.8763618 31.83786 -18.8437
6.0448303 59.643074 -34.2005
6.0092564 60.09753 -33.413902
30.0982 21.529619 -22.9244
-1.6990128 31.059687 -19.157398
-2.9052124 30.918274 -19.9576
30.162369 53.226677 -33.698196
7.135788 60.747391 -33.609802
31.197645 54.191586 -32.972298
30.888868 55.002796 -33.116997
-3.6261559 30.610046 -21.021599
8.7527027 61.45013 -33.348602
30.580648 25.694561 -26.265198
29.374414 23.766317 -25.939301
28.328629 21.038868 -25.310898
8.2815056 61.154354 -33.8936
32.340122 54.765663 -32.669502
-3.3779831 31.799694 -19.442101
8.2000904 60.535156 -35.154404
7.7529716 61.430405 -32.504501
-3.9334717 31.624561 -20.015202
33.296768 55.56852 -32.791901
28.100885 19.000668 -25.216599
29.275452 17.445427 -23.369099
-1.3997097 31.469963 -16.201401
31.128561 21.090576 -22.019001
6.6695633 59.520718 -29.628304
7.0819473 59.176319 -29.295502
28.146965 18.173445 -24.939598
30.907316 18.704456 -22.539501
-2.6159058 31.608521 -17.799599
-2.5866776 31.842827 -17.175301
28.618202 17.125744 -24.372002
31.718494 56.419388 -33.422501
28.582788 17.251802 -24.841202
32.961151 20.601944 -20.274502
8.6059761 60.695587 -30.214104
-3.577652 32.25 -18.555302
30.885963 55.606461 -33.230797
28.696655 21.678558 -23.503799
-3.9738617 32.448845 -18.0299
-3.5411415 32.425537 -17.455898
32.129005 57.140984 -33.824203
28.257627 22.200993 -23.175098
28.741583 17.341656 -24.044701
-4.05439 32.402157 -19.268002
29.972126 21.086906 -23.438999
29.457489 53.767395 -34.384598
29.75935 53.190315 -34.190102
6.6638451 61.216476 -31.138
29.143507 53.166615 -34.857399
-4.7940445 32.969696 -18.297798
5.6098175 59.503109 -29.764801
28.54146 53.5294 -34.883301
5.5397072 59.995945 -30.334198
32.404358 22.836084 -25.106903
6.0934944 60.534122 -30.743103
30.011232 54.237392 -33.459297
29.389032 55.260643 -33.968399
7.4228249 60.829376 -30.606697
7.8601799 61.769432 -31.538803
28.146526 53.823956 -34.693298
-5.1872597 31.162292 -22.539902
28.669754 54.325653 -34.626701
-4.6430092 31.14328 -21.329899
6.7786446 61.022614 -32.750603
6.1976662 60.677143 -32.691704
-5.0870285 31.674307 -21.278702
32.58823 23.704639 -25.032097
28.169102 55.298168 -34.089897
6.0412617 60.832829 -31.196503
30.258265 21.89077 -25.227997
32.391323 20.191984 -20.700199
29.871849 55.796185 -33.444702
29.240593 55.952492 -33.8881
31.419483 22.832304 -25.143204
4.9188442 60.233158 -31.974899
29.312481 56.750626 -33.747597
28.679531 55.484837 -34.094002
-5.4446487 31.74222 -21.775101
5.212286 60.186321 -32.599701
30.107822 56.724697 -33.576698
29.11795 18.210007 -23.801701
-5.563591 31.54451 -23.6842
27.311813 21.92382 -25.480003
29.991291 57.208473 -33.727203
32.114353 19.62508 -21.737
4.9612751 60.333771 -31.191498
4.9938507 60.234741 -30.7332
-6.0818787 32.888237 -25.200699
30.522871 23.089207 -25.300903
-6.2405777 32.495682 -23.803001
3.7714596 59.963692 -31.659401
4.2264557 60.116245 -30.932602
32.016659 24.214571 -25.188499
-6.0741463 32.387569 -22.329601
33.394375 52.198402 -27.387299
29.531538 22.116343 -25.300499
31.592432 24.520796 -25.377602
12.082508 63.836754 -32.005798
33.242077 26.103395 -25.147697
32.501198 52.929924 -28.277702
32.612427 53.006149 -26.398102
10.987778 64.324089 -30.826103
10.840431 64.703812 -32.2052
31.498554 26.979839 -26.3265
-4.6640663 32.601505 -19.736301
10.371859 64.904076 -31.036499
27.519176 22.256386 -26.011398
-5.1226578 33.201241 -19.3741
27.25098 22.37571 -24.463997
11.078667 64.864166 -33.093399
31.940891 53.304108 -27.889198
29.956518 22.083698 -21.359798
30.035494 21.880335 -22.0508
30.865171 54.47393 -29.9049
31.957916 53.694218 -29.1595
28.779404 22.453045 -22.632401
31.243151 54.164108 -29.3377
11.096601 65.942078 -34.840698
31.039705 55.015793 -30.080299
10.742348 66.558868 -35.2491
11.698318 31.893631 -28.113602
30.428703 54.322952 -29.375801
26.918165 22.365725 -26.463799
26.56555 22.148638 -26.332397
25.599251 22.159245 -26.955299
10.603489 32.114059 -26.935303
30.621872 54.508278 -28.587402
26.043194 22.193081 -26.233101
10.639778 32.780373 -27.924103
10.377899 65.42543 -33.107002
26.894321 22.136497 -25.369904
29.428711 55.181152 -28.880699
9.4941254 66.685959 -33.626099
29.748066 55.066898 -29.6446
29.788801 55.321564 -29.788399
29.722519 55.732239 -29.567596
25.979721 22.511356 -25.520401
22.255684 19.884357 -26.818802
31.105938 55.461292 -29.576202
21.964565 19.557983 -27.084
10.713211 33.485035 -29.241096
33.331779 56.235588 -29.894897
22.556625 20.425076 -26.875
22.522947 20.697947 -27.223701
9.5897274 65.907486 -32.040703
25.257435 22.513632 -27.771797
24.82468 22.669811 -27.921402
9.9685459 65.333237 -30.419899
9.3800659 66.082581 -30.640701
24.421928 22.133219 -27.470299
24.949751 22.319744 -26.5495
31.20623 57.038441 -29.314598
23.923523 22.178476 -26.973396
31.598928 53.813854 -26.2099
23.079767 21.845997 -27.088997
32.351902 53.580318 -25.823196
23.723164 22.277102 -27.371902
8.8983307 66.836906 -30.3274
31.34726 53.817417 -26.752197
30.337248 54.571651 -26.615196
8.8546906 66.919739 -31.6091
9.2576962 66.542923 -32.700302
9.1445732 33.258286 -25.694504
8.9617805 67.321579 -33.435204
30.742086 56.055153 -24.6875
9.1880436 33.540958 -27.058601
29.638561 55.876785 -24.974998
8.3566418 34.047176 -26.589401
9.6008358 33.77507 -28.061501
29.6688 55.428169 -25.414299
8.4733639 67.717453 -32.3172
29.14035 24.361435 -26.446602
29.930197 55.04493 -25.815498
30.40958 26.736969 -27.138
5.7815533 59.064865 -34.761299
9.1791534 34.44376 -28.551102
28.866699 24.670727 -26.986504
30.05784 54.874767 -27.827103
4.9473667 59.598518 -33.594398
28.918953 55.789124 -28.952797
28.692955 24.862633 -27.497002
9.2120667 34.50597 -30.342796
9.6393471 66.445831 -27.727402
8.3358612 34.586887 -27.757301
9.2105904 66.586288 -29.023102
28.637749 55.742321 -28.549797
8.435215 35.040207 -28.661301
29.402882 55.265606 -26.343697
27.482197 24.562323 -28.478104
9.3483429 34.522938 -29.818298
29.205936 55.536098 -27.422203
27.982582 24.445961 -28.124496
7.9124355 35.365471 -28.729301
27.956388 56.189983 -28.245102
27.531561 56.55579 -28.194298
8.5671787 67.733246 -29.251099
30.153282 56.436226 -29.182701
29.035461 26.320354 -28.869797
31.30822 57.525955 -29.153198
28.163548 25.5079 -28.741096
27.827667 26.729565 -29.399803
8.8933392 67.791153 -27.905998
29.844196 58.093342 -28.8685
8.3126221 68.567368 -28.862099
5.5987206 28.501471 -33.725403
27.6994 59.919155 -27.929604
8.3688869 67.779907 -30.972099
27.185316 48.68985 -29.363503
7.9976997 68.669289 -30.329697
27.59779 49.908752 -30.114304
28.277107 23.528021 -26.473297
27.797606 23.558218 -27.012398
22.916222 60.760532 -32.8368
26.389757 22.575302 -27.3116
27.443253 23.762794 -27.872398
22.484837 61.409985 -33.4561
26.747377 49.678432 -28.952301
25.540859 23.220575 -28.2397
26.301151 23.121231 -27.988899
22.763914 61.932262 -34.0849
26.142591 23.9746 -28.534798
22.750294 62.327469 -34.790802
4.3488197 30.365044 -33.310097
27.605967 50.630974 -30.273003
28.071854 51.756714 -31.957703
5.8768959 31.418152 -33.618797
23.377464 62.538208 -28.679901
27.825718 52.212154 -31.598198
26.860928 25.156721 -28.826302
22.738068 62.821358 -29.557999
25.589596 24.858559 -28.7379
25.021004 23.821432 -28.272301
22.249609 62.465538 -29.792
3.9359207 27.951336 -32.577003
21.73143 62.200829 -29.825104
27.263166 51.97979 -30.393097
27.411823 53.215691 -31.536102
26.794882 25.789251 -29.139099
22.819172 63.465229 -29.489998
26.975298 53.919186 -31.3312
3.9408913 28.942787 -32.877998
35.142891 24.436338 -24.959602
22.132021 63.690941 -30.641098
22.559868 64.250458 -30.522797
27.403561 53.171555 -32.823601
35.472301 25.779327 -24.691597
27.458513 53.432144 -33.505997
22.714758 64.596992 -30.209999
22.282515 64.32959 -30.976601
27.04388 53.869034 -32.397903
34.63847 34.622578 -30.617996
21.763248 64.35508 -31.228699
34.299778 24.94804 -24.838997
22.550528 65.928551 -31.6036
0.7257309 31.75951 -31.593697
34.394379 25.714821 -24.817703
2.6998787 30.808987 -32.538002
35.849983 26.578222 -24.585503
4.1718407 31.830807 -33.085701
3.2649193 31.515213 -32.825401
25.897102 50.773739 -28.491699
22.7145 66.050346 -30.853302
2.8104935 31.167061 -32.6269
25.260324 50.725685 -28.063301
33.236965 25.252548 -25.000801
4.4080849 32.566082 -32.908401
21.957352 65.151466 -31.707901
21.89447 65.884163 -32.169899
2.2231083 32.683212 -32.241501
22.286083 65.771538 -31.905098
24.613285 52.243992 -28.158501
22.758633 67.171387 -31.9282
22.534168 66.832008 -32.300903
22.165937 66.929527 -32.805496
35.228432 26.936668 -24.7397
26.909307 51.549587 -29.704498
36.323872 28.884863 -24.766899
22.592703 68.075439 -32.988701
26.698559 52.907646 -30.272499
22.845783 68.244583 -31.692001
25.895227 52.9599 -29.436996
25.288589 52.660126 -28.795898
25.046665 54.833359 -29.870003
23.379948 70.707314 -32.762901
34.693684 28.004347 -25.136398
6.4050598 33.502361 -32.597397
21.944153 62.324886 -35.347504
20.924868 61.726116 -36.313202
33.172497 27.037643 -25.456398
6.9856377 34.161446 -31.951797
27.89682 53.505165 -34.5886
27.274055 54.585251 -33.310097
21.418434 67.327042 -33.361801
32.654865 29.148529 -26.651497
21.634886 66.604546 -32.767899
21.027411 66.654572 -32.989098
7.5293655 31.941864 -33.658302
27.189159 53.829067 -31.746902
33.61071 28.390301 -25.720802
26.46439 55.217403 -31.431396
26.567574 54.88208 -32.271004
6.1308479 33.280758 -32.757401
34.731472 30.26804 -25.743401
27.083387 55.16843 -33.056198
5.2377586 32.667259 -33.007202
27.459305 55.542473 -33.481903
20.456696 67.004745 -34.382797
27.655975 56.340622 -33.457397
32.969978 28.416157 -26.104301
7.7753048 34.82275 -30.924004
18.91803 65.458969 -33.996002
28.963181 57.172501 -33.7304
8.5161743 34.734013 -30.556396
39.495369 30.721413 -24.196503
18.441944 65.949646 -35.3507
28.213478 56.778137 -33.651001
35.601089 29.345314 -25.109596
28.89259 58.275475 -33.783897
7.1268311 34.607841 -31.43
44.008499 39.937912 -25.770203
42.211849 40.355488 -26.876404
6.7588081 35.311375 -30.598099
19.663021 66.47937 -34.893204
26.886826 56.710579 -32.9515
27.996346 57.632439 -33.455597
35.210793 29.93656 -25.418404
42.753746 35.118896 -24.133499
27.756895 58.604031 -33.408501
29.278847 56.195023 -29.184502
28.047894 56.240395 -28.825401
36.10247 33.511433 -26.342796
19.656681 66.777687 -35.260002
27.568546 56.813839 -28.613701
5.8213806 34.647099 -31.705597
27.89518 57.143002 -28.777802
26.865854 57.21645 -28.510803
21.531384 67.951164 -33.758003
28.682896 57.179989 -28.809998
28.162025 56.560825 -28.9646
22.534573 68.976868 -32.4823
22.359222 69.615845 -32.913902
3.5834312 34.750973 -31.716103
21.950893 68.696098 -33.428902
4.3594742 34.816807 -31.691597
29.330593 57.860672 -28.875702
4.711731 35.149197 -31.373299
21.59392 68.516663 -33.961098
28.226887 58.946705 -28.426903
28.116253 58.496712 -28.572899
29.129227 58.853779 -28.489899
34.106594 30.274719 -26.117897
3.6462727 33.675442 -32.293701
21.332153 69.152054 -35.124001
26.327076 55.656723 -31.618103
34.440983 31.307741 -26.379501
26.216526 55.687973 -32.361198
8.505249 33.739395 -25.716202
26.299446 56.093826 -32.551201
23.617735 71.832634 -33.194504
33.563446 30.69894 -26.773499
23.487942 72.183495 -33.671898
23.075907 71.334122 -33.487396
25.916117 56.712456 -31.907799
7.964016 34.167698 -26.115196
22.669024 71.464478 -34.011398
26.176508 57.240204 -32.267303
21.804428 69.74559 -34.541901
7.6599102 34.485466 -25.523499
22.457584 71.358337 -34.439903
25.73181 55.590759 -30.9245
25.888535 56.26088 -31.403702
22.690493 72.373573 -34.328796
8.647419 34.407875 -25.026199
23.863472 56.167824 -29.891296
36.388927 34.523464 -26.7005
20.826569 68.394417 -35.282204
7.6959572 35.151451 -24.808998
34.145439 32.119469 -27.242203
34.813839 32.665257 -26.918098
25.460281 57.092194 -31.598198
26.748817 57.657116 -32.731598
27.305033 58.111565 -33.123299
35.475388 34.529175 -27.666199
20.374895 68.92881 -36.2388
19.495571 68.75177 -36.9216
30.83494 26.700882 -26.683701
6.8585796 35.023056 -25.420601
47.293022 50.205551 -29.375801
21.280703 69.764717 -35.667099
6.8445244 35.298058 -26.735397
30.980707 28.050749 -27.558701
29.550888 26.619644 -28.648598
30.209436 27.035698 -27.752701
30.633541 28.318977 -29.090202
22.091835 71.9151 -35.352501
7.1302147 35.693909 -28.086899
21.336628 70.648148 -36.054298
20.427647 70.218964 -36.834099
