# .PCD v0.7 - Point Cloud Data file format
VERSION 0.7
FIELDS x y z
SIZE 4 4 4
TYPE F F F
COUNT 1 1 1
WIDTH 1683
HEIGHT 1
VIEWPOINT 0 0 0 1 0 0 0
POINTS 1683
DATA ascii
-27.4995 20.554899 23.214199
34.162102 19.3608 14.7563
-35.656101 21.2999 0.51486701
36.7635 19.328501 -0.90685201
35.258701 19.686001 -8.1398602
-35.245098 18.663799 -11.4518
34.680901 19.499399 -11.0741
31.760799 18.7731 -18.6637
31.113701 19.676201 -20.004499
31.709 18.4779 -19.7369
-20.9492 18.7236 -30.778099
19.917 19.184299 -30.923
-16.743799 19.8871 -32.392601
16.303499 19.9869 -32.640301
13.911 19.362101 -33.635799
11.5142 20.0186 -34.687099
5.9160299 20.004299 -36.437698
1.1190799 20.5205 36.893398
2.01299 19.632401 37.178799
17.430901 19.384399 33.506001
-27.329 19.497 24.962999
-28.714199 20.8722 21.935499
-30.825399 19.9583 20.682301
32.761101 20.9007 15.8226
33.684399 20.0681 13.8081
34.026699 20.4049 12.5222
35.212101 19.3232 11.5014
-36.400101 20.328699 0.211596
36.622101 18.768 -2.2021401
35.236198 21.106001 -2.7272401
35.498299 20.004299 -5.5914001
34.986198 21.000401 -6.0837402
-36.010399 19.9018 -9.1596098
-35.117001 20.3395 -9.5424604
34.4585 20.509701 -9.6273403
33.8428 20.2071 -12.0567
32.684799 20.4037 -14.6941
30.479 20.493 -20.0037
29.7904 21.6138 -18.770201
24.1971 21.4764 -27.185301
22.008499 21.430099 -27.882999
-19.422701 19.154699 -30.9872
-17.91 20.0121 -31.3673
17.8452 20.5159 -32.070301
15.3448 20.865299 -32.797699
11.8153 20.578199 -33.772701
8.9402103 20.812799 -34.925701
7.4500198 21.606501 -35.498901
7.5248799 20.324301 -35.715099
-10.8661 20.948099 34.849899
-16.1798 20.6022 33.192902
15.8737 21.1068 33.142101
16.433599 21.817801 32.2136
-35.967201 20.8249 2.0009799
36.197899 21.267401 -0.409971
36.065399 20.694401 -1.01516
34.688301 20.9965 -8.0374002
32.9981 21.621201 -12.552
33.831799 21.160999 -10.8818
31.800301 20.260599 -16.6089
29.0478 21.7798 -20.2414
20.7647 20.950399 -29.1765
19.668699 20.395599 -30.451599
14.4225 22.165701 -32.865501
-16.0602 20.8456 -31.894899
-14.6067 20.591 -33.125702
12.4423 21.029499 -33.197399
14.2132 20.062401 -33.152802
-13.1061 19.5562 -35.128101
-11.7167 20.936501 34.087601
-26.279499 21.2213 24.537399
-25.470699 23.2731 23.066401
34.742901 21.188299 11.4206
35.733002 22.454 -0.015053
34.9091 21.616301 -3.5581701
34.769501 22.246401 -4.5637398
34.890701 21.6521 -6.0936399
34.496498 21.954 -9.0517197
-34.443501 20.620899 -12.1036
33.981499 22.0492 -10.4437
31.5895 21.2777 -15.7789
27.421499 22.4184 -22.090799
24.665001 22.32 -25.6947
25.6001 22.584801 -24.4902
23.531799 22.0179 -26.486799
-21.090799 21.117201 -30.046
19.794399 21.916901 -29.9811
-19.4855 20.651199 -30.133699
13.7028 21.561001 -32.7621
8.21803 21.348801 -34.8652
-14.043 22.5877 32.9272
-26.399799 21.477699 23.797899
-27.554399 21.871099 22.2528
-28.5842 22.2568 21.735399
30.798599 23.010799 17.9098
31.801399 22.0618 15.6161
31.9349 22.539499 14.4998
-34.946899 22.5049 0.92699301
34.963299 21.825399 -2.0186
34.366402 22.859699 -2.8819101
34.951401 22.228399 -6.7010102
-34.587002 20.3382 -10.3325
33.061298 22.862499 -12.3891
31.993799 22.4167 -14.3437
31.139601 22.7514 -15.5604
32.209 21.3638 -14.5156
29.528799 22.316401 -18.3724
28.0107 22.6043 -20.481899
26.0944 22.8265 -23.230499
22.5595 22.617901 -26.5138
20.513399 22.0907 -28.8629
-19.5511 22.280199 -29.389099
-18.1322 21.424101 -30.2339
11.3968 22.6796 -32.615799
12.4521 23.0777 -32.508499
9.4852505 21.499901 -33.974998
0.155894 22.741199 35.7257
1.33176 21.861601 36.093102
-8.7686195 22.4827 34.928299
-8.6161299 22.702999 35.582001
-9.0186901 22.655899 34.014
-13.1992 22.274599 32.880402
-12.7959 21.803801 33.125301
-11.3207 22.2225 33.274899
15.8364 23.2796 31.778999
30.853001 23.629999 15.4404
33.050098 23.715401 12.8817
-35.244701 22.942101 1.9174401
35.061798 22.316299 -0.78294498
34.808701 23.0096 -4.7779398
-33.726799 21.6196 -10.7421
-33.6273 21.829599 -11.2046
32.161598 23.1416 -14.2535
29.389 23.222099 -17.961599
28.1637 23.2131 -19.589701
26.3374 23.2048 -22.1623
24.181 23.123699 -24.756001
21.0588 22.4904 -27.886801
-15.588 22.083599 -31.438801
-14.6772 22.4713 -32.396099
7.5343099 23.9389 -33.223999
8.2925901 22.8519 -33.664902
0.59684801 22.598301 35.59
-5.2713799 24.830299 34.244099
-8.9697399 23.357901 33.272999
16.192801 23.766001 31.1952
-23.9844 23.5502 26.186399
-24.1994 23.4072 24.6479
-25.7031 23.897699 22.3337
-27.5611 24.0212 21.145201
-27.775101 24.846901 20.054399
30.6108 23.0667 17.145
32.792801 22.8708 13.0739
-33.7803 24.149 -0.093428001
-35.220299 22.3134 -0.524692
34.068298 23.332899 -1.67898
-35.530899 22.667801 -1.29768
33.887001 23.804001 -2.33918
-33.7654 22.096399 -9.5833998
-32.657398 23.969999 -11.418
30.4324 23.6457 -16.569599
28.015301 24.0956 -19.269199
23.2554 23.495199 -25.238701
22.017099 23.4412 -26.498199
20.265499 23.169701 -29.054399
-19.727301 23.615499 -28.8433
-15.3368 23.538799 -30.5567
12.2729 24.0305 -32.466702
10.3543 24.3636 -32.0429
9.5628996 22.9261 -32.895199
-6.2057199 24.329901 33.805901
0.76124299 23.702101 35.098598
-10.4473 24.5352 32.2738
15.3668 25.2223 30.877701
-23.4345 24.0207 25.369499
-26.8473 24.5156 21.1745
27.9263 24.9839 19.8829
-28.9349 25.308201 18.151501
-30.6971 25.6677 14.9785
29.7925 25.1103 15.972
33.989101 24.3678 0.45587301
-33.876202 24.295799 0.75704098
-33.287498 24.8825 -1.10007
-33.770401 24.9004 -1.91034
33.7784 24.764799 -2.9985199
-33.737099 23.0373 -8.6052799
-32.5411 23.7271 -9.8786097
29.447901 24.4004 -17.9091
27.0781 23.7899 -20.2481
25.600901 24.148701 -22.0518
24.5632 24.1642 -23.3634
21.233299 24.171801 -27.2075
-18.7472 23.961 -28.470301
-18.487 22.999701 -29.118799
-17.0077 23.4405 -29.420799
11.1438 24.828699 -32.071999
8.1523304 24.157 -32.533001
6.9065099 24.165701 -34.034302
-1.00062 25.194599 34.1021
-0.20656601 24.538 34.206902
-6.5775599 24.459801 33.2416
-4.6012902 25.223301 33.507198
-8.97363 24.2834 32.5723
-12.5072 24.558201 32.4851
-10.4944 25.355301 32.200401
16.0746 25.1929 30.0364
-24.7997 25.782 22.2341
-25.8468 24.965799 21.8505
28.533899 24.598 18.2386
29.615 24.258499 16.7257
-30.0313 25.629 14.9222
33.3918 24.5895 -0.22288699
33.1968 24.6583 -0.98161203
-31.983601 25.416401 -8.1452703
-32.241299 24.271 -10.5305
28.169901 25.0061 -19.0371
25.903601 24.771299 -20.907801
24.499399 25.362 -23.1635
22.376801 24.504 -25.770901
-20.259501 25.6329 -26.605301
-19.7875 24.6492 -27.8414
-19.077999 24.883699 -27.5299
-14.9166 24.749001 -29.7006
-14.1905 24.868799 -30.445601
9.2620497 24.094801 -32.228401
5.9201002 25.666401 -32.737
-3.5922301 25.7379 32.9282
-0.92226702 25.698601 33.152599
0.121807 25.764299 33.500801
-6.8850498 24.934799 32.5928
-4.2235098 25.9741 32.2201
-6.9769602 25.780399 31.978701
-21.870701 25.8773 24.777901
-24.423901 25.1502 22.619499
24.338499 27.157 21.3785
-28.207199 25.6579 18.187
28.0126 24.834801 18.8325
-27.9685 26.1507 18.506701
28.5933 25.627899 16.879999
-29.347601 25.823299 15.3438
-32.752899 25.7348 0.84856999
32.391499 26.0469 0.677163
-32.8335 25.2789 -0.329797
-32.464901 25.7143 -7.5678601
26.6432 25.5009 -19.593599
25.154699 25.351 -22.1283
23.007299 25.0811 -24.9387
-21.6978 26.822399 -24.452299
-18.275499 25.744101 -26.946199
-17.6966 25.6182 -27.415501
-15.1023 25.580299 -28.8337
6.5013099 25.7276 -31.945999
8.49084 25.6868 -31.319901
9.7014198 25.908701 -31.389
-5.0957298 26.320299 31.7395
-1.8809299 26.1021 32.3494
-0.37827 25.886101 33.1273
-7.8983798 26.091299 31.816601
16.0735 26.722799 28.888201
17.481899 26.945299 28.378201
-23.4191 24.982 23.5515
-23.7097 26.7719 22.27
26.197701 26.0574 19.9862
26.927299 25.9377 18.4133
-28.8428 25.5667 17.0023
-30.0394 27.281099 10.9517
-30.3146 26.945601 10.9129
32.365002 26.7645 1.71638
-32.336498 26.185101 -2.29338
-32.114799 26.864901 -3.5222199
-31.191099 26.073601 -8.3387299
-31.399099 25.601601 -9.1863098
-28.011 27.302601 -15.6758
25.8687 26.1105 -19.715799
25.481701 25.926001 -21.1343
-19.685801 26.061399 -25.863501
-18.8895 26.5268 -25.7138
-17.322701 26.5026 -27.1688
-16.150499 26.4105 -28.011801
-13.2301 26.502399 -29.189301
-13.1837 26.023199 -29.6318
-11.4146 26.9237 -29.700001
-12.356 26.1532 -30.464899
-11.1076 26.825199 -30.704901
0.059457999 27.168501 32.353699
16.7577 26.975201 28.065001
-21.375 26.621401 25.330299
-21.430401 26.8134 23.692699
27.235399 26.7843 17.4396
28.012199 26.928801 17.0019
-28.953501 26.621 16.031
-29.115601 26.437599 15.2577
-30.494499 27.3955 8.8369799
-30.8785 27.013599 10.3719
-31.375099 27.809799 5.86869
-31.829 27.520201 3.97649
-31.145399 27.7321 4.1971402
-31.3946 27.453699 3.1686299
-32.0047 26.3269 0.56237799
31.849199 26.476299 -0.51799297
32.592201 25.9021 -1.87053
-30.820801 27.501499 -2.2251699
-30.816299 27.3417 -5.3202801
-30.6597 26.748501 -7.6969199
-30.1884 27.044399 -9.1107502
-30.083599 27.447701 -10.4159
-28.605301 27.465 -14.7499
-26.059999 27.7246 -18.312901
-24.7416 27.820499 -19.4998
-17.0165 27.539101 -27.3971
-14.0428 26.8619 -28.7875
7.0848498 26.489901 -30.967699
9.0617704 27.012899 -30.7645
5.4021802 27.136299 -31.615801
5.9878402 27.2551 -30.792
-6.4151402 26.9823 31.3866
-1.19566 27.9104 30.4928
-0.496014 27.221201 31.513
17.368401 28.2036 26.459101
-22.9091 27.416401 22.203699
22.136 28.247101 22.1593
23.9506 27.729401 19.494699
25.546 26.701401 19.087
24.4179 28.028999 18.6569
-29.938299 27.8957 10.9169
-30.8983 27.7901 6.1187801
-30.5275 27.897301 6.2932701
-30.9016 28.007999 3.5699501
-31.1434 28.435499 1.84312
-31.174299 27.8001 1.62146
-31.0478 28.235701 0.288463
-31.240499 27.232 -0.141876
31.269899 27.541201 -1.17869
-31.0194 27.315001 -3.4158499
-29.2698 27.637199 -10.5486
-28.3708 27.631901 -13.02
-26.9167 27.411699 -17.091101
-27.2068 27.436001 -15.7009
-25.1129 27.9023 -18.0578
25.440599 27.3545 -19.328199
-23.662001 28.031601 -19.6178
-23.652 27.6984 -21.6061
-22.9144 27.760799 -21.253901
-21.3603 27.0165 -23.787901
-21.1873 27.867701 -22.3822
-20.2841 27.2251 -23.952801
-18.2379 27.445101 -25.766199
-11.4167 27.8906 -29.1334
-10.1643 27.930799 -29.284
8.1422701 27.1717 -30.399599
-9.2758398 27.6682 -29.7763
-7.7402601 27.844801 -30.3491
-1.5704 28.968901 -31.1525
-3.24154 27.610201 30.7047
0.34412301 28.4163 30.3636
1.59426 28.980499 30.424801
18.906401 29.092699 24.678699
-20.1828 28.193701 23.431499
-22.217501 27.108101 22.6651
-20.9484 27.8776 22.837
20.6443 28.816401 22.5762
21.6077 28.424601 21.5151
24.379801 27.137501 20.2384
24.440201 28.528 18.173599
25.7577 27.9949 17.7836
26.754801 28.4275 17.425501
-30.042 28.8367 7.6787801
-29.988501 27.6665 10.2675
-30.1544 28.482201 6.0863199
-30.548599 28.3342 4.3894701
30.9195 27.5613 0.15965299
-30.4779 28.774099 -0.892784
30.544201 28.176901 -0.612221
-30.609301 28.084499 -1.13895
-28.3494 28.242399 -10.4323
-25.672701 28.597401 -15.2606
25.302999 28.800301 -17.4846
-26.752199 27.6635 -15.5788
25.7421 27.270201 -18.8615
-23.844601 28.394899 -18.458099
-19.6992 27.8916 -23.7693
-8.8885002 28.4531 -29.1434
7.5868001 27.363001 -30.200199
8.6352901 28.0103 -29.997801
-5.4199901 28.486401 -29.716101
5.6270199 28.3302 -29.778799
-6.7602701 28.1194 -29.9646
-3.79617 28.4263 -30.6465
1.28396 29.429501 -30.208401
4.7500501 28.516001 -30.547501
-4.5711699 28.218599 30.519699
-4.1725202 29.542801 29.985901
-2.7241199 29.503599 29.273199
-1.55761 29.1171 29.296499
3.0081899 29.6724 29.654499
18.0891 29.2563 24.5422
19.569401 29.1276 22.732
-23.190701 28.2549 21.941999
-30.5881 28.9051 3.91029
30.978901 27.9907 1.88761
30.2264 28.3391 0.67464501
30.936199 28.434601 -1.4810899
-29.442301 28.9613 -2.9733801
-29.237 29.7682 -2.37817
-29.7994 27.9846 -6.0497499
-29.247999 27.8638 -8.7829304
-27.3127 28.1752 -13.1621
24.8167 29.3241 -17.581699
-22.2251 28.674 -20.0077
-19.113199 28.754299 -23.972601
-9.2934599 29.5721 -29.005199
-11.5698 28.4622 -29.1336
4.8060899 29.0229 -29.26
0.161056 29.496401 -29.177401
-5.7281199 28.8869 -29.176701
-1.63164 29.0425 -29.6395
0.26389 29.326 -29.625999
2.2576001 29.495399 -29.916
0.76964802 29.117599 29.3619
3.6491599 30.050301 28.757099
5.2610402 30.605301 28.665899
-19.959801 28.3281 23.9618
16.8246 30.243401 24.1889
-17.935101 30.504499 23.066601
-19.3295 29.1029 24.192699
20.012199 29.187799 21.690599
19.558599 29.7582 21.0902
22.0345 28.555799 20.402
19.8039 30.2075 20.2045
29.153601 30.4049 2.6917601
28.5826 30.233101 1.8641
28.739401 29.8943 1.19076
29.388599 29.277 -0.098058
-29.196501 28.815399 -4.67874
-26.0422 30.008499 -12.3721
-26.4566 29.151501 -12.7024
25.2948 30.072399 -15.7793
-25.1035 29.443399 -15.0014
24.7334 30.0005 -16.150801
-24.104099 28.984699 -17.0494
-22.349001 29.3776 -18.971701
-21.1646 30.279301 -20.3999
-20.7955 28.9102 -21.513599
-19.995899 29.429501 -22.312901
-19.7558 29.9333 -22.615299
-6.8302598 30.257799 -28.6075
7.7560601 29.4946 -28.4592
-7.5151901 29.4785 -28.8162
-6.22579 29.325199 -28.8482
4.5447602 29.884701 -28.0355
3.13994 29.5392 -29.098101
-2.5349 30.3251 28.560101
-0.34290799 29.396999 28.960899
9.1453104 31.223 26.9345
12.5046 31.3288 25.621401
13.9273 31.196301 24.8244
15.8942 30.808701 24.5383
15.9296 30.5867 23.626699
-18.7148 29.8608 22.5574
17.463301 29.952299 23.038799
-19.3132 29.982599 21.754
22.7957 29.844801 18.0658
23.7957 30.938101 16.554899
23.5732 31.364201 15.7445
-28.589199 29.7621 -3.54915
-27.4282 30.1724 -6.8363199
-26.989599 29.709101 -9.99963
24.500099 30.119699 -16.6124
-24.2064 30.3566 -16.0021
-22.5494 30.0263 -18.295799
6.2448802 31.278299 -26.210899
8.3639202 30.8727 -27.243601
1.2925299 30.130199 -28.296
6.3893099 28.711 -29.067699
-0.80562502 30.028601 -28.4881
2.9175 30.374701 27.895
-1.50886 30.2027 28.255199
0.106603 32.001202 26.2033
5.20397 30.612801 27.903299
7.54668 30.998301 26.9601
9.1062298 31.188299 26.3041
8.7829905 31.3361 25.7782
12.2494 31.248199 24.9921
14.084 31.106501 24.0975
-17.343201 31.198601 23.2188
15.3416 30.9888 22.9104
17.485001 30.577 21.7278
-19.736601 30.1745 21.4
21.194099 30.898001 18.4853
21.3368 31.6537 18.1063
22.3964 30.9877 17.267799
22.6975 31.548 16.250299
23.780899 31.826401 14.2411
24.219801 31.8437 14.314
26.0781 32.500301 9.7728395
28.1173 31.0763 2.68889
29.393801 29.767799 -1.06093
-28.299101 30.7155 -2.6176
-26.8699 30.3169 -8.7869797
-26.825001 30.916201 -7.0522399
-26.5606 30.746799 -9.6182699
-26.3277 31.0714 -11.2114
24.394501 31.6341 -13.5035
-25.235901 30.505501 -14.2149
-22.0616 30.6877 -18.8951
3.13006 30.625099 -27.5534
-4.69837 30.392 -28.1716
-3.17327 30.2936 -28.1731
-1.0440201 31.1113 -27.969601
1.42188 30.854799 -27.759399
-2.8512001 31.409201 27.851101
2.7695799 31.3312 26.8169
4.7653399 31.0389 26.962999
6.18188 31.1007 26.740801
11.2297 31.4711 24.5956
13.5198 31.3556 23.622801
-19.784599 30.625 21.1122
17.417801 31.310101 20.7964
19.589899 31.103399 19.486
19.958099 31.8575 18.9877
22.2122 31.834999 16.9967
23.3279 31.871099 14.6342
24.9375 32.251202 10.9353
26.228201 32.563801 6.4583302
27.189699 31.979601 3.4021499
27.265499 31.3992 2.2335601
27.7796 30.7579 0.059666
-27.5037 31.469999 -2.33811
-27.049101 30.942699 -4.7270398
-26.5193 31.485399 -5.5795999
-26.5907 31.924 -6.7003999
-26.7115 31.406401 -8.4307203
5.9676399 31.912399 -25.6789
9.3028297 31.9688 -25.8918
7.3021102 31.0403 -26.4876
-4.5616798 31.9916 -27.0805
1.75817 32.2985 -27.438299
2.85883 32.248798 -26.965401
-3.2321999 31.466299 -27.5191
0.157456 31.591999 -27.806101
2.7030399 31.4331 -27.190399
-2.04703 31.3738 27.242701
1.48298 32.2467 26.041
4.86724 31.8549 25.9697
6.81253 31.924601 25.410299
9.12782 32.0788 24.4704
13.2855 31.893801 22.771099
15.2468 31.562 21.990499
-17.303499 31.5513 21.280899
17.3085 31.994699 20.2278
-20.3255 30.8951 20.990101
-17.775101 32.625301 19.8491
17.9405 32.559601 19.7749
23.237801 32.392399 14.1011
24.5212 32.870499 10.5484
24.661501 32.456402 10.7742
25.423 32.6908 6.80755
25.7948 32.584999 6.0553198
26.4972 32.4118 4.6553302
25.580299 32.610699 4.4362998
26.2957 32.087299 2.8772299
26.979799 32.043499 -0.98993802
-25.9543 32.124901 -4.44239
-25.9816 32.714802 -5.2691598
23.9645 32.004299 -13.4905
23.933201 32.048698 -14.1983
8.46696 31.8358 -25.530001
7.6665101 32.389702 -24.6045
4.3533301 32.745899 -26.094299
4.8102999 31.7397 -26.2911
-4.1213498 32.645302 -26.4209
-3.3252001 32.280602 -27.092899
2.2539799 32.982101 25.718901
3.6605599 32.106998 26.001101
-2.6926601 32.8437 26.004
0.62557501 32.837299 25.5802
3.6933601 32.737801 25.6189
11.0293 32.286999 23.3913
9.8589602 32.975201 23.198999
13.7677 32.672401 21.5422
-16.0984 32.3866 21.971901
14.6995 33.5499 20.6572
-17.072599 32.6031 19.982401
25.070499 32.930302 7.7488999
25.099701 33.089901 5.1730499
25.6446 32.361 2.00857
24.038601 33.534401 1.719
26.458799 31.810801 0.94452
25.635599 32.634701 0.161488
-25.751101 33.232101 -0.57113701
25.0989 33.354401 -0.50895602
-26.0175 32.369598 -1.87388
-26.892599 31.311001 -3.5597301
22.997101 33.676998 -11.0165
23.0229 33.491901 -11.6359
5.6335201 33.2617 -25.035801
-3.6529701 33.2752 -25.9286
-2.02984 32.673 25.688801
-0.88208199 32.603199 25.5634
-0.026442001 33.884602 24.372601
5.3923898 33.501202 24.8155
7.1401701 33.022999 24.2757
7.6814198 33.666401 23.7747
9.9156103 33.485001 22.8379
11.3646 33.992298 22.037201
13.7151 33.291199 21.1742
-16.735001 31.8228 21.7166
-16.143999 32.800098 20.2651
-16.3417 34.0298 18.674801
-15.2705 34.151798 18.764
24.8622 33.722401 5.44349
24.676701 33.1455 3.14692
-24.629101 33.480099 -0.84119898
-24.6982 33.195499 -2.3735399
-25.0933 33.5755 -4.2388501
12.0385 34.379601 -21.834299
11.6448 34.301399 -21.287201
9.9579496 33.105801 -23.3708
8.6545696 33.727299 -22.4937
-4.3419199 34.107201 -24.841999
6.6872802 33.082199 -24.353399
-3.0529799 34.172501 24.780399
-14.906 33.731998 19.875
-17.230101 34.4342 18.5951
22.8619 35.253399 3.1773
24.2537 33.876598 3.72736
23.4027 34.255901 2.6271701
-23.8456 34.224098 0.055068001
23.592699 33.937199 0.50033498
23.441299 34.313202 -0.58024299
-23.2526 34.5084 -2.0237999
24.696899 34.326199 -1.23971
-24.861099 33.257599 -3.4977
21.3043 35.118099 -9.6287498
22.447701 34.597401 -9.6990995
10.7468 34.880402 -19.7111
9.3410397 35.061798 -20.312799
11.9759 35.216702 -18.9722
9.3613195 33.4296 -22.6852
7.03228 34.452999 -23.2358
7.6254001 33.373001 -23.4779
-3.83814 34.057499 -24.721001
0.45710599 35.227501 23.800301
-2.77754 34.677799 23.4937
-2.09236 34.3703 23.419399
-14.227 34.261002 20.569201
-23.3454 35.168598 1.10253
-23.3794 34.242298 -0.83642399
22.3909 35.3792 -1.7058901
13.3606 35.931 -18.114901
8.2115297 34.713902 -21.748899
-1.28317 34.680599 22.908001
-0.802643 34.874401 22.834499
-0.55906802 35.815102 21.917801
-2.9407799 35.667999 21.493799
-13.1247 35.7561 18.170601
-14.1035 35.0826 17.944
-14.9364 35 17.628799
-15.9202 35.257801 17.4664
-22.055901 35.546398 1.20855
22.0439 34.9627 1.5861
-21.5949 35.442402 -0.17141201
-22.124399 35.278301 -1.07498
-22.3556 35.705601 -1.83134
19.224001 36.276001 -9.6835299
10.2935 35.727299 -18.407801
8.3818502 35.720901 -20.775999
-3.96593 36.273602 -21.506201
-3.78035 36.301399 20.8374
-1.1825401 36.516998 20.273001
-13.428 36.263 15.9365
-14.1405 36.387501 15.6926
-21.124001 36.474499 2.2035699
20.926001 35.5364 0.66101497
21.258301 35.332802 -0.14827099
-20.4494 36.237999 -0.19925
-20.816999 36.522598 -0.81024098
21.378099 35.489201 -1.2047
20.1747 36.4496 -2.6970899
17.7791 37.0947 -9.1177502
18.897699 36.602699 -9.2329998
17.268801 37.022598 -10.3472
13.9138 36.3955 -15.4806
12.703 35.697601 -17.7586
10.919 36.0144 -17.261101
11.4168 35.430901 -18.304399
12.3911 35.963799 -16.4515
-3.5706899 35.9286 -21.868299
-4.7213898 37.074001 19.1012
-2.4131899 35.995499 20.570101
-1.83832 35.634201 21.289301
-5.6501398 37.473701 18.471701
-3.20561 36.4865 19.6077
-11.9148 36.811901 17.2579
-12.6008 36.290699 16.846399
-12.4695 36.467899 16.1481
-12.646 37.731098 13.1968
20.766199 36.527802 2.4830699
19.4305 36.6805 1.38896
18.703899 36.769901 0.160799
-19.233101 36.8657 -0.34409499
18.741301 36.6422 -0.86146498
-18.1269 37.699001 -1.94208
18.5863 36.7878 -2.5966899
18.184299 37.350101 -4.3116598
17.1674 37.926701 -7.0982399
17.1992 37.008999 -9.6693602
15.9291 37.217899 -11.284
14.8776 36.990299 -13.0112
13.8826 36.762798 -13.2557
12.8331 36.783298 -13.6485
10.2879 38.174198 -15.1068
9.2974796 36.367901 -19.0044
-3.7212701 37.270302 -19.6824
-2.3199 37.1021 18.5639
-1.75816 38.285198 17.6294
-8.3193197 37.816799 17.052099
-5.4555101 37.4562 17.433201
-3.74224 37.307999 17.701099
-2.73052 37.595501 17.489799
-10.8661 37.0546 16.1192
-7.62006 37.6119 16.4212
-9.5124702 37.366699 15.951
-11.8833 37.3125 14.1142
-13.2714 38.150101 12.9016
-18.8666 37.274799 2.8764
-18.164101 37.2495 2.31499
18.255501 37.518101 1.15825
-20.9715 35.828999 0.86492199
-17.723499 37.306499 0.47527301
-16.865 37.7719 0.91549498
-18.0741 37.276001 -0.58345401
17.0245 37.393002 -3.5118301
-16.350401 38.058498 -5.3268499
16.437401 37.599998 -7.4424801
15.792 37.627102 -6.7739501
14.6736 37.600101 -8.0919304
14.6506 37.159302 -10.7794
15.7427 37.137299 -9.7069197
12.0363 37.182899 -13.4377
13.5269 37.2211 -11.4242
11.4236 37.4627 -13.6636
10.207 36.9039 -16.6339
-3.8105199 38.701 -16.559401
-3.2804799 37.654202 -18.5208
-2.9556601 36.484299 -21.191099
-8.0067797 37.7467 15.3334
-5.5826302 37.812901 16.090599
-4.4075999 38.122002 15.7789
-10.6957 37.328201 14.726
-16.719601 37.795502 1.9179
16.777399 38.5755 0.389413
-16.431299 38.546001 0.056926001
16.7344 37.729401 -0.97048199
-16.879499 37.937901 -1.1345201
-17.2948 37.649502 -1.86169
-16.051701 38.5284 -2.8100801
16.6094 37.563801 -2.2320499
-16.2332 38.054501 -3.4001999
-15.7073 38.072498 -5.1919899
15.1012 37.978901 -4.4128399
16.4751 37.571301 -4.9366102
14.6956 37.873199 -6.3547401
11.626 38.488098 -9.7900801
11.7943 38.163799 -11.1131
12.8371 37.714699 -10.4584
11.0114 38.2966 -13.025
-2.8899701 38.087799 -18.039301
-3.2986 38.330101 16.0884
-7.2467198 38.173401 14.6423
-4.8702898 38.7314 14.7633
-3.14201 39.071201 15.554
-8.0562201 38.378601 13.7598
-4.3053999 39.440399 14.6015
-7.18575 39.005001 13.5123
-8.8415003 38.779099 12.4137
-10.1472 38.4646 11.9697
-11.1738 38.617599 11.149
-12.2533 39.086899 10.6698
-14.2351 39.472698 5.3354998
-15.6782 38.925201 4.6206799
-16.1353 38.211399 3.42834
-14.4295 38.717201 3.1754701
-15.3475 38.419998 2.5494599
-14.5493 38.894901 2.0809801
-15.8877 38.4403 1.38875
-15.8373 38.874901 0.92558801
16.7253 38.0653 -0.14286
14.3304 38.813702 -1.85655
15.0602 38.268501 -2.3345201
-15.3204 38.3969 -4.8157201
-14.1584 38.740501 -6.3759799
13.0738 38.473099 -6.3789802
-12.0692 39.4221 -8.3706198
-14.5371 38.225899 -7.5931802
-11.9623 38.8503 -9.3659201
-11.741 38.915901 -9.2514496
10.5728 39.4128 -9.9955997
10.6644 39.0919 -9.0242596
-11.0782 39.109001 -10.3815
-9.5380297 39.184898 -10.4334
-8.7276001 39.366199 -11.2575
-3.6760299 39.220798 -14.608
-3.2719901 38.982101 -15.8814
-8.2133398 39.5383 11.7572
-10.9819 39.25 9.7582998
-9.8670197 39.207699 9.8538399
-11.237 39.6105 9.3778095
-9.8591204 39.6329 8.2927599
-12.401 39.914299 6.1438398
-10.3733 39.7328 6.6657
-13.5179 39.224998 4.8755102
-13.5987 39.001701 4.15766
13.0164 39.854301 -2.4835999
13.4782 39.3465 -2.2224901
12.6479 38.877102 -5.5415902
11.919 39.8423 -4.9335699
10.7101 39.6147 -6.31112
11.9456 39.145 -5.9454799
10.8448 39.219501 -7.1443701
11.6224 38.680401 -8.2817698
-8.4570198 39.853298 -10.0711
8.9261398 39.917301 -8.99862
-10.4092 39.2607 -9.7057505
-7.0879698 39.6385 -10.6452
-5.6984801 39.563702 -11.8384
-4.7221298 39.795799 -11.8232
-5.5230699 39.620899 -12.6036
-4.1949401 39.5541 -13.04
-7.4969902 40.155499 10.668
-8.1654701 39.618198 10.2423
-9.1688099 39.270901 10.2055
-8.9886103 39.547001 8.9086599
-11.5543 39.635201 5.6638498
-9.6586599 39.862801 5.6293402
-11.3489 39.565201 4.5601501
-11.4241 39.738098 3.3132401
-12.0775 39.780201 2.63626
-9.6441498 40.7915 2.9437101
-12.0518 40.190601 2.19872
8.8470802 40.564999 -5.5921302
9.7770395 40.317799 -5.7937999
8.1894703 39.9576 -6.7417698
9.5780697 39.6633 -6.8950701
5.4678202 40.821999 -7.4223499
9.1535997 39.609402 -7.97329
7.4087801 40.175201 -7.8811102
6.8084002 40.666 -8.4257898
-5.5173702 40.2728 -10.6342
-6.2265902 40.326599 8.5509596
-4.5343499 40.9603 7.5023599
-6.6457601 40.225399 7.5173502
-7.5968199 40.333 5.2416201
-5.4156599 40.623798 5.27075
-8.8481998 40.361599 4.0559201
-6.8594298 40.734901 4.1544199
-8.0446997 41.014198 3.46648
-6.7484298 41.174702 3.3317399
4.9874701 40.898602 -4.45715
7.3006101 40.657299 -5.1974301
6.3839002 40.426899 -5.8192401
3.81638 40.809101 -5.9348798
5.6715598 40.487202 -6.5142999
1.58613 41.2542 -5.2920098
2.3058701 41.507301 -6.3164601
4.7874298 40.7644 -6.9485798
-2.60689 41.738701 5.1391401
-2.7238801 41.307098 3.9944401
-3.80286 40.957901 4.4741502
-1.89133 41.762299 3.3046401
-5.8348799 40.7276 4.2403798
-3.44609 41.060902 2.82271
-1.62218 41.435902 1.37756
-6.07617 40.9935 3.1989999
-3.45628 41.165001 1.30032
-0.70774102 41.913502 1.06231
-4.4368401 41.3773 0.92743599
-2.4719801 41.324001 -0.247456
-1.87403 41.2869 0.41530401
-0.139964 41.561699 -0.369057
-2.8094399 41.855701 -1.33437
-0.355203 41.3302 -1.26528
1.41264 41.732899 -1.53423
4.4651499 41.4697 -3.53001
-1.08992 41.329201 -1.69982
1.33393 41.358799 -2.3322699
-1.84974 41.811001 -2.6132901
-2.4505401 41.552601 -1.09491
0.91330302 41.1507 -3.3313601
3.1215401 40.996201 -3.9915199
-1.37968 42.180199 -3.6210001
3.2023799 40.875 -4.8909998
0.57424802 41.695999 -5.1206198
-1.94698 -44.252998 5.8171301
0.558855 -43.9436 4.8864999
0.244984 -44.5765 2.5755501
2.31125 -44.237202 1.89097
-7.0829401 -43.738098 6.3537202
-5.2203898 -43.678299 5.4191699
-3.0029099 -44.1595 5.7904902
5.1687999 -44.021599 3.0999899
6.3703799 -43.746799 2.3262701
6.5159602 -43.782902 0.21059901
7.9775701 -43.537601 -0.44797
-7.9066901 -43.921299 -0.28439501
-8.8210802 -43.782902 -1.46891
9.2028399 -43.1828 -1.25692
-7.8055801 -43.050999 9.3699999
-7.2697101 -43.2631 8.4138403
10.5475 -42.702301 -0.028976999
-9.4380903 -43.5569 -2.75014
12.7648 -42.251099 -2.44593
-9.9650602 -43.3321 -3.6938901
-10.3853 -43.112801 -5.2396998
-8.8867798 -43.030201 -7.0472398
-4.5332599 -42.262299 13.7827
-3.4842501 -42.461102 13.5883
0.58671701 -42.188499 13.4314
-8.5195799 -42.411701 11.6979
-12.5619 -42.447201 2.11848
12.7708 -42.308102 -0.92734897
-14.2114 -41.847 -2.5361199
-14.7945 -41.853001 -3.3849001
-5.4156199 -42.764198 -10.9938
-7.3148398 -42.022301 13.6031
-5.8048501 -42.126598 13.796
-8.2836905 -42.057499 13.1373
-8.1709805 -41.473701 12.3249
-12.3731 -41.756599 9.9103899
-12.135 -42.049599 7.1615901
14.5657 -41.778999 -0.821702
-15.6407 -41.4636 -3.75738
-11.9558 -41.2817 -10.4881
-10.298 -41.4646 -12.1269
-3.6721599 -41.8601 -13.7536
-13.3221 -40.965599 11.2422
18.3668 -40.155499 -1.01757
-9.1090202 -40.999901 -13.7036
-2.65042 -41.4566 -15.6027
-1.0457 -40.488701 -17.951
13.1547 -40.0383 14.4151
-13.7002 -40.6143 12.7972
16.861401 -39.715199 9.9639597
17.477699 -40.2244 0.52079701
19.0273 -39.827702 1.1197701
-19.2379 -39.9809 -3.2969501
-17.155199 -40.052799 -8.1900301
-0.155321 -40.172901 -18.7817
1.93407 -39.5205 -19.664301
1.2741801 -39.3918 20.6043
-4.8790398 -39.373699 19.7507
-0.636388 -39.456001 19.9891
-8.6075096 -38.9851 19.3617
-14.4191 -39.063301 14.0192
15.6237 -39.596401 11.8756
19.0655 -39.052299 7.0028801
20.158701 -39.374699 2.2971499
19.507 -39.7346 -1.39713
19.813999 -39.355202 -3.07394
19.585699 -39.176201 -4.24649
18.8843 -39.2831 -7.3754201
18.1245 -39.097599 -10.0019
17.3153 -38.251499 -12.1293
6.0981398 -39.136902 -20.1621
-19.1339 -39.020599 -7.7686601
17.240801 -38.604198 -13.6114
16.2822 -38.572399 -14.614
-4.9463801 -38.834099 -20.4561
-3.5692799 -38.5369 -21.5257
2.8202701 -38.804798 21.3885
4.0552502 -38.412399 22.246
4.85607 -38.042 22.582899
-16.4133 -38.244999 16.322399
-22.802299 -37.948601 -3.8475201
-1.1683 -37.849701 -23.126101
5.4596801 -36.8172 23.042
-17.3964 -37.255001 17.4699
16.578699 -37.465099 16.473801
19.429701 -37.304298 13.8722
21.451 -37.177898 11.2261
23.0753 -37.141602 -6.81499
23.0809 -37.040298 -8.0722303
-0.578785 -37.450901 -23.698601
-14.0423 -36.517799 21.5513
12.4664 -36.701 21.590599
24.0721 -36.0341 6.3136201
23.8722 -36.7453 -1.8674901
-24.7474 -36.7743 -4.03969
17.5375 -36.063999 -18.2791
12.1812 -36.2113 -21.803699
5.58885 -36.652302 -24.4809
18.941401 -36.052898 -17.6842
6.6266398 -35.617599 25.2404
12.6503 -35.2491 23.8638
-18.863701 -34.887001 20.2572
-18.528 -35.5215 19.8195
19.976101 -35.4217 -17.753401
13.0236 -34.323898 24.6947
26.0879 -34.622398 8.5891504
-27.987801 -34.516602 1.28372
26.682501 -34.385201 -8.7011204
24.459999 -34.075901 -14.5416
3.3670599 -33.682098 -28.8146
13.038 -33.250301 26.2194
-14.9053 -34.0261 24.2841
-19.4814 -33.674301 21.7512
-29.450899 -33.397499 2.44822
6.8053002 -32.545898 29.0231
-15.4148 -33.124802 25.2456
-29.632999 -32.996101 -2.7180901
-29.1252 -32.899502 -6.5178399
-27.0187 -32.8755 -12.4676
24.310801 -32.801701 -16.0401
-7.4626899 -33.040798 -28.2549
-1.33483 -32.9077 -29.803301
-30.708599 -32.067902 3.55281
-29.3479 -32.2761 -7.9342699
28.673599 -32.912601 -7.8112798
27.3407 -32.812302 -11.8731
-27.090401 -32.325401 -13.9314
-25.9897 -31.8559 -16.955299
-19.718399 -32.1096 -22.688601
-4.2572298 -32.429798 -29.779301
-3.2976799 -32.315201 -30.2409
-2.0868001 -32.474499 -30.305901
6.72965 -31.5905 30.3325
-19.8794 -32.680302 23.1362
29.167601 -32.243401 7.7361202
-10.8358 -31.6315 -28.5273
-15.7091 -31.4214 27.4849
-20.893299 -31.1633 24.1908
30.492599 -31.3172 6.18716
31.176901 -30.4667 -6.1609201
-30.2785 -30.399 -11.1337
-20.8815 -31.133101 -23.6933
30.497999 -30.134399 7.8934102
-31.8908 -29.811899 5.49296
-21.741199 -30.8106 -23.3486
-3.5611401 -29.775 -32.193401
12.1169 -29.4156 30.490801
-32.733101 -29.6043 7.3299699
26.866699 -29.994499 -18.1805
-22.3015 -30.349001 -23.587299
-22.2012 -29.782301 -24.235901
-1.91982 -28.2728 33.588799
-5.23663 -28.5378 33.2897
12.9972 -28.242001 30.728701
-21.5488 -29.5805 25.6518
-30.932301 -28.769699 14.3519
-31.3888 -29.074499 11.6866
-32.345501 -30.019199 0.78652501
32.7584 -28.3307 -8.9389095
28.5245 -27.679701 -19.408701
-3.24598 -28.834101 -33.135101
2.3597701 -29.365299 -32.816399
1.48184 -27.6821 34.2439
-30.643801 -28.078501 15.7794
-29.702801 -28.4076 -17.123199
-21.011299 -28.757799 -26.063999
4.17061 -27.834 34.431099
32.7048 -28.4825 6.8730798
-34.395 -28.155199 1.90128
-29.014999 -27.826099 -18.7297
-19.831301 -27.8417 -27.9583
-3.92413 -27.6866 -34.18
4.8235602 -27.5205 -34.493599
11.7806 -27.0179 33.0327
-17.452299 -26.1101 31.7651
-16.374201 -26.8834 31.7309
15.2857 -26.7356 31.7416
-30.350201 -26.912901 17.5184
33.630501 -26.7721 10.2924
35.371399 -26.3172 -2.7730601
-28.751499 -27.191601 -20.1133
26.471701 -27.355301 -22.3055
1.75305 -27.1696 -34.732899
6.0767598 -26.5599 -35.1549
9.5757599 -25.947901 34.247799
-12.1799 -26.6987 33.608398
12.9918 -26.6457 32.844398
-35.576599 -26.242001 6.7020402
-25.089399 -25.507099 -25.3731
-25.4979 -25.4674 26.2696
-27.342199 -25.250799 24.191099
-28.808701 -25.621599 22.413401
-34.391602 -24.8507 -12.522
-26.1539 -25.8095 -24.7943
-5.2916899 -25.2292 -35.883099
16.347 -24.513901 32.786598
19.737101 -24.1612 31.2922
-31.8668 -25.246 18.5035
35.251598 -25.115 9.3353004
-28.986601 -25.9939 -20.916401
8.82271 -24.3862 35.852501
-18.722601 -23.8195 32.691601
21.2677 -23.4872 30.8573
36.050201 -23.874901 9.5416203
-26.92 -25.2409 -24.6262
-18.179701 -24.8855 -31.8832
8.4763403 -24.4545 -35.828499
3.5541 -23.8325 37.162601
24.4566 -22.7362 28.6078
-28.8501 -23.3447 24.7041
-30.642 -23.9125 21.812799
-35.772202 -26.08 2.48614
-34.374401 -24.200701 -13.9326
-30.328899 -23.515699 -21.8599
8.1156301 -22.807199 -36.956402
26.0585 -22.5644 27.3864
27.6108 -21.9531 25.6294
33.328499 -22.8417 18.514601
35.1311 -22.4818 15.0651
35.688599 -22.5326 13.7573
36.968601 -22.2787 8.8228703
-35.430698 -22.5151 -13.6414
31.287901 -21.9891 -22.165701
-27.936501 -23.4977 -25.105101
-6.51056 -22.877701 -37.285099
-20.089899 -21.947701 33.0802
-24.9126 -22.715099 29.3172
37.574001 -22.0385 7.8780198
37.788898 -22.046 6.6375999
38.0835 -20.981001 -8.4481096
-36.693501 -21.7257 -11.1594
28.41 -21.867399 -25.5604
-18.3559 -22.4804 -32.688999
11.0841 -22.330099 -36.452202
-2.0292499 -23.5888 -36.998001
21.038401 -22.0404 31.9527
-25.631201 -21.693199 29.4168
30.2411 -21.249201 24.2708
-38.2826 -21.5919 6.9082599
-31.8046 -20.7749 -22.819901
-22.241899 -21.823799 -31.126301
-7.2218499 -21.0842 -38.2043
-26.4552 -20.7693 28.8508
27.215799 -20.603399 27.623199
39.2071 -20.7754 -2.09635
-28.7784 -21.983999 -25.795099
-19.7633 -19.6563 -34.399799
11.5996 -20.2551 -37.7159
38.830502 -20.396601 -4.3071299
-36.2216 -21.125 -13.0005
28.1779 -20.1931 -27.377399
-23.1096 -19.034901 -32.769501
12.7449 -19.215799 -37.746899
-28.1705 -19.662701 28.255899
34.705101 -17.6999 21.7227
34.979 -18.1679 20.726299
35.4678 -18.419201 18.9275
-39.000999 -20.1924 6.4577298
-39.933998 -19.233 2.1047399
38.833698 -18.9543 -8.7351999
-38.536598 -18.7544 -11.1044
31.0219 -18.174801 -24.8155
-29.575199 -17.6005 -27.7481
18.516199 -18.102501 -35.270199
-8.10285 -18.7393 -39.182999
-4.4147201 -19.407801 -39.223598
-24.885 -17.4135 32.5611
40.369999 -17.182899 5.7639198
-39.2952 -17.8706 -10.1697
39.071701 -18.356001 -10.3867
21.409599 -17.726299 -34.481201
-25.6483 -16.491199 32.391499
-30.3214 -17.712799 27.0891
39.914501 -17.455999 8.3995895
30.891399 -17.255699 -26.2458
26.174999 -16.510799 -31.6723
23.130501 -17.2484 -33.242401
14.8384 -17.155899 -37.0681
-4.60815 -17.985001 -39.860401
4.56112 -16.7777 40.636299
9.6586304 -16.125099 40.036999
-26.1131 -15.7905 32.732498
-31.8358 -16.3013 26.486601
38.3554 -15.8604 -14.934
30.7726 -16.576401 -27.2005
25.3909 -16.436199 -32.402199
-25.9594 -14.9693 33.207298
34.031898 -14.9211 23.864401
40.293499 -16.6465 7.93084
-40.603901 -17.574301 1.91363
-41.356899 -15.4193 -5.7583199
-33.113499 -16.0532 -24.8829
31.0422 -15.451 -27.7847
20.8647 -15.6715 -35.428299
-23.0634 -14.3226 35.296501
-41.1735 -15.2029 6.4046202
41.1329 -14.8514 6.1385398
36.837601 -14.5519 -19.836599
-20.187901 -15.3486 -36.216801
-8.3903399 -17.271 -39.5644
30.7264 -14.6417 28.6875
35.322601 -13.9413 -22.2934
32.767101 -13.9094 -25.9095
31.6609 -14.4559 -27.526899
-29.8577 -14.6734 -29.427999
23.7799 -13.4165 -34.9603
30.3731 -13.4064 29.2279
41.083801 -14.5769 8.0591898
-41.505299 -13.2742 7.05932
39.9687 -13.8089 -13.3327
-29.4326 -13.6248 -30.4575
-33.307701 -13.8863 25.559999
34.2328 -13.3795 25.258801
-41.597599 -12.7184 7.9585199
-42.4604 -13.1377 1.9243701
-8.4564695 -12.245 -41.4384
-4.5218401 -13.2611 -41.699501
-18.5019 -12.649 38.255699
-41.491798 -11.7078 11.5866
41.403099 -13.2768 8.45362
-32.838799 -12.0048 -27.343
1.4056 -11.2903 42.515701
4.5606399 -11.4485 42.4245
-32.8237 -10.6389 -28.151199
-4.3231301 -11.8119 -42.098598
2.6194401 -10.7745 42.631901
41.9245 -11.6915 6.57127
-42.344898 -11.6669 -6.2761998
22.5413 -10.7402 -36.579498
-8.3185997 -10.4536 -42.006401
-42.7701 -10.1676 -0.237396
-42.9659 -10.1788 -4.42028
-26.106701 -10.4223 -34.5401
1.35675 -9.8674698 42.8862
-16.3169 -8.8177404 40.322601
-25.0121 -9.97715 35.395802
-28.306 -9.5508099 32.7729
-31.306101 -9.3593998 29.860001
33.715599 -11.5771 26.317801
-35.276901 -11.1066 24.513201
-40.7719 -8.29778 16.207199
-43.406601 -9.1036196 -4.1020198
28.8491 -9.8101597 -32.116798
-26.236601 -9.2111301 -34.488201
20.2612 -9.7720098 -37.742298
-18.757799 -11.006 -38.557701
-0.79823202 -9.2920198 43.076401
-43.611801 -8.6939802 -2.6803
-42.740398 -10.2862 -6.3761301
31.18 -8.3732996 -29.422001
-7.8964601 -9.07586 -42.312
-22.1994 -8.9900398 37.742901
28.8902 -8.7053299 32.366199
-33.072899 -8.3776999 28.3368
42.616001 -7.7571101 -9.8438501
32.9571 -7.1620698 -28.6404
31.920601 -7.7966299 -28.8297
28.4736 -9.4271402 -32.639702
-2.81657 -8.2454596 -42.850201
-0.59123999 -7.6753302 43.388699
-43.878799 -6.8983402 2.5552299
37.004299 -7.5602102 -22.8901
35.582298 -7.4022799 -25.1343
-34.5275 -6.6610999 -27.0998
16.7169 -7.2245498 -40.270901
10.5138 -8.1094303 41.986698
-20.794701 -7.4264398 38.672901
28.2132 -6.8473201 33.764599
32.865398 -6.6318402 29.5791
-34.181099 -7.1135201 27.6544
-39.666199 -6.2832899 19.569799
42.745998 -8.4683104 8.3848801
-43.292599 -6.1708698 1.05053
-7.4562702 -6.6652098 -43.0891
27.087999 -6.0281501 34.402901
-29.893999 -5.7364802 -32.408798
-18.792999 -6.57692 -39.283901
-1.06426 -6.0826201 -43.815498
-4.4661598 -4.21878 43.8657
-20.518 -6.0500202 39.206799
25.5291 -5.1846199 35.8685
-35.496498 -5.06918 26.204399
-43.9781 -5.60075 -0.87596798
-43.082298 -3.78791 -9.1040602
33.002201 -5.26861 -28.7701
-31.773899 -4.7383099 -30.3314
-30.9862 -5.8383899 -31.4575
12.1489 -5.0002999 -41.957199
-7.6668901 -5.5588002 -43.391201
1.39535 -5.81354 -43.296001
3.89797 -5.1728501 -43.471901
6.3547602 -4.8891501 -43.277199
13.469 -3.9858 41.554699
20.202801 -4.58324 38.9659
21.8088 -4.2630601 38.167
23.3342 -4.4395399 37.405201
43.119999 -6.39744 5.6230001
-35.9604 -3.8157699 -25.2521
-14.3027 -4.1717901 -41.619701
34.063999 -4.2484102 28.4498
-36.682899 -3.5011301 24.455601
23.060699 -4.5679498 -37.517601
-17.704399 -4.9295902 -40.1334
-11.3103 -3.0316801 -42.699902
-37.676201 -2.84268 23.466101
-41.1185 -2.5201499 15.7469
43.8839 -3.5852399 4.4274902
-15.8507 -3.1024499 -41.009998
-12.8199 -3.1565101 -42.2047
13.9785 -3.1567299 42.052898
-23.9461 -3.0025301 37.3204
-43.053902 -2.8280699 7.5667801
-42.594398 -2.1394401 -10.4956
41.647701 -2.9490099 -14.8595
-23.6131 -1.89935 -37.277
-15.2329 -1.77802 -41.483299
-6.75138 -2.3198299 43.8419
30.500799 -2.21035 32.492001
35.851501 -1.7476701 26.5884
-38.273899 -1.68706 21.302601
-41.640099 -1.53447 15.2866
43.599602 -3.4690001 6.1883998
-27.3696 -1.00437 -34.738201
-1.17498 -1.6018699 -43.8414
-24.145599 -1.28877 37.285801
28.436199 -1.2951 33.992699
-43.112701 -1.48053 9.5812302
43.278702 -1.32987 -9.3860598
-36.553398 -1.90063 -24.5511
0.85807598 -1.26173 -44.185501
4.4526501 -0.97013199 -43.7575
-10.3166 -0.83236301 43.182098
-13.2021 0.085349999 42.567799
-19.528999 -1.3720599 40.114201
26.7658 -0.71808398 35.380199
33.8433 -0.69357997 -28.273899
13.6559 -0.31007999 -42.001801
12.1222 -0.53736103 -42.494999
-6.7659898 -0.88144398 -43.626598
6.63132 -0.53027803 -43.6931
8.7528496 -0.38038301 -43.047298
24.111401 0.2129 36.8102
-41.482601 -0.32353699 15.4542
43.916199 -0.73607397 2.6036601
-43.167301 0.96847898 -8.0360203
-7.9914999 0.0067750001 -43.558399
-13.4688 1.06344 42.463799
20.7689 0.551741 39.236801
-25.9769 -0.18105599 35.8242
32.8503 0.49879 30.0863
36.1763 -0.63659602 25.196699
43.5555 0.58011198 4.6559501
44.0924 1.35317 2.09479
-34.2743 0.047350999 -27.806299
-26.521099 1.78826 -34.899101
-23.2796 0.35739201 -37.5387
-16.679199 2.08762 -40.844898
14.9765 0.51047498 -41.714802
-28.7369 -0.238754 33.250702
37.8909 3.43694 22.9716
-29.0275 2.0376401 33.534599
-41.186699 2.2160599 16.087799
-11.2453 2.4116199 -42.6563
-11.8871 3.3059399 42.8964
-18.825001 2.7730401 40.271801
43.941502 2.27122 4.3989301
-37.2766 3.2613399 -22.4062
32.831902 3.73564 -29.297001
-30.7278 4.3123798 31.9694
38.4538 4.9251399 21.019699
41.9711 3.0826099 -13.7787
-17.4778 4.0950799 -40.331902
-19.2966 3.6117301 39.578201
33.7915 2.4254999 28.5667
-22.803499 3.8585601 -37.763599
-41.057301 5.2561798 -15.0172
-40.3522 5.62638 -16.843
-38.504902 5.2990098 -20.7633
-34.734001 4.6934299 -26.4104
-7.0581999 5.9110498 43.317299
-32.2785 4.87921 30.1311
43.009998 5.4626999 -3.6447799
-26.1971 4.6438398 -35.257999
41.430401 6.8081999 12.9576
42.9687 6.5804501 7.6156702
43.629002 6.5167098 -1.9131
-8.1893902 6.4319701 -42.678001
12.6948 7.6434002 42.001099
-31.086901 7.0039401 31.0368
43.437 6.9749799 4.1216998
41.768501 4.9955201 -12.836
17.3867 6.8583899 -40.096802
7.1803002 6.4621801 42.908298
-14.4606 7.7403498 41.343899
-22.8421 7.5696101 37.370899
43.144901 7.6464701 0.92468101
-35.497601 7.2716799 -25.0448
34.681599 6.5882702 -26.186701
-5.9293199 6.1614299 -43.317902
6.5886102 8.6453199 43.115601
-23.230101 8.7100096 37.082699
36.369499 7.6696401 24.1415
43.099098 7.7853599 3.4189999
43.199402 8.1062403 2.44591
-25.727501 6.9260402 -35.2761
-22.241699 6.0057201 -37.400299
21.712299 8.3614502 -37.7103
17.775801 8.4773598 -39.676601
-4.69596 8.1409101 43.265202
13.4235 9.9445601 41.160198
15.4777 10.3028 40.303799
36.513699 9.1223497 23.396799
-41.039299 10.3019 12.9493
-40.008499 9.5537996 -15.9561
-7.56076 8.4921398 -42.500099
-5.2329202 10.7914 -42.5383
16.552299 10.6872 39.888302
36.3876 10.1027 23.2103
37.723801 9.9612398 21.076
38.838699 10.0644 18.2218
42.3344 10.8799 -5.4742398
-41.848499 8.5016098 -9.6149302
-17.4566 12.9837 -38.367298
-9.3478403 10.1691 42.023998
11.5828 11.3596 41.164799
18.169399 10.9713 39.107201
40.880501 10.5654 12.1989
40.530701 10.2921 13.4469
-0.93123502 12.5488 42.716
-8.0705795 11.6684 41.875702
14.7192 11.6285 40.267799
13.2543 11.2378 40.683701
-23.2623 11.3284 36.371101
-32.647701 9.1648502 28.2087
36.182598 11.6897 22.261299
-41.250301 12.7601 8.5826902
0.139222 13.0045 42.507099
16.715099 12.0105 39.463001
21.7575 12.5379 36.5023
34.777699 11.8851 24.137501
-40.833801 11.8638 12.4071
-40.369099 12.4119 10.5503
-41.068501 12.9187 10.1714
41.8517 12.3134 7.3587799
-41.615101 13.0331 6.97017
-24.636999 12.236 -34.191601
32.815399 13.27 26.1968
41.763302 13.5001 -3.6043601
18.6991 13.3834 38.275902
20.467899 15.1019 36.3465
-22.795 13.4742 35.927299
31.767 14.1687 27.3915
33.401699 14.1707 25.1001
41.1119 13.798 7.8475199
21.2598 13.1884 -36.491001
-13.5799 11.9493 -40.3167
18.6285 14.2218 37.939098
30.1273 14.7831 28.815201
-21.318001 11.9766 -36.4207
-4.5510602 14.1568 -41.511002
22.8811 14.7826 35.185398
40.025501 15.4533 10.3323
40.820801 15.653 -4.39501
-39.118698 14.0353 -13.3715
24.392 15.6971 33.341599
39.060902 16.284 12.1673
35.307098 15.2058 -21.3064
34.527199 15.5438 -23.0508
-20.246901 16.505301 -35.2915
-5.2737098 16.3888 -40.455399
-3.63059 15.8999 -40.844799
-21.363701 16.8783 35.332001
26.394699 16.3806 31.504999
38.352501 16.427799 12.8248
-13.126 15.1204 -39.259102
-32.314701 18.196699 24.5776
-37.361301 17.344 16.443001
-39.957699 17.400801 7.3977299
40.7136 16.9666 1.1222
0.476648 18.141001 40.605202
1.34428 18.8867 40.276501
17.580299 17.1003 37.050499
19.556801 17.030001 35.903599
39.576199 17.5882 -5.0409002
34.012001 17.974501 -21.870899
2.12356 18.155199 -40.046398
4.2814202 18.653601 -39.729698
-29.851999 17.7684 27.448799
38.6436 18.8169 9.90728
39.033298 18.9837 -6.9257102
-39.0625 18.1022 -9.9482098
38.109901 19.198 -10.4326
35.025002 18.933599 -19.315399
20.6584 17.2141 -34.888199
-34.802799 18.9921 19.5173
-39.6469 19.2766 0.42177501
23.575701 20.1696 -31.217199
-16.947001 19.378201 -35.9911
6.72718 19.5797 -38.764198
-20.594601 18.0732 35.0462
37.558601 19.944901 10.8009
39.671101 18.802099 0.44501701
33.290699 19.938801 -21.411699
-22.7248 19.4408 -32.164501
-19.1187 19.2626 -34.690399
-18.453899 20.179399 -34.957401
-0.36467099 19.766001 -39.3274
0.76949197 21.597099 38.759701
-12.2488 21.3179 37.306
-37.157501 19.4004 -13.3845
8.7468395 20.9261 -37.7672
-10.4182 22.359501 37.0373
-28.3589 20.9592 26.833599
38.099201 21.9217 -0.23503
-37.282799 22.026199 -9.0754204
-36.211899 22.1196 -13.0102
25.344 22.4189 -28.5044
9.5938597 21.437401 -37.472099
10.7332 21.387501 -37.134602
18.363001 20.1744 34.839298
-27.7633 22.2391 26.930099
-31.1749 22.471701 22.2754
-32.2911 21.6819 21.8501
-38.507198 21.7152 -0.71250498
31.0175 22.4058 -22.225401
29.680201 22.805901 -23.440399
19.3211 21.984501 -33.139
-14.117 21.688801 -35.694
-37.384899 22.2313 3.2415099
28.3757 23.3932 -24.521999
26.993799 23.0056 -25.4863
26.117901 23.079 -26.8547
-7.7340002 24.3631 36.422699
35.077499 23.5714 12.3939
36.379299 23.3088 -8.6625996
-35.604099 23.3971 -12.628
7.5321102 23.647699 -35.767502
-0.30017501 24.039101 37.068199
-25.687099 23.8787 27.3428
-29.8349 24.082199 22.836201
-37.011501 24.3265 2.1566401
35.965801 23.402599 -10.185
34.1623 24.2255 -13.4596
-20.7229 25.180901 -30.2022
-15.1809 23.913799 -33.9072
-4.4384198 26.5858 35.453201
-13.8139 24.973301 34.16
16.1551 24.446199 33.018398
17.2911 24.683901 32.190102
30.4606 25.0763 19.9163
-35.848099 24.7096 -8.3899698
7.2943001 25.007999 -35.447498
0.93496001 25.063101 36.676201
15.9274 26.151501 32.007
29.957001 25.4121 20.365999
-35.683201 25.788601 1.767
-35.709702 26.1532 -2.2936599
32.0868 25.0336 -17.0641
30.7507 25.531401 -18.565001
-3.2881501 27.1612 35.303101
-1.0493799 26.5089 35.772499
16.492701 27.804199 30.271601
17.2363 25.9454 31.4464
-27.628799 26.687401 22.396799
-30.3092 26.3606 18.909201
29.4545 26.2637 -19.9692
-2.2290499 27.0973 35.346699
-35.149601 27.0301 1.75614
25.7311 26.669701 -23.9846
5.8101501 26.499201 -34.287899
0.19159301 28.0172 34.519901
26.933901 27.3451 21.917101
-28.3043 27.157301 20.4186
-32.359699 27.8477 12.0091
33.890999 27.7066 -2.6865499
-33.569 28.6262 -6.2333398
-22.6514 27.879499 -25.9618
-11.4564 27.537901 -31.973801
-8.25035 28.496401 33.137299
24.1196 28.9695 23.121799
-29.9473 27.7994 16.665501
-32.444401 28.140499 9.9418602
33.3965 28.370199 2.36851
-33.618698 28.848 -5.0880098
-32.0695 28.927799 -11.0706
-31.2477 28.5956 -11.8894
-29.630899 28.742201 -16.700701
18.7987 29.1763 27.3312
28.599501 28.6028 17.877199
27.3757 28.7076 -19.351101
-27.3535 29.1306 -19.3813
26.213699 28.7234 -20.493601
-25.025499 28.819799 -22.0348
8.9480696 31.0341 -29.9058
-7.5681601 28.857 -32.179401
-4.4545102 29.4676 -32.4646
19.731501 30.261801 25.671301
20.679701 30.447701 24.8183
-31.001301 29.0399 11.9284
-32.582901 29.979799 2.12711
25.5791 30.065599 -18.8836
-12.1452 29.595501 -30.116301
4.8935199 29.4764 -32.187
-5.93853 29.9422 32.2197
17.8461 30.450399 26.4207
-21.1798 32.2537 21.599001
-31.162701 30.167801 8.0252504
32.352901 29.372999 2.84355
26.725599 29.8118 -18.1178
1.91802 30.3249 -31.333099
4.2070799 30.393101 -31.611099
25.3536 31.5142 18.2125
-30.9816 31.718901 -2.0385001
-20.7656 31.371099 -23.254499
-3.5051899 31.786301 30.757299
5.5873299 31.995899 30.1203
9.7406101 32.750301 28.372101
25.0019 33.000702 15.6238
24.962299 32.1236 -16.3594
-25.428301 32.137299 -16.385599
-23.0809 32.2216 -19.606501
8.92974 32.2267 -28.6679
25.7824 33.145302 13.2792
-27.856899 32.895901 -11.3046
-27.272499 32.521801 -13.4809
24.634899 33.1978 -14.6294
-6.0644498 32.226299 -28.799801
-1.4728 33.0947 -29.179399
-3.39728 32.489799 29.366699
20.6786 33.4575 19.4949
26.7841 33.365299 9.9321499
-28.5275 33.341 -1.46568
28.309799 33.618401 -1.6243
-27.9419 33.1824 -8.7757301
0.27719 33.046902 -28.623699
23.0341 33.3568 17.5627
-27.829599 34.554699 -0.72370601
9.3579702 32.488899 -27.766899
-4.8172798 34.516399 -26.7071
24.0361 34.080502 14.494
25.746201 34.590801 9.3895397
26.7001 34.4646 -1.42867
0.936656 35.810902 25.9561
-15.7887 34.766399 22.7288
14.2245 35.406101 21.5828
-19.1168 34.518501 20.425699
-3.3869901 36.195499 25.199699
25.2159 36.020599 4.2750001
25.2915 35.6889 -1.49448
22.773199 35.668499 -11.2382
-3.45085 34.945499 -26.3549
23.108101 37.331699 3.18769
-24.740601 36.388199 -3.3534999
23.5396 36.990898 -2.14677
22.374201 36.5448 -9.3517504
21.867599 36.5341 -10.602
13.472 36.959202 -19.5984
-3.59392 37.002499 23.9247
-22.933901 37.525299 2.0660901
-23.3501 37.841499 -1.81662
21.1775 37.448399 -9.2424603
20.462299 36.748901 -10.5178
7.6473398 36.433201 -23.229799
-0.31689 38.0513 22.837299
-20.673901 39.099098 3.17518
9.4629602 38.0382 -19.9823
-5.4116001 38.735802 20.274099
-15.5111 38.391399 16.223
20.2869 38.877201 2.4105899
-6.98317 39.828499 18.8972
-14.8756 39.179199 14.8021
-18.9988 39.911999 3.9394901
-19.396 39.9482 -2.17413
17.945801 39.694801 -7.1861701
18.0242 39.272598 -8.6149302
10.7345 39.7187 -15.9546
9.9891701 38.8876 -17.955999
-16.9107 40.5336 -0.071914002
-17.300699 40.7887 -1.13284
-16.693399 40.141602 -1.83123
-17.253201 40.555901 -6.4584398
-2.8317699 39.9711 -18.342199
-17.851 40.116798 4.3899999
-12.7372 41.531601 -8.6226397
-11.0378 41.575001 -11.6519
-9.3566198 41.6427 -12.2786
-8.3816204 42.056499 12.5295
-11.6101 42.186001 8.6058903
-11.9809 42.313301 7.4942799
-13.0467 41.7738 6.6178098
