# .PCD v0.7 - Point Cloud Data file format
VERSION 0.7
FIELDS x y z
SIZE 4 4 4
TYPE F F F
COUNT 1 1 1
WIDTH 1604
HEIGHT 1
VIEWPOINT 0 0 0 1 0 0 0
POINTS 1604
DATA ascii
23.311401 61.5513 56.599819
54.235466 61.994698 41.017723
20.449642 60.8951 57.613419
22.278881 62.625301 55.501476
54.616848 62.559601 40.340164
57.019981 62.392399 32.959217
56.681702 62.870499 29.196991
56.904282 62.456402 29.342342
55.91806 62.6908 25.42551
55.937115 62.584999 24.58663
55.982048 62.4118 23.020962
55.058487 62.610699 23.209949
55.047966 62.087299 21.494614
54.033638 62.043499 17.700657
4.5999813 62.124901 36.942589
4.225832 62.714802 36.204819
46.017883 62.004299 7.6456184
45.690384 62.048698 7.0173626
26.884226 61.8358 3.2836723
26.549906 62.389702 4.460743
22.91753 62.745899 4.5107384
23.248512 61.7397 4.1392517
15.098833 62.645302 7.7962914
15.536391 62.280602 6.8507862
42.912079 62.982101 52.356667
44.306133 62.106998 52.017979
38.549385 62.8437 54.705597
41.377625 62.837299 52.919155
44.174335 62.737801 51.65773
49.881531 62.286999 46.538532
48.739574 62.975201 46.858856
51.581902 62.672401 43.705383
24.695621 62.3866 56.716782
52.052383 63.5499 42.509502
22.971899 62.6031 55.325397
55.996414 62.930302 26.427637
54.93428 63.089901 24.080784
54.090759 62.361 20.982506
52.512852 63.534401 21.398792
54.378986 61.810799 19.674053
53.301987 62.634701 19.312286
6.4202042 63.232101 40.365261
52.532234 63.354401 18.931477
5.6282005 62.369598 39.297157
4.1226234 61.311001 38.139091
46.186676 63.676998 10.296665
45.948288 63.491901 9.7243958
24.525116 63.2617 4.9290314
15.731384 63.2752 8.0445194
39.016899 62.673 54.139809
40.004124 62.603199 53.541092
40.27634 63.884602 52.10025
45.374649 63.501202 50.211555
46.730545 63.022999 48.983688
47.009354 63.666401 48.300888
48.638309 63.485001 46.507648
49.613152 63.992298 45.169601
51.378704 63.291199 43.394089
24.010771 61.8228 56.75444
23.93297 62.800098 55.189167
23.081703 64.0298 53.831421
24.090237 64.151794 53.459549
54.833321 63.722401 24.426258
53.694633 63.1455 22.423254
7.3229485 63.480099 39.646324
6.6127281 63.195499 38.286755
5.4663315 63.5755 36.763184
31.683012 64.379601 5.1237144
31.557413 64.301399 5.7859402
29.148041 63.105801 4.6104507
28.337456 63.727299 5.9562054
15.566201 64.107201 9.3204784
25.768543 63.082199 5.1021595
37.705711 64.172501 53.748913
24.890114 63.731998 54.312416
22.242855 64.434204 54.13464
52.062702 65.253403 23.217754
53.556568 63.876598 23.128078
52.320339 64.255905 22.490616
8.4118214 64.224098 40.127495
51.593697 63.937199 20.482752
50.999809 64.313202 19.5674
8.070694 64.5084 37.99279
51.85907 64.326202 18.439079
5.9900017 63.257599 37.336761
45.238968 65.118103 12.269802
46.245506 64.597397 11.722822
31.409637 64.880402 7.5938835
29.881296 65.061798 7.6426582
32.835854 65.216705 7.7441139
28.897057 63.4296 5.483963
26.553535 64.453003 5.969244
26.98877 63.373001 5.4991646
16.073917 64.057495 9.2172337
40.472721 65.227501 51.377213
37.41156 64.677795 52.466362
38.001144 64.3703 52.109451
25.798878 64.261002 54.654617
9.3078327 65.168594 40.865425
8.4575787 64.242294 39.122505
49.572105 65.379196 18.991135
34.453129 65.931 7.9358902
28.25069 64.713898 6.8184605
38.518394 64.680603 51.303993
38.922836 64.874405 51.034294
38.756176 65.815102 50.100548
36.418419 65.667999 50.722824
25.78421 65.756104 52.014893
24.80135 65.082596 52.223183
23.913277 65 52.289513
22.953018 65.257797 52.558102
10.521322 65.546402 40.416542
50.648872 64.9627 22.12134
10.355934 65.442398 38.971046
9.4941807 65.278305 38.375912
8.9649887 65.705597 37.788128
43.330425 66.276001 13.099327
31.549606 65.727295 8.9666462
28.816219 65.720901 7.6282272
17.316734 66.273605 12.184839
35.380104 66.301399 50.482742
37.495995 66.516998 48.873341
24.565155 66.263 50.11829
23.816334 66.387497 50.198357
11.786423 66.474503 40.9245
49.244755 65.5364 21.755373
49.203903 65.332802 20.881474
11.382343 66.237999 38.461708
10.79097 66.522598 38.063316
48.866009 65.489197 19.873394
47.144646 66.4496 19.029411
42.26001 67.094696 14.22274
43.225098 66.602699 13.645548
41.277931 67.022598 13.324142
36.067799 66.3955 10.089584
34.007721 65.697601 8.5367241
32.601116 66.014404 9.7415619
32.611359 65.430901 8.5856342
34.277447 65.963799 9.8531723
17.521912 65.928604 11.689629
33.793484 67.074005 49.306911
36.506207 65.995499 49.662697
37.331165 65.634201 50.071564
32.685711 67.473701 49.128899
35.381302 66.486496 49.125359
26.495029 66.811905 50.67638
25.699394 66.290695 50.593349
25.523277 66.467896 49.904987
24.116041 67.731094 47.304794
49.869957 66.527802 23.474251
48.197014 66.680496 23.047142
47.019447 66.769897 22.241123
12.423471 66.8657 37.816402
46.621315 66.642197 21.298832
12.75069 67.699005 35.900635
45.747498 66.787796 19.791691
44.658386 67.350098 18.407291
42.559105 67.926697 16.311554
41.50132 67.009003 13.967888
39.667843 67.217896 13.041294
37.984913 66.990295 11.920303
36.979809 66.762802 12.119217
35.862633 66.783295 12.206757
32.939594 68.174194 11.960735
30.394772 66.367905 8.84688
18.309242 67.270302 13.734365
35.742901 67.102097 47.805038
35.857071 68.285202 46.720692
29.666664 67.816803 48.970345
32.423218 67.4562 48.105442
34.089188 67.307999 47.624184
34.916817 67.595505 47.005108
26.964237 67.054596 49.201168
30.033779 67.6119 48.103035
28.119959 67.366699 48.476658
25.194992 67.3125 47.813908
23.424479 68.150101 47.301556
14.116673 67.274796 40.580273
14.516092 67.249496 39.774574
47.034599 67.518097 23.334621
11.358898 65.828995 39.646824
14.137915 67.306503 37.921017
15.102025 67.771896 37.957176
13.372725 67.276001 37.109657
43.945274 67.393005 19.622337
12.930281 68.058502 32.082214
41.752014 67.599998 16.308077
41.449615 67.627106 17.186729
39.878998 67.600098 16.46489
38.722382 67.159302 14.038935
40.165409 67.137299 14.549391
35.229576 67.182899 12.734549
37.431458 67.2211 13.929443
34.578812 67.4627 12.788752
32.220894 66.9039 10.610903
19.548191 68.701004 16.602482
19.199648 67.654205 14.600847
18.365517 66.484299 12.043457
29.223568 67.746704 47.28059
31.740601 67.812897 46.942356
32.673809 68.122002 46.163273
26.529881 67.328201 47.866486
15.657435 67.795502 38.804214
45.37006 68.5755 23.262493
15.132244 68.546005 36.995758
44.756371 67.729401 22.048182
14.222509 67.937897 36.105362
13.538805 67.649506 35.621834
14.264627 68.528397 34.236946
44.109924 67.563797 20.95764
13.850739 68.054504 33.77882
13.570122 68.072495 31.932652
41.821388 67.978897 19.618567
42.845207 67.571304 18.563234
40.633106 67.873199 18.030022
36.399269 68.488098 16.213814
35.992668 68.163803 14.943624
37.214451 67.714699 15.096278
34.475113 68.2966 13.541723
19.757059 68.087799 14.872195
33.809704 68.330101 45.97509
29.620344 68.173401 46.333023
31.825258 68.7314 45.438366
33.725777 69.071198 45.424583
28.513729 68.378601 45.87532
32.268845 69.440399 45.052994
29.198044 69.005005 45.283131
27.233135 68.779099 44.987213
25.862129 68.4646 45.136623
24.584869 68.617599 44.826675
23.403992 69.086899 44.848591
19.353498 69.472702 40.851616
17.743509 68.925201 40.813652
16.825333 68.211395 39.926201
18.264444 68.717201 38.976124
17.167891 68.419998 38.79673
17.693317 68.894897 38.034809
16.187765 68.4403 37.973068
16.037703 68.874901 37.532001
45.097893 68.0653 22.802109
42.20314 68.813705 22.261105
42.662567 68.268501 21.519491
14.079791 68.396896 32.110157
14.473527 68.740501 30.204998
39.153015 68.473099 18.693455
15.524014 69.422104 27.514307
13.615898 68.225899 29.261887
15.200266 68.850296 26.567081
15.449209 68.915901 26.577301
35.357887 69.412796 16.472652
35.85141 69.091904 17.314274
15.572329 69.109001 25.273016
16.946264 69.184898 24.575073
17.332483 69.366196 23.485683
20.494778 69.220795 18.314213
20.3228 68.982101 16.989367
27.524994 69.5383 44.126747
24.171055 69.25 43.485176
25.221857 69.207703 43.100594
23.779053 69.610504 43.248146
24.569275 69.632904 41.682438
21.357376 69.914299 40.809097
23.415646 69.732803 40.425121
19.809101 69.224998 40.131622
19.432495 69.001701 39.515179
40.74725 69.854301 22.248127
41.276131 69.346497 22.289606
39.120911 68.877106 19.632381
38.717266 69.8423 20.49148
37.039452 69.6147 19.753899
38.313721 69.145004 19.563137
36.809387 69.219498 18.941792
37.033443 68.680405 17.582329
18.079105 69.853302 24.446575
34.28685 69.917297 18.07213
16.464233 69.260696 25.60272
19.077263 69.638504 23.347679
19.832298 69.563705 21.679049
20.723597 69.795799 21.280201
19.667889 69.620895 20.911411
20.687151 69.5541 19.954605
27.713911 70.155502 42.836857
26.928154 69.618195 42.733551
26.003267 69.270905 43.124229
25.618515 69.546997 41.872738
21.921894 69.635201 40.016251
23.625343 69.862801 39.183842
21.641607 69.565201 38.929153
21.046486 69.738098 37.830849
20.1682 69.780197 37.493435
22.503498 70.791504 36.743702
20.00658 70.190598 37.086029
35.654839 70.565002 21.192871
36.412441 70.317795 20.617079
34.572987 69.957596 20.428862
35.766697 69.6633 19.703077
31.818707 70.821999 20.962265
34.926319 69.609406 18.905266
33.383934 70.175201 19.726204
32.609612 70.666 19.486286
20.505358 70.272797 22.693882
27.970585 70.326599 40.381271
29.061117 70.960297 38.715744
27.153866 70.225403 39.621651
25.330147 70.333 37.961075
27.31926 70.623795 37.065678
23.694914 70.361603 37.415321
25.538979 70.734901 36.664104
24.174025 71.014198 36.541534
25.291901 71.174698 35.87159
32.636509 70.898605 23.852654
34.420071 70.657303 22.204159
33.326462 70.426895 22.028025
30.950626 70.809097 23.008301
32.387115 70.487198 21.699135
29.201021 71.254196 24.533482
29.420376 71.507301 23.30084
31.402288 70.764404 21.679193
29.80925 71.738701 35.759361
29.21945 71.307098 34.771355
28.444296 70.957901 35.662117
29.682474 71.762299 33.794331
26.503864 70.7276 36.309017
28.06971 71.060898 34.014626
29.111988 71.435898 31.934055
25.845076 70.9935 35.467178
27.417086 71.165001 32.639175
29.80752 71.913498 31.261885
26.37081 71.377304 32.715633
27.655046 71.324005 30.820433
28.477068 71.286896 31.168392
29.717178 71.561699 29.724672
26.889854 71.855698 29.97797
29.143347 71.3302 29.003382
30.631893 71.732895 28.012508
32.554955 71.469696 24.91367
28.293821 71.329201 28.920059
30.223291 71.358795 27.322502
27.219143 71.811005 28.413288
27.316328 71.552597 30.043318
29.41984 71.150696 26.594784
31.142187 70.996201 25.063234
27.219284 72.180199 27.301338
30.835316 70.875 24.213863
28.356379 71.695999 25.116455
30.693863 -14.252998 36.09494
32.571617 -13.9436 34.19249
31.310505 -14.5765 32.230705
32.893864 -14.237202 30.737024
26.265875 -13.738098 38.751804
27.55896 -13.678299 37.117668
29.725607 -14.1595 36.517052
35.994637 -14.021599 30.625116
36.756649 -13.746799 29.416077
35.994469 -13.782902 27.437103
37.040813 -13.537601 26.222534
22.713915 -13.921299 33.083763
21.384598 -13.782902 32.396664
37.809406 -13.1828 24.971556
26.885675 -13.050999 41.790886
26.967249 -13.2631 40.697842
39.547035 -12.702301 25.516171
20.283926 -13.5569 31.496237
40.535141 -12.251099 22.388597
19.407482 -13.3321 30.863615
18.373329 -13.112801 29.640236
18.96755 -13.030201 27.368748
31.716291 -12.262299 44.407204
32.584862 -12.461102 43.787689
36.208099 -12.188499 41.925026
27.222385 -12.411701 44.202427
19.510361 -12.447201 37.228882
41.182362 -12.308102 23.762363
16.048286 -11.847 33.707493
15.161109 -11.853001 33.184666
20.445601 -12.764198 22.324974
29.119423 -12.022301 45.419979
30.569462 -12.126598 44.956657
28.044491 -12.057499 45.407276
27.803305 -11.473701 44.62336
22.974476 -11.756599 44.21096
22.028574 -12.049599 41.61908
42.853741 -11.778999 23.099554
14.236774 -11.4636 33.204704
14.731903 -11.2817 25.547293
15.541793 -11.4646 23.36142
20.859371 -11.8601 19.086927
22.677237 -10.965599 45.819054
46.215927 -10.155499 21.315624
15.953032 -10.999901 21.42996
21.003918 -11.4566 16.979267
21.465855 -10.488701 14.172801
48.01429 -10.0383 37.5051
22.991734 -10.6143 47.388157
49.492569 -9.7151985 31.904478
46.060272 -10.2244 23.085608
47.717827 -9.8277016 22.973572
11.171192 -9.9808998 35.142235
10.990854 -10.052799 29.827412
21.921741 -10.172901 13.04364
23.442371 -9.5205002 11.360718
39.862553 -9.3917999 48.135345
33.925095 -9.3736992 49.962185
37.870995 -9.4560013 48.385223
30.381556 -8.9850998 51.185349
22.856628 -9.0633011 48.799484
49.178726 -9.5964012 34.160088
50.238754 -9.0522995 28.289337
49.240807 -9.3746986 23.562489
47.088894 -9.7346001 20.489756
46.658478 -9.3552017 18.840305
45.956028 -9.1762009 17.8741
43.998001 -9.2831001 15.334749
42.199387 -9.097599 13.275455
40.566925 -8.2514992 11.68936
27.00592 -9.1369019 9.1497478
9.3756199 -9.0205994 31.045538
39.873047 -8.6041985 10.377605
38.58054 -8.5723991 9.8740635
16.871937 -8.8340988 13.550909
17.66798 -8.5368996 11.999535
41.595203 -8.8047981 48.192665
43.07687 -8.4123993 48.447899
43.945038 -8.0419998 48.414795
22.022644 -8.2449989 51.729675
7.7080669 -7.9486008 36.149632
19.167648 -7.8497009 9.5343819
44.686119 -6.8171997 48.575783
21.616606 -7.2550011 53.185143
51.987534 -7.4650993 37.923874
53.471935 -7.3042984 34.361137
54.185562 -7.1778984 31.108717
48.033184 -7.1416016 14.071478
47.506927 -7.0402985 12.929665
19.45998 -7.450901 8.7663803
26.381329 -6.5177994 55.466644
50.422977 -6.7010002 44.299202
54.484982 -6.0340996 25.548775
50.846325 -6.7453003 18.218651
5.8639927 -6.7742996 36.797501
38.169289 -6.0639992 6.021841
31.825275 -6.2112999 5.0911407
24.719143 -6.6523018 5.4508209
39.693073 -6.0528984 5.9676895
46.672829 -5.6175995 50.075031
51.550343 -5.2490997 46.2817
21.464745 -4.887001 56.331406
21.584011 -5.5214996 55.792839
40.601585 -5.4216995 5.4676895
52.239822 -4.3238983 46.876987
57.273598 -4.6223984 26.759192
5.1769638 -4.5166016 42.9916
50.505306 -4.3852005 10.837595
46.022743 -4.075901 6.483593
20.874016 -3.6820984 2.4621239
52.89724 -3.2503014 48.252747
26.754116 -4.0261002 58.308121
21.536312 -3.6743011 57.946476
4.3430843 -3.3974991 44.665329
48.433388 -2.5458984 53.427814
26.6987 -3.1248016 59.394859
1.994669 -2.9961014 40.06002
0.84904671 -2.8995018 36.401672
0.24370766 -2.8754997 30.119114
45.254227 -2.8017006 5.1885452
11.295469 -3.0407982 7.5462341
16.194813 -2.9076996 3.5531597
3.6700401 -2.0679016 46.197952
0.048603058 -2.2761002 35.212067
52.685917 -2.9126015 10.802589
49.761299 -2.8123016 7.6846371
-0.43990517 -2.3254013 28.822762
-0.72028542 -1.8558998 25.617002
2.5404453 -2.1096001 17.7705
13.556362 -2.4297981 4.8099709
14.23093 -2.3152008 3.9860973
15.30089 -2.4744987 3.4154472
48.918205 -1.5904999 54.646507
21.760925 -2.6803017 59.369915
59.704247 -2.2434006 24.684544
8.1232719 -1.6315002 8.7248936
27.378342 -1.4214001 61.548729
21.287716 -1.1632996 60.7542
60.250488 -1.3171997 22.720741
55.652149 -0.4666996 11.240383
-2.1469421 -0.39900017 32.705688
1.0617123 -1.1331005 17.351482
60.976471 -0.13439941 24.264847
3.4185448 0.18810081 48.455948
0.42823792 -0.81060028 18.02721
13.166992 0.22500038 2.3278732
53.867611 0.58440018 52.513226
3.4315147 0.39570045 50.476814
46.666088 0.0055007935 2.1685143
-0.18044662 -0.34900093 18.047668
-0.36365509 0.21769905 17.417448
42.455292 1.7271996 61.253139
39.322838 1.4622002 62.383808
54.765972 1.7579994 52.356804
21.311075 0.41950035 62.355339
8.0311928 1.2303009 56.079796
6.4910583 0.92550087 53.857136
1.0174217 -0.019199371 44.382633
55.911446 1.6693001 8.0542984
47.649506 2.3202991 0.35477066
13.054644 1.1658993 1.3412113
18.269867 0.63470078 -0.73903847
45.815102 2.3178997 60.40926
8.8959484 1.9214993 57.251625
-4.156456 1.5923996 27.034058
-0.057826996 1.2422009 15.257753
48.33107 2.1660004 59.442596
62.545303 1.5174999 22.40748
-0.36893845 1.8448009 46.259102
-4.2120323 2.1739006 25.287395
0.21105194 2.1583004 13.042248
11.998438 2.3134003 0.68080902
19.794004 2.4794998 -3.3003387
54.63707 2.9820995 54.959095
27.607357 3.8899002 66.164619
28.569992 3.1166 65.677994
57.268127 3.2644005 52.30764
9.8969727 3.0870991 58.703613
64.829338 3.2278996 25.115219
60.885429 3.6828003 12.538155
-4.5579529 2.8083992 23.92207
44.564796 2.6446991 -1.4030724
16.910046 2.8304005 -2.2195663
20.650312 3.4400997 -4.4293098
53.152328 4.0520992 56.992153
33.164787 3.3013 65.607002
55.655212 3.3542995 54.276562
0.58905792 3.7579994 51.109432
-3.461853 4.4929008 17.607399
17.993069 4.5326004 64.584221
15.443153 4.7492008 63.479897
13.362764 4.3784008 62.488522
-6.4613991 5.1492996 33.185734
-4.1820068 4.1905003 18.58185
10.039248 4.7707996 -0.28476524
58.671631 5.4860992 52.806206
61.112541 5.8388004 50.019104
8.9387894 4.7539997 60.237358
65.894066 4.8850002 23.562687
-5.1104355 4.0060997 23.293571
53.14801 5.6138 58.764763
26.84763 6.1805 67.541168
62.315941 6.5128002 48.978088
66.70504 6.1250992 23.41217
-4.8052864 4.7591 19.057968
0.049173355 5.1145 8.7870827
22.540394 5.5454998 -6.0539017
48.926704 6.1674995 62.178726
64.255386 7.2637997 45.591667
14.293334 6.6553001 64.582092
11.447407 6.0874996 62.718979
-1.369936 3.9200001 47.371193
-7.0419579 5.7992992 31.900028
-6.725708 6.4843006 23.005751
21.736809 7.1928005 -6.923687
65.19101 7.4356003 43.807709
65.855331 8.0468998 41.559296
68.030487 7.1583004 32.694695
68.206375 7.5181999 28.806572
68.158936 7.4673996 27.385695
67.233635 7.7213001 22.372629
-7.8762245 7.4848995 32.610352
48.988838 8.0109005 -3.3117867
-5.9289398 6.5023003 19.053528
8.3420639 7.1222992 -1.0402927
25.772665 8.0522995 68.471199
19.811502 7.2849007 67.098923
67.383003 7.9615002 21.260452
67.053543 7.9540005 20.045429
60.945045 9.0189991 6.2486286
-7.9717712 8.2742996 35.393494
44.945911 8.1326008 -5.1721725
-0.45106316 7.5195999 8.1312447
24.64024 7.6699009 -7.7212563
12.524843 6.4111996 -2.6739769
62.57106 7.9596004 50.067764
19.20232 8.3068008 67.492889
67.665024 8.7507992 39.216373
-1.7762585 8.4081001 52.439934
-8.4688606 9.2250996 22.759354
-3.3125496 8.1762009 11.189823
7.3089447 8.9158001 -1.5727692
18.216322 9.2306995 67.328156
66.339958 9.3966007 43.533226
64.647743 9.2245998 11.530424
-6.9835701 8.0160007 18.783981
-2.4496155 10.3437 7.1755257
24.57338 9.7448997 -9.0844154
63.372116 9.6033993 9.685936
-8.3221626 8.875 33.525455
43.967659 9.8069 -6.7208443
-4.7933998 10.965099 10.067287
25.598272 10.784201 -9.5965347
16.410316 10.337299 67.513908
70.633911 12.3001 35.020443
70.461052 11.8321 34.00164
70.143845 11.580799 32.164799
-2.6177521 9.8076 52.335224
-5.3029938 10.767 48.784378
61.503628 11.0457 5.6713905
-9.6189384 11.2456 36.222267
47.627907 11.825199 -5.6009026
-8.531086 12.3995 17.3507
31.875544 11.897499 -9.7909393
6.0968742 11.2607 -2.0874443
9.4222965 10.592199 -3.6829109
21.207447 12.5865 70.027237
69.023582 12.817101 18.162785
-9.9114456 12.1294 37.389992
61.021378 11.643999 4.0740395
34.831299 12.273701 -10.298668
20.443987 13.508801 70.196106
13.967829 12.287201 67.36544
69.72464 12.544001 20.744017
46.905159 12.744301 -6.842041
40.337311 13.489201 -9.7668839
36.914505 12.7516 -9.9032173
27.782501 12.844101 -9.8660889
8.9778633 12.014999 -4.1783028
51.307423 13.2223 64.901382
55.674057 13.874901 62.20393
20.166847 14.2095 70.701591
12.340689 13.6987 67.459404
58.450413 14.1396 0.25550842
46.39402 13.423599 -7.6570892
39.318207 13.563801 -10.097023
20.506805 15.0307 71.066948
70.928909 15.0789 37.245991
69.870026 13.3535 20.159014
-5.9908943 12.425699 48.894287
-9.9156494 14.5807 42.259373
-10.526989 13.9468 21.442804
46.391464 14.549 -8.3004913
33.937195 14.3285 -10.926746
24.014408 15.6774 71.736511
-4.6091499 14.7971 53.205231
69.873322 15.1486 18.179892
55.002895 15.4481 -3.5463066
-3.6023331 14.6514 5.70821
5.6751328 12.729 -2.3116112
69.971436 15.3583 43.014168
52.591553 16.058701 -5.1326599
48.74725 16.090599 -7.3299561
47.06115 15.5441 -8.3283157
-9.4970741 15.3266 15.947586
36.777046 16.5835 -11.734612
69.879623 16.593601 43.653244
70.640533 15.4231 19.941341
-4.6331749 16.7258 53.938812
60.589298 16.191101 1.0249672
-9.5468903 16.3752 14.834886
10.615097 16.113701 67.241669
71.700287 16.620499 38.424839
-4.3368111 17.281601 54.79277
-7.6689148 16.862301 49.688614
4.8232117 17.755001 -3.9820824
8.2788506 16.738899 -5.8815689
29.399141 17.351 72.490677
-2.7076302 18.2922 58.036217
71.096603 16.7232 20.163876
-11.317711 17.995201 19.097103
49.241821 18.7097 67.938278
52.062714 18.5515 66.522247
-11.645584 19.361099 18.358244
8.2902756 18.188099 -6.3272514
50.391037 19.2255 67.530602
70.773636 18.3085 18.237534
-11.029945 18.333099 42.207558
34.970192 19.2598 -12.67865
4.7081165 19.5464 -4.5551376
-8.8632011 19.832401 47.860271
-10.808422 19.821201 44.152039
-8.2579842 19.5777 9.729208
49.354126 20.13253 68.294708
32.252934 21.182259 73.440506
22.290253 20.02285 72.650063
18.196478 20.44919 71.664963
14.246419 20.6406 70.292877
71.679092 18.422901 39.603199
8.3879967 18.8934 67.125168
-0.10243034 21.702221 61.919659
-11.07333 20.896381 44.626732
42.573017 20.18984 -11.299862
-8.3537788 20.78887 9.8311424
32.4123 20.227989 -12.76889
-3.2955284 18.993999 2.9822445
47.48143 20.707981 69.377823
-10.658459 21.306019 46.001968
-11.430622 19.7138 42.284138
45.824402 21.626701 -9.8426247
4.9615517 20.924141 -5.0105057
25.831352 21.00996 73.588554
69.861961 21.29467 47.124214
12.001425 21.622299 69.659073
64.46302 22.242889 3.0681419
47.76532 22.837931 -9.8852882
46.74593 22.203369 -9.6188126
42.011711 20.572861 -11.615078
9.3380432 21.754539 -7.645134
47.80101 22.324669 69.57338
-8.687809 23.10166 50.859806
53.86351 22.439789 -6.3841705
51.626297 22.597721 -7.8171387
-12.745411 23.3389 20.031193
28.131437 22.77545 -13.562698
57.273087 21.89057 63.609547
27.497475 22.573561 73.837769
69.839378 23.152679 48.677704
72.286835 23.36816 42.918251
10.70866 22.88648 69.508957
2.3207703 23.716709 64.499924
72.284637 21.531689 19.534042
-8.7924461 23.82913 49.248344
5.0320835 23.334789 -5.9008293
69.089355 23.971849 49.731731
-10.789711 24.263519 13.261406
-3.6343384 23.42308 2.3389587
10.518223 23.917379 -9.2605515
44.49073 25.781219 71.643311
27.973886 23.94998 74.204704
68.295906 24.81538 51.718834
8.9037056 24.93082 68.750717
-10.227894 24.39925 47.792053
-12.893364 26.21209 39.956287
47.751381 24.73139 -10.021896
-11.615532 25.26169 15.938646
-11.377548 24.16161 14.585156
23.278763 24.999701 -13.16048
4.7135239 24.4412 -6.0856133
12.966934 24.18646 -9.8292007
15.160742 24.82715 -11.046276
17.469633 25.110849 -11.9081
59.768833 26.0142 61.969101
64.777657 25.416759 56.777023
65.895554 25.73694 55.374252
66.956085 25.560459 54.039165
71.456375 23.60256 16.872869
-13.263191 26.184231 22.311348
-0.55189514 25.828209 -1.6756744
72.895874 25.751591 41.388206
7.0893898 26.498871 67.66716
35.044468 25.432051 -13.748363
-3.0067406 25.07041 1.1089916
1.7036285 26.968319 -3.9193153
5.7709694 27.15732 67.190163
-0.6110878 27.479851 61.648968
71.643463 26.414761 15.466532
-1.6971893 26.897551 -0.46888351
0.54474831 26.843491 -2.8325233
60.441147 26.843269 62.205299
24.069748 26.997471 73.943832
-5.8222237 27.17193 55.0532
-13.039265 27.860559 38.48893
61.46574 27.050991 -1.0683594
-7.1546783 28.100651 6.1948929
-1.3372955 28.221979 -1.1589355
42.409561 27.68017 72.587509
71.374825 27.78965 46.557556
73.729233 28.252331 38.945774
4.3149376 28.312941 65.481964
-1.278347 28.46553 61.452232
72.12999 26.531 17.182606
-9.4862785 28.99563 10.083393
10.406929 28.39813 -9.237236
23.874317 28.711229 73.99678
70.137878 28.704901 48.790188
-5.0241737 28.51947 56.903759
65.257103 28.67013 3.2029705
-13.504372 28.099369 23.197281
12.104082 28.73827 -10.408302
15.542751 29.029867 -11.539532
38.899529 29.167637 73.496254
36.024765 30.08535 74.158974
29.25371 28.627939 74.609123
69.210373 29.281916 50.753632
48.723381 29.306419 -9.9276505
24.625719 29.68992 -13.837791
23.027279 29.462639 -13.636608
5.4305344 29.118557 -6.6796913
17.544516 29.469723 -12.401913
19.7402 29.619617 -12.713215
67.409012 30.2129 53.171452
-1.0647774 29.676462 61.537567
70.901947 29.263926 13.799931
-12.519028 30.968479 40.960182
4.3486671 30.006775 -6.0999603
35.739098 31.06344 74.177429
65.405205 30.551741 56.783298
21.596895 29.818945 73.44606
72.487503 30.498791 43.384308
73.435448 29.363403 37.547199
71.442375 30.580112 15.812373
70.846581 31.35317 13.264271
-12.814514 30.047352 19.28388
-8.7852745 31.78826 9.5789757
-6.9630203 30.357391 5.8167706
-2.3782883 32.08762 0.030887604
25.943882 30.510475 -14.135792
18.007877 29.761246 72.280106
74.049034 33.436939 34.805954
17.864487 32.03764 72.660217
-0.52882576 32.216061 61.986748
1.7809639 32.411621 -3.9072685
37.355431 33.305939 73.901047
29.958353 32.773041 74.454437
71.683594 32.271221 15.416302
-13.253342 33.261341 25.446857
47.374359 33.735641 -10.42746
15.662008 34.312378 71.960243
73.734283 34.92514 32.799038
62.215603 33.082611 -0.22549438
-2.8852654 34.095081 0.83332253
29.237812 33.611729 74.025124
72.698303 32.425499 41.609318
-6.6265755 33.858559 5.4117317
-13.557091 35.25618 33.74136
-13.689671 35.626381 31.788635
-13.672241 35.299011 27.454935
-12.641212 34.693428 20.743271
41.909782 35.911049 72.24173
13.479698 34.879211 70.949532
67.439941 35.4627 8.5198975
-8.6433105 34.643841 9.1167755
73.024811 36.808201 24.234329
72.161392 36.580452 18.742785
68.732788 36.516708 9.8277283
4.5413895 36.431969 -5.2184181
59.255829 37.643402 62.700867
14.94242 37.003941 71.266785
71.109192 36.974979 15.37826
62.430389 34.995522 0.71450043
28.812061 36.858391 -13.687981
54.641392 36.462181 65.853592
34.366932 37.740349 73.581604
25.091652 37.569611 73.523026
69.493347 37.646469 12.604221
-12.756138 37.271679 22.303638
50.365223 36.588272 -8.3902855
6.3192749 36.16143 -6.7535095
54.192749 38.645321 66.291534
24.618206 38.710011 73.425804
73.164597 37.66964 36.509216
70.505981 37.785358 14.8842
70.185638 38.106239 13.95989
-8.2253571 36.926041 8.9019089
-5.9638748 36.005722 5.5035667
33.740963 38.36145 -13.353153
29.342289 38.47736 -13.471592
44.028679 38.140911 71.196182
59.560875 39.944561 61.630791
61.06068 40.302799 59.986488
72.98056 39.122349 35.773346
-1.7216263 40.301899 59.080009
-13.003353 39.553799 32.447186
5.186306 38.492142 -5.3228531
7.2799015 40.791401 -6.3412628
61.859001 40.687199 59.155773
72.78746 40.102699 35.657612
73.096474 39.961239 33.158577
72.900681 40.0644 30.100615
66.054482 40.879898 7.1473637
-11.991066 38.50161 38.971855
-2.0357742 42.9837 2.6048985
39.28809 40.169098 72.037247
57.894577 41.3596 62.412872
62.994484 40.971298 57.764442
72.205795 40.565399 23.779112
72.416199 40.292099 25.058014
47.20858 42.548801 69.107399
40.383011 41.6684 71.363052
60.358032 41.628502 60.274414
59.20615 41.237801 61.270443
24.288288 41.3284 72.794479
12.332645 39.164848 69.363281
72.2006 41.689701 34.884163
-3.7582664 42.760101 55.211689
48.090454 43.004501 68.465675
61.826809 42.010498 58.701519
65.145531 42.537899 53.887199
71.720245 41.885101 37.178314
-1.7645245 41.8638 58.501762
-2.1280785 42.4119 56.622536
-2.922081 42.918701 56.574718
71.040474 42.3134 18.982027
-4.7703667 43.0331 53.904419
-6.778698 42.236 9.4239311
70.812096 43.27 39.873978
66.327133 43.500099 9.0834064
63.123238 43.3834 56.787163
63.910912 45.101898 54.291008
24.524248 43.474201 72.194778
70.366829 44.168701 41.399815
70.879974 44.1707 38.632248
70.576538 43.798 19.737629
33.846157 43.1884 -12.056858
0.65385818 41.949299 -0.8002243
62.916908 44.221802 56.511753
69.482437 44.7831 43.383095
-4.7127228 41.976601 6.0010147
8.3320313 44.156799 -5.6983795
65.607315 44.7826 52.21883
70.642044 45.4533 22.448734
65.138794 45.653 8.765152
-11.104618 44.035301 34.413582
66.197426 45.697098 49.909245
70.54332 46.284 24.519468
52.994625 45.205799 -4.2315826
51.550579 45.5438 -5.4829445
-3.2647552 46.505302 6.5717506
8.1232052 46.388802 -4.4362755
9.4478092 45.899902 -5.4836044
25.569862 46.8783 71.050354
67.236313 46.3806 47.398342
70.179169 46.427799 25.414749
1.5121899 45.120399 -0.033542633
11.09988 48.196701 65.931656
3.0882759 47.344002 60.691986
-3.0875587 47.400803 53.591476
67.373314 46.966599 13.810747
47.592491 48.140999 66.599365
48.239918 48.8867 65.934784
61.591377 47.1003 56.149399
62.897995 47.029999 54.274651
63.737843 47.5882 8.7057686
51.582298 47.974503 -4.195858
15.000259 48.155197 -7.1918182
17.089787 48.653603 -7.8167381
14.545266 47.768402 67.493057
69.209991 48.816902 22.647552
62.449249 48.9837 7.2269897
-9.6069412 48.1022 37.492386
60.130291 49.197998 4.4389133
53.580391 48.933601 -2.3078995
33.978477 47.2141 -10.350063
6.7063198 48.9921 62.39698
-5.7540436 49.2766 47.137764
38.173882 50.169601 -8.2559128
-0.56969452 49.378201 4.5430984
19.714437 49.5797 -7.9753227
26.146118 48.0732 70.466293
68.604309 49.944901 23.915989
66.142303 48.802101 13.63759
51.122643 49.938801 -3.4748459
-4.1889687 49.4408 10.45298
-1.988224 49.2626 6.6397343
-1.4985504 50.179398 6.1167908
13.049019 49.765999 -5.4886093
47.077957 51.597099 64.803009
34.665016 51.317902 68.987289
-9.3326645 49.400398 33.572964
21.966219 50.926102 -7.9252815
36.210545 52.359501 67.970116
15.638478 50.959198 66.304489
64.430275 51.9217 13.685572
-7.6251259 52.026199 37.531265
-8.3174744 52.119598 33.512566
40.922981 52.4189 -6.5445976
22.858597 51.437401 -8.0157928
24.033821 51.387501 -8.1914215
61.366257 50.1744 53.814587
16.219059 52.239098 66.140236
11.159939 52.471703 63.363449
9.9685764 51.6819 63.449722
-5.200489 51.715202 45.628098
48.71854 52.4058 -3.2516174
46.993057 52.805901 -3.7876091
33.505714 51.984501 -8.1995811
2.1207161 51.688801 3.6163521
-2.5123024 52.2313 48.737347
45.353672 53.3932 -4.216568
43.693714 53.0056 -4.5065041
42.321571 53.079002 -5.3765259
38.383514 54.363098 66.278702
67.0289 53.5714 26.408295
59.309868 53.3088 6.7744617
-7.6050949 53.397102 33.602089
21.710409 53.647697 -5.5995712
45.393646 54.039101 63.722054
18.275148 53.8787 65.636826
12.611395 54.082199 63.305401
-2.6323776 54.3265 47.596317
58.291718 53.402599 5.5694504
55.273285 54.225502 3.3638458
-1.5453281 55.180901 11.385387
1.9116306 53.913799 5.6853676
40.960594 56.5858 64.007271
31.916996 54.973301 66.797478
58.595673 54.446198 53.097389
59.275185 54.683899 51.866604
66.023666 55.076302 35.17709
-6.0351639 54.709602 37.546165
21.630119 55.007999 -5.2090454
46.347393 55.063103 62.844795
57.961868 56.151501 52.276981
65.757309 55.412102 35.797485
-1.593195 55.788601 46.681816
-3.3333206 56.153198 43.01281
51.868916 55.0336 0.97420502
50.023689 55.531403 0.17858887
41.939659 57.161201 63.385105
44.167049 56.5089 62.86438
57.740791 57.804199 50.465271
58.911217 55.9454 51.21574
14.425101 56.687401 61.974831
10.52191 56.3606 59.946777
48.255493 56.263702 -0.5462513
42.917953 57.097298 62.977024
-1.1141796 57.030098 46.446465
43.183964 56.669701 -2.6118622
20.775093 56.499199 -3.5308647
44.762383 58.0172 61.204681
63.67297 57.3451 38.480881
12.976868 57.157303 60.467449
5.7474174 57.847702 54.559742
59.580292 57.7066 13.242205
-3.0581703 58.626198 38.537548
-1.5010681 57.879501 16.043514
6.1042633 57.537903 5.8635807
36.527073 58.496399 63.519341
61.631477 58.969498 40.762081
9.9016762 57.7994 57.760349
4.7970009 58.140499 52.721981
61.268482 58.370201 18.032627
-2.619175 58.848 39.596573
-3.7434731 58.927799 33.519787
-3.3447113 58.5956 32.430393
-3.912735 58.742203 27.386585
58.588074 59.1763 46.825806
63.475182 58.602798 34.11557
46.632683 58.7076 0.89247513
-2.9815826 59.1306 23.994667
45.09671 58.7234 0.34810257
-1.9931126 58.819801 20.605923
25.470966 61.0341 -0.88547707
9.5413151 58.857002 4.0340023
12.24271 59.467598 2.4596386
58.731972 60.261803 44.927208
59.230843 60.447701 43.753399
6.9444389 59.039902 53.912518
1.3688202 59.979797 45.697945
45.201981 60.065598 2.0754509
6.2650108 59.595501 7.8381462
20.83222 59.476402 -1.239418
38.234497 59.9422 61.710693
57.339928 60.450401 46.403198
19.932716 62.2537 58.526314
5.1486187 60.167801 50.443275
60.523422 59.373001 18.904205
46.564705 59.811798 2.2849693
18.496376 60.324898 0.79197884
20.45348 60.393101 -0.42737198
60.675102 61.514198 35.791237
1.0596275 61.718903 41.24588
1.3521996 61.371101 17.700188
39.821815 61.786301 59.356937
47.793228 61.995899 54.936954
50.818558 62.750301 51.597298
59.262321 63.000702 33.593712
45.709743 62.1236 4.6238251
0.029281616 62.137299 25.896069
0.79553604 62.2216 21.984886
25.977514 62.2267 0.24419022
58.978821 63.145302 31.138927
-0.024454117 62.895901 31.52739
-0.41455269 62.521801 29.308012
46.14415 63.1978 6.3301029
12.33242 62.226299 6.4614639
16.333443 63.0947 4.1769161
39.331924 62.489799 58.051018
56.98008 63.4575 38.929226
58.472145 63.365299 27.682135
3.5258827 63.341 40.727886
54.970932 63.618401 16.563646
0.96725464 63.1824 33.855247
18.154322 63.046902 3.9409733
58.298302 63.3568 36.182579
4.4719677 64.554703 41.105396
26.746403 62.488899 0.87979507
14.347154 64.516403 7.8310204
57.909531 64.080505 32.977928
57.30217 64.590805 27.628998
53.594727 64.4646 17.421234
41.81842 65.810898 53.128368
25.296185 64.766403 57.271881
52.013062 65.406097 43.549126
21.306568 64.518501 56.59108
37.5802 66.195496 54.270088
54.660061 66.020599 23.217766
52.290291 65.688904 17.95689
45.890057 65.668503 10.190361
15.734406 64.945496 7.5727425
52.290226 67.331696 23.123123
6.1601524 66.388199 37.416527
50.426857 66.990898 18.106102
46.325691 66.5448 12.068691
45.338177 66.534103 11.149677
33.927135 66.959198 6.5443039
36.853817 67.002502 53.201996
10.087996 67.525299 41.5648
8.0698872 67.841499 38.221764
45.2873 67.448395 12.673489
44.100128 66.748901 11.819895
27.113506 66.433197 5.7147484
39.364258 68.0513 50.831543
12.604973 69.099098 41.614861
30.13147 68.0382 7.890667
33.663628 68.735802 50.661613
22.798306 68.391403 51.258305
49.404934 68.877197 23.611122
31.6574 69.828499 50.077896
22.773766 69.179199 49.701958
14.446141 69.912003 41.599632
11.502428 69.948196 36.226673
43.227409 69.694801 15.902895
42.694645 69.272598 14.574865
32.986053 69.718704 11.003626
31.464729 68.887604 9.504734
14.643309 70.5336 37.081596
13.841482 70.788696 36.284889
14.096731 70.141602 35.395279
11.633837 70.555901 31.438183
19.681797 69.9711 14.573079
15.676795 70.116798 41.52285
14.812092 71.531601 27.568209
15.07205 71.574997 24.104568
16.330862 71.6427 22.826088
27.698868 72.056503 44.897808
23.114683 72.186005 42.706226
22.308838 72.313301 41.855469
20.972483 71.773804 41.511543
16.822613 71.711899 37.68029
41.322289 71.962204 21.985619
39.413261 71.626999 20.756466
15.822165 71.745895 26.085163
20.836929 72.336304 20.466022
18.076815 71.838196 21.257557
18.68148 71.500702 20.441341
21.046711 71.880501 19.204357
19.420856 71.995399 36.994347
21.249859 73.065796 36.935757
36.636913 72.154999 20.745373
31.609337 72.237595 20.0242
19.607998 72.557899 22.956974
29.980549 74.027603 35.803513
23.719296 73.6315 36.657539
25.034779 73.874802 34.209545
30.32654 74.3302 30.093918
33.050125 73.849396 24.461817
27.577909 73.721001 25.712914
33.93375 -13.7183 33.11451
27.397438 -13.920898 34.34219
30.059906 -14.181599 33.142345
26.590488 -13.674999 34.501564
34.387634 -13.763599 29.294373
25.222939 -13.464901 34.329891
23.90373 -13.5228 33.782902
37.497398 -13.117001 28.182384
38.64106 -12.579498 23.805428
18.631287 -12.467201 28.700283
37.638931 -11.843601 41.393314
33.424038 -11.997898 43.055099
36.589325 -11.181 41.300499
27.525158 -11.102699 43.599369
27.385115 -12.219101 42.938648
19.860218 -11.786301 37.629898
19.090382 -11.789501 36.666603
40.857697 -11.213902 24.209229
41.847202 -11.373699 23.653164
15.621515 -10.720901 33.393055
41.369423 -11.624802 21.777918
20.820387 -11.943501 22.128582
42.768059 -10.580101 41.260063
40.284073 -11.3312 41.048965
42.585793 -11.087898 21.382301
13.748669 -10.612598 27.127884
15.024733 -10.656601 25.225708
15.791454 -10.580799 22.804531
21.248669 -10.913601 18.08989
44.299408 -10.1507 40.932056
12.768847 -10.359501 34.019398
12.776119 -10.410599 28.340019
16.065529 -10.354198 21.249289
45.472549 -9.9087982 40.316051
46.646553 -9.7094002 38.915138
47.418861 -9.3049011 37.392601
11.722046 -8.8524017 35.259468
12.58457 -9.3997002 34.421387
10.723251 -8.8498001 30.166893
16.467224 -9.7568016 17.379011
16.595854 -8.7825012 15.654474
30.900766 -8.4598999 50.798584
49.746319 -8.7859993 25.557089
48.618767 -9.1039009 23.691071
10.553873 -9.0233994 35.791805
45.461407 -8.8905983 17.649601
34.422428 -8.4877014 9.4296169
28.212482 -8.2877007 9.6273823
24.87211 -8.7798004 10.690599
25.846298 -8.8600006 9.9833241
28.782795 -8.4794006 51.868523
22.615891 -8.5994987 49.971977
9.0585423 -8.3502007 36.27113
27.818977 -7.8370018 52.691452
49.727272 -7.1166992 42.674274
50.169411 -7.300499 41.469437
22.062136 -7.9026985 51.068542
7.2138023 -6.8698997 32.047222
53.342785 -6.1105995 33.298122
6.6708546 -6.706501 36.488628
45.756256 -6.1757011 49.217995
26.994556 -6.7834015 54.066498
54.433567 -6.3499985 29.565411
52.38903 -6.3751984 20.334431
5.9309921 -6.1403999 38.721985
6.6431961 -5.8504982 36.907997
6.0638752 -6.6969986 32.425362
47.416759 -6.207901 12.397226
35.288216 -6.0950012 5.5286255
27.429981 -6.0617981 5.1292419
19.176231 -6.2132988 7.840004
23.624706 -5.964901 5.5828171
51.172356 -4.6585007 45.526707
21.405027 -5.8316002 54.30233
21.581028 -6.2507019 52.497887
55.165077 -5.7571983 28.552135
55.102585 -5.6477013 25.864748
55.686348 -5.1436996 25.678465
4.2438774 -5.395401 32.408619
47.924263 -5.5467987 11.596161
22.583426 -5.3600998 5.0808506
57.060188 -3.9375992 24.617985
2.8205032 -4.286499 32.072819
40.350132 -4.5653 5.4341106
17.683483 -4.3054008 5.9767971
21.944857 -4.6150017 4.2345276
46.433018 -5.1748009 49.997627
51.826866 -3.0205002 11.339329
47.895699 -3.1040993 7.5970707
46.959923 -3.7717018 7.1711426
47.807648 -2.3909988 52.745872
58.363903 -2.9934006 25.91316
1.6223545 -2.5904007 37.626781
1.4072685 -3.2154007 30.942186
6.5757256 -2.5171013 12.380075
8.9266663 -2.885601 10.354549
16.737877 -3.0070992 4.4538403
2.2047901 -2.1310005 40.844269
0.43641472 -1.6690006 23.912457
41.763847 -1.9190006 2.9454861
2.8527412 -1.8377991 18.010284
3.6602516 -2.0544014 16.147266
5.0273132 -2.2112007 14.241241
48.422375 -1.2453995 54.285202
52.920593 -2.1949997 48.994473
6.3960266 -1.1560993 10.40486
9.927002 -1.4587002 7.1565647
11.195234 -1.2719994 5.7913799
21.06089 -2.6375008 2.4735146
53.190506 -0.40259933 51.617233
3.8641682 -1.1214008 46.754341
1.8256226 -0.96899986 42.823013
0.70354652 -1.5944996 35.438942
51.4212 -1.0849991 7.7392502
45.574539 -1.7192993 4.1803093
3.1389656 -0.71010017 14.187231
4.582859 -0.84119987 12.308493
12.277802 -0.58300018 4.2484016
48.358669 -0.052499771 56.114738
27.665058 -0.0030994415 62.127151
18.913887 -0.55039978 0.55293083
48.372612 0.61009979 57.343803
27.974861 0.39940071 62.689072
5.0560703 0.74080086 51.697884
3.571497 0.51740074 49.553677
42.59016 -0.81889915 1.8222313
43.723389 1.5198994 -0.30367279
39.267403 1.8173008 61.806885
30.807285 1.5529995 63.612011
28.937414 0.94589996 63.19939
7.7592793 1.1599998 54.941566
54.658295 1.5186996 8.1540489
0.28953743 0.75029945 17.372707
18.740196 1.5317993 -1.5084991
35.693584 1.8756008 63.358521
32.672581 1.9659004 63.892479
34.25853 2.0146999 63.665459
-3.8796463 2.2593002 28.929565
41.131142 3.2765007 63.058388
47.16021 2.5202999 59.720013
53.750278 3.3043995 55.546841
56.368687 2.9782009 52.10067
21.43512 2.2586002 63.26141
5.2455654 2.9062996 53.933563
3.6098976 2.7017994 52.484459
2.5330429 2.8635006 51.470398
58.516594 2.1951008 11.941175
-3.6491928 3.0198002 25.217369
45.540352 3.8542995 61.941864
39.382816 3.2516003 63.652424
43.147907 3.4745007 62.529404
36.324467 3.6252995 64.59108
29.978769 3.3057003 65.107468
28.882912 3.9575996 64.778366
6.2277756 3.0855999 55.543724
63.539639 2.4727993 24.802721
1.6361942 3.3703003 50.925411
-0.61530495 3.1250992 46.614067
56.776081 3.0520992 8.1374149
-4.4779015 2.8686008 29.925955
47.485909 2.4305 1.0649452
0.73840141 3.7049007 10.704773
11.12608 3.7872009 0.49585342
17.734615 3.2110996 -2.8226509
55.445293 3.7845001 54.172089
58.534775 4.4459 51.206352
20.987965 3.5627995 64.18811
11.211016 3.8395996 60.272461
7.9020214 4.3283997 58.205662
-3.2763748 4.9169006 18.287209
15.250395 3.5331001 -1.4661827
18.477493 3.9801998 -3.5209274
47.049187 4.2879009 61.677101
47.716034 5.1121006 61.538933
12.771442 4.4643993 61.549328
65.590103 4.9708996 25.706726
65.110672 5.1154003 23.402269
0.47034836 5.2444 51.663162
-1.0148315 4.2439003 47.031006
58.137733 4.2749004 8.4847145
-6.1694221 4.8003006 30.992554
-3.859333 5.3269005 18.995319
-3.1156349 4.8542004 16.212711
0.73526955 5.0042 9.2196541
14.278392 4.4762001 -1.7192039
27.876577 4.5268993 65.654221
66.367081 5.9542999 25.822399
60.438419 6.2148991 9.3588638
-5.374218 4.3962002 32.682964
-2.9020042 5.4892998 14.496314
60.158543 6.7668991 51.781174
10.139732 5.7203007 61.141312
45.130096 6.2630997 -3.5853386
19.412111 5.4363995 -4.5006027
62.865044 6.9993 47.652206
16.779709 6.8682995 65.08757
14.467424 7.191 64.067398
67.38855 7.1618996 26.359203
67.055038 7.0270996 22.997162
-0.60715294 7.4037991 52.192131
63.862762 6.6294994 15.410913
48.919502 6.4118004 -1.8188019
52.956806 6.0452003 58.093254
53.476608 8.3855 60.115768
19.441414 7.0531006 66.324913
67.781723 7.5872993 35.78529
67.472137 7.3731995 31.981434
65.619171 7.7182999 18.123877
61.66634 7.3556004 9.1363773
-7.1159515 6.8528004 34.180897
-6.0132446 6.3372993 23.27718
-2.8845024 7.4179001 11.962963
66.381027 8.2120991 20.433714
-3.4443016 8.4342003 48.231979
61.33535 8.1334991 8.4774418
62.102718 8.7035999 49.356342
67.800537 8.7301998 37.713165
49.762054 9.1819992 63.560226
25.121273 9.2844009 68.649933
26.203747 8.9316998 -8.2862587
24.438131 10.108601 -8.3572235
67.162796 9.9081993 42.183414
67.804138 10.6266 41.375252
-4.1298599 9.0674992 48.617607
-8.4512062 10.216101 37.376328
59.40625 10.672199 3.4055901
-8.5427551 10.3458 22.716352
-6.3527336 8.7131996 18.647049
7.9580994 8.4015007 -0.60261726
50.018784 10.3479 63.733128
54.249352 10.9625 61.187065
23.65527 11.034901 69.336967
48.60881 9.9104996 -4.4440651
43.844353 9.6742001 -5.9640274
-4.3062553 11.316999 10.686531
70.019684 11.712799 30.601839
67.944763 12.0924 17.213131
-8.7137718 11.723101 39.804371
-8.7762032 11.602501 35.768387
-2.0581436 10.8368 7.1930237
30.077358 11.2327 -9.6473389
70.198364 11.9685 28.297745
69.842239 12.305799 25.905849
69.649933 12.475 21.812809
-5.4770241 12.1542 48.50581
60.486477 12.097 4.9969025
60.408203 12.8368 3.4057655
41.738605 12.2864 -8.2754593
-5.216629 12.7286 10.395063
54.693111 12.2444 61.526085
68.561493 11.9419 41.136955
69.201569 12.913099 23.822519
68.847244 13.2521 21.162853
-2.4575539 10.778799 52.294033
-9.0317307 13.1497 41.288761
-9.1753464 12.5396 36.969837
58.187897 12.9662 2.0204086
-6.0273476 14.0127 10.574276
29.128069 13.6343 -9.9702034
55.449219 13.9797 61.606693
68.356049 13.3451 18.179594
29.873133 13.505699 -10.975464
69.221573 13.869801 41.932091
12.521168 13.8277 66.869675
69.688736 13.139 35.054478
69.010666 14.0058 20.623375
-9.4017296 15.8961 43.191109
60.113529 15.0771 1.6612511
33.389782 14.4908 -10.502777
35.026848 14.9453 -10.776585
51.339401 14.562 65.03653
22.213451 15.4992 70.845108
21.197838 15.2569 70.16114
70.136932 14.4208 20.052053
-9.8672028 14.7786 40.294018
57.45369 14.793 -0.30419731
56.92802 15.0246 -1.0919456
54.780918 15.3971 -2.6347961
35.990711 15.6031 -11.024895
9.3074112 12.432199 -3.9270325
51.372879 15.6635 65.525604
23.974894 15.6023 71.095001
-4.5683899 15.9941 53.488804
53.520668 15.8903 -4.1748848
51.887028 16.103699 -4.9530907
48.941135 16.1154 -6.6288033
47.745052 15.9174 -7.4716873
-8.5880508 16.4991 13.811037
-2.9789543 14.7281 6.0275822
51.086044 16.4466 65.998199
57.309219 16.6134 61.60099
27.24157 16.429699 71.832108
-10.22982 16.5376 41.486019
-8.1893578 16.573 15.114904
8.6589298 16.883099 -5.4958572
59.168453 18.9247 60.696724
69.919563 16.468 18.328747
-7.000824 16.6126 49.124027
60.894672 17.1576 1.5804577
-4.7176819 17.5056 6.280714
4.9889297 17.808399 -3.4980698
-1.9977455 18.394901 57.681469
-3.4627838 17.5243 55.895039
-9.9719887 18.2299 44.034584
-5.2925186 17.542801 7.2106819
36.074837 17.976101 -11.633141
-4.397213 17.9972 5.6073952
69.428856 16.922199 43.711617
62.15102 18.484699 2.6114998
-6.2564545 18.246 8.3752728
53.588345 19.1397 65.325562
31.151455 19.1861 72.645752
8.7901077 19.0359 66.206451
-1.5870285 19.2225 59.069324
70.539955 19.5741 18.145519
62.919903 19.482899 2.9334183
-7.4091568 18.8316 9.1279469
-4.2397156 19.2486 4.8323174
55.31591 20.218941 64.388138
-10.786026 19.938801 18.849287
23.67502 20.421799 72.593094
20.013794 20.558289 71.890572
16.880077 20.708271 70.806358
-0.81969452 20.248161 60.107948
42.446362 20.746811 -10.330406
31.951054 20.454369 -12.326958
69.136971 20.901711 46.55806
12.122496 22.11665 69.02169
71.644814 20.369671 20.077377
-9.7196274 21.0443 46.221718
-10.110222 20.997631 44.905632
-11.496288 21.219601 18.952417
-3.574131 21.955269 3.9228096
29.670187 21.88838 -12.917004
71.626221 22.257401 42.301559
5.4052925 21.553131 65.886345
1.2520752 22.660049 62.722988
63.816589 21.31284 3.3417511
56.211727 21.847229 -4.1346016
57.41193 22.449141 -3.3065491
55.251884 21.886311 -4.4689827
-2.3444977 21.63965 1.6596012
46.435627 22.011669 70.088814
3.7750626 23.260891 64.839088
71.242294 21.65905 17.700758
-11.867718 22.788071 41.307278
28.549721 22.428841 -12.739986
44.680634 23.66255 70.914017
3.0537796 23.503971 64.379562
-2.081768 22.945061 1.036377
26.239246 23.68519 -13.081429
10.045544 23.38282 -8.356266
63.797268 24.484791 57.481125
-7.5483742 23.685379 51.69455
59.408092 24.209511 -1.3988228
24.863705 24.560061 -13.113285
58.917831 24.55974 62.285053
63.690384 25.098169 56.459473
67.715988 24.738861 51.447937
72.1315 24.322411 42.508949
50.074535 24.03157 -8.3139877
-10.072853 25.058571 12.585848
36.597771 25.179831 -12.816624
-1.3550663 23.95521 0.46900177
22.56834 24.95912 -12.534054
18.008402 25.03211 -11.477001
45.023579 25.435841 70.757416
27.277405 25.40798 73.782272
64.680511 24.60532 3.6204338
60.603783 25.707581 -0.97724533
4.2359848 25.23457 -5.0643082
42.011986 25.94511 72.013672
34.061954 25.893829 73.643829
25.772285 26.197281 73.646217
-7.1628952 24.32719 52.678329
72.040405 24.46454 18.707409
-12.217831 25.97657 39.657532
46.752132 27.19532 -10.209362
0.10645676 26.16357 -1.8470631
3.129509 26.17202 -4.2215309
40.44072 26.922279 72.529434
6.5073967 27.32435 66.594414
-11.203686 26.820351 44.447739
-12.303196 27.809879 38.181335
-11.120331 25.2803 15.945064
-9.6455154 26.17351 11.642681
33.54002 26.549591 -13.119652
43.268913 27.166981 71.693909
39.128616 27.509171 72.952934
36.771053 27.76412 73.400299
72.971344 27.346041 39.477493
0.52069855 27.571579 62.433235
-11.571556 27.83514 43.198135
64.78656 27.43696 3.4841785
-9.3255959 27.51178 10.969837
-7.2290077 26.42672 6.7098541
59.769611 27.724819 62.040569
28.247929 28.380291 74.007523
26.161385 28.3167 73.820946
21.348043 28.072001 73.065254
19.897369 28.824551 72.740952
70.646568 28.3116 45.799839
2.3726273 28.25458 63.974144
48.904221 27.48575 -9.2485542
31.825876 27.702009 -13.574764
41.070534 28.638399 72.452568
23.487823 29.197737 72.853943
-12.898987 29.521366 37.505394
-12.242912 28.632351 18.526333
-1.1280689 28.85899 -0.7540226
7.9991665 28.40152 -7.9028473
12.475883 28.93445 -9.8612785
15.715878 29.218992 -10.820641
37.046349 29.712618 73.437218
59.234447 29.0172 62.681046
29.236412 29.256702 73.51149
67.984421 29.88113 52.379471
71.542389 29.353098 44.48893
-11.874435 29.151896 42.023556
-8.2889442 29.966288 10.598877
31.067043 29.17378 -12.912083
16.629395 29.425447 -11.879856
22.771551 29.708773 -12.763649
65.532425 30.397413 54.951397
-4.2094879 29.591867 57.282955
65.165764 29.638422 3.944828
-12.921478 27.633671 23.288815
46.262917 29.484535 -10.466282
24.720078 29.914898 -12.754025
63.729263 31.080219 58.30307
64.729324 30.78344 56.582748
-3.3702011 31.412689 58.201408
15.253053 31.806971 70.694702
-11.551994 31.288269 40.80172
-13.236416 31.741699 24.740639
-11.879944 31.470289 19.785292
48.631424 30.711569 -9.3849411
46.396225 31.242189 -10.578869
26.174515 31.074739 -13.472958
4.6549778 31.04603 -5.5779037
57.61993 31.02557 64.055222
62.251381 32.046082 59.781914
18.179445 32.165211 72.021461
65.348251 31.21217 4.8780212
48.921249 32.369381 -9.1971321
-6.2677841 30.024223 6.1111279
31.040981 30.566961 -13.729885
2.523983 32.673321 -3.1313858
3.0965214 32.97287 -3.9739952
61.172546 33.405251 60.79805
