# .PCD v0.7 - Point Cloud Data file format
VERSION 0.7
FIELDS x y z
SIZE 4 4 4
TYPE F F F
COUNT 1 1 1
WIDTH 1693
HEIGHT 1
VIEWPOINT 0 0 0 1 0 0 0
POINTS 1693
DATA ascii
0.125 0.50928664 0.53921223
0.125 0.56974787 0.37309641
0.75 0.83388424 0.93953878
0.625 0.781057 0.82625031
0.25 0.38073033 1.1508479
0.625 0.82625031 1.218943
0.75 0.93953878 1.1661158
0.125 1.2036752 1.7325583
0.25 1.1508479 1.6192696
0.125 0.37309641 1.4302521
-0.375 0.84151816 0.66013455
0.125 0.9471727 0.88671154
0 0.89434546 0.77342308
0.25 0.78869087 0.54684609
-0.125 1.0528272 1.1132885
0 1.1056546 1.2265769
-0.25 1.2113091 1.4531538
0.375 1.1584818 1.3398654
-0.375 0.59967339 1.3245976
-0.375 0.76578915 1.3850588
-0.125 0.87144369 1.6116357
-0.375 0.93190491 1.44552
-0.5 1.0451933 1.3926927
-0.375 0.6754024 0.59967339
-0.375 0.61494124 0.76578915
-0.125 0.38836426 0.87144369
-0.375 0.55447996 0.93190491
-0.5 0.60730731 1.0451933
0.5 0.7282297 0.71296179
0.375 0.61494124 0.76578915
0.375 0.49401879 1.0980207
0.25 0.50165272 0.81861639
0.125 0.44882542 0.70532793
0.375 1.0980207 1.5059812
0.375 0.93190491 1.44552
0.125 0.70532793 1.5511746
0.375 0.76578915 1.3850588
0.5 0.71296179 1.2717702
-0.125 0.63020903 0.20698065
0 0.68303633 0.32026911
-0.25 0.78869087 0.54684609
0.375 0.73586357 0.43355763
-0.625 0.84151816 0.66013455
-0.75 1 1
-0.625 0.9471727 0.88671154
-0.125 0.9471727 0.88671154
0.375 0.84151816 0.66013455
0.5 0.89434546 0.77342308
0.25 1 1
0.625 0.9471727 0.88671154
0.875 0.9471727 0.88671154
0.75 1 1
0.625 1.0528272 1.1132885
0.125 1.0528272 1.1132885
0.625 1.1584818 1.3398654
-0.25 1 1
-0.875 1.0528272 1.1132885
-0.5 1.1056546 1.2265769
-0.375 1.1584818 1.3398654
0.25 1.2113091 1.4531538
0.125 1.2641364 1.5664424
-0.375 1.2641364 1.5664424
0 1.3169637 1.6797309
0.125 1.369791 1.7930193
-0.875 0.88671154 1.0528272
-0.5 0.71296179 1.2717702
-0.625 0.82625031 1.218943
-0.625 1.1584818 1.3398654
-0.375 0.43355763 1.2641364
0 0.25980794 1.4830794
-0.125 0.37309641 1.4302521
-0.125 0.53921223 1.4907134
-0.125 0.70532793 1.5511746
-0.375 1.0980207 1.5059812
-0.25 1.1508479 1.6192696
0 0.92427099 1.7249242
-0.125 1.2036752 1.7325583
-0.125 1.369791 1.7930193
-0.875 0.9471727 0.88671154
-0.5 0.7282297 0.71296179
-0.625 0.781057 0.82625031
-0.625 0.66013455 1.1584818
-0.375 0.73586357 0.43355763
0 0.51692057 0.25980794
-0.125 0.50928664 0.53921223
-0.125 0.44882542 0.70532793
-0.375 0.49401879 1.0980207
-0.25 0.38073033 1.1508479
0 0.27507579 0.92427099
-0.125 0.26744181 1.2036752
-0.125 0.20698065 1.369791
0.125 0.63020903 0.20698065
0.375 0.6754024 0.59967339
0.25 0.6225751 0.48638493
0 0.39599812 0.59203947
0.625 0.84151816 0.66013455
0.875 0.88671154 1.0528272
0.625 0.72059578 0.99236608
0.5 0.60730731 1.0451933
0.125 0.38836426 0.87144369
0.125 0.32790309 1.0375595
0.375 0.43355763 1.2641364
0.125 0.26744181 1.2036752
0 0.15415335 1.2565025
0.875 1.0528272 1.1132885
0.5 1.0451933 1.3926927
0.625 0.99236608 1.2794042
0.625 0.66013455 1.1584818
0.375 1.2641364 1.5664424
0 1.2565025 1.8458467
0.125 1.0375595 1.672097
0.125 0.87144369 1.6116357
0.375 0.59967339 1.3245976
0.25 0.48638493 1.377425
0 0.59203947 1.6040019
0.125 0.53921223 1.4907134
0.125 0.20698065 1.369791
0 0.84151816 0.66013455
-0.0625 0.86793178 0.71677881
0 1.1584818 1.3398654
0.0625 1.1320682 1.2832212
-0.3125 0.87526065 1.4719336
-0.3125 0.52806634 0.87526065
0.3125 0.52806634 0.87526065
0.3125 0.79220277 1.4417031
0 0.73586357 0.43355763
0.0625 0.70944995 0.37691337
-0.4375 0.92075908 0.83006728
-0.5625 0.92075908 0.83006728
0.5 0.9471727 0.88671154
0.4375 1.0792409 1.1699327
0.5625 1.0792409 1.1699327
-0.5625 1.0792409 1.1699327
-0.0625 1.29055 1.6230867
-0.6875 0.96595246 1.22276
-0.6875 0.88289458 1.1925294
-0.125 0.45615429 1.4604828
-0.1875 0.42974067 1.4038385
-0.125 1.1206174 1.7023275
-0.6875 0.77723998 0.96595246
-0.6875 0.80747062 0.88289458
-0.125 0.53951722 0.45615429
-0.125 0.29767245 1.1206174
0.125 0.53951722 0.45615429
0.1875 0.59616148 0.42974067
0.6875 0.77723998 0.96595246
0.1875 0.32408607 1.1772616
0.6875 0.88289458 1.1925294
0.6875 0.96595246 1.22276
0.125 1.1206174 1.7023275
0.1875 0.42974067 1.4038385
0.1875 0.51279855 1.4340692
-0.1875 0.81510448 0.60349035
0.0625 0.92075908 0.83006728
-0.0625 0.92075908 0.83006728
0.25 0.84151816 0.66013455
-0.0625 1.0792409 1.1699327
0.0625 1.0792409 1.1699327
-0.25 1.1584818 1.3398654
0.1875 1.1848955 1.3965096
-0.375 0.68273127 1.3548282
-0.4375 0.73937547 1.3284146
-0.1875 0.76197219 1.524761
-0.375 1.0149628 1.4757506
-0.375 0.64517176 0.68273127
-0.4375 0.67158544 0.73937547
-0.1875 0.47523904 0.76197219
-0.375 0.52424943 1.0149628
0.4375 0.67158544 0.73937547
0.375 0.64517176 0.68273127
0.4375 0.58089364 0.98854911
0.1875 0.44500852 0.84503007
0.375 1.0149628 1.4757506
0.4375 0.98854911 1.4191064
0.1875 0.84503007 1.5549915
0.375 0.68273127 1.3548282
-0.0625 0.65662265 0.26362491
0.0625 0.65662265 0.26362491
-0.25 0.73586357 0.43355763
0.1875 0.76227725 0.49020183
0.3125 0.76227725 0.49020183
-0.4375 0.86793178 0.71677881
-0.5 0.84151816 0.66013455
-0.6875 0.97358638 0.94335574
-0.75 0.9471727 0.88671154
-0.3125 0.97358638 0.94335574
0.4375 0.86793178 0.71677881
0.5625 0.86793178 0.71677881
0.1875 0.97358638 0.94335574
0.25 0.9471727 0.88671154
0.6875 0.97358638 0.94335574
0.6875 1.0264137 1.0566442
0.75 1.0528272 1.1132885
0.1875 1.0264137 1.0566442
0.3125 1.0264137 1.0566442
0.4375 1.1320682 1.2832212
0.5 1.1584818 1.3398654
-0.25 1.0528272 1.1132885
-0.1875 1.0264137 1.0566442
-0.8125 1.0264137 1.0566442
-0.6875 1.0264137 1.0566442
-0.5625 1.1320682 1.2832212
0.1875 1.2377228 1.5097982
0.25 1.2641364 1.5664424
-0.3125 1.2377228 1.5097982
-0.1875 1.2377228 1.5097982
-0.0625 1.3433774 1.7363751
-0.8125 0.99618304 1.1397021
-0.875 0.96976942 1.0830579
-0.5625 0.76960611 1.2453567
-0.625 0.74319243 1.1887125
-0.5625 1.0187798 1.3360485
-0.5625 1.1018376 1.3662791
-0.3125 0.54302907 1.3510113
-0.375 0.51661551 1.294367
-0.0625 0.31645221 1.4566658
-0.125 0.29003853 1.4000216
-0.0625 0.56562585 1.5473576
-0.3125 1.1244342 1.5626254
-0.375 1.1810786 1.5362117
-0.0625 0.89785731 1.66828
-0.125 0.95450157 1.6418664
-0.0625 1.2300888 1.7892025
-0.8125 0.86029792 0.99618304
-0.875 0.91694212 0.96976942
-0.5625 0.78487396 0.68654823
-0.5625 0.75464332 0.76960611
-0.5625 0.66395152 1.0187798
-0.5625 0.63372087 1.1018376
-0.3125 0.64898878 0.54302907
-0.375 0.70563304 0.51661551
-0.0625 0.57356477 0.23339427
-0.125 0.59997845 0.29003853
-0.0625 0.45264244 0.56562585
-0.3125 0.43737453 1.1244342
-0.375 0.46378821 1.1810786
-0.0625 0.33171999 0.89785731
-0.125 0.35813361 0.95450157
-0.0625 0.21079761 1.2300888
0.0625 0.54333419 0.31645221
0.0625 0.57356477 0.23339427
0.375 0.70563304 0.51661551
0.3125 0.64898878 0.54302907
0.125 0.47905606 0.62227005
0.0625 0.4224118 0.64868367
0.5625 0.75464332 0.76960611
0.5625 0.78487396 0.68654823
0.875 0.91694212 0.96976942
0.8125 0.8905285 0.91312516
0.625 0.6903652 1.075424
0.125 0.35813361 0.95450157
0.0625 0.33171999 0.89785731
0.375 0.46378821 1.1810786
0.3125 0.43737453 1.1244342
0.125 0.23721129 1.2867332
0.8125 0.91312516 1.1094716
0.875 0.96976942 1.0830579
0.5625 1.1018376 1.3662791
0.5625 1.0187798 1.3360485
0.5625 0.76960611 1.2453567
0.5625 0.68654823 1.215126
0.3125 1.1244342 1.5626254
0.375 1.1810786 1.5362117
0.0625 1.3131467 1.819433
0.125 1.2867332 1.7627888
0.0625 0.89785731 1.66828
0.3125 0.54302907 1.3510113
0.375 0.51661551 1.294367
0.0625 0.64868367 1.5775882
0.0625 0.56562585 1.5473576
0.0625 0.31645221 1.4566658
0.0625 0.23339427 1.4264352
-0.125 0.89434546 0.77342308
0.1875 0.86793178 0.71677881
0.0625 0.86793178 0.71677881
-0.0625 0.81510448 0.60349035
-0.1875 1.1320682 1.2832212
-0.0625 1.1320682 1.2832212
0.0625 1.1848955 1.3965096
0.125 1.1056546 1.2265769
-0.25 0.73555851 1.4681166
-0.3125 0.79220277 1.4417031
-0.3125 0.95831853 1.5021642
-0.375 0.84884703 1.4152894
-0.4375 0.82243335 1.3586452
-0.25 0.53188336 0.73555851
-0.3125 0.55829698 0.79220277
-0.3125 0.49783576 0.95831853
-0.375 0.5847106 0.84884703
-0.4375 0.64135486 0.82243335
0.4375 0.61112428 0.90549123
0.375 0.5847106 0.84884703
0.25 0.47142214 0.90167427
0.3125 0.55829698 0.79220277
0.3125 0.58852756 0.70914489
0.25 0.90167427 1.5285778
0.3125 0.87526065 1.4719336
0.3125 0.70914489 1.4114724
0.375 0.84884703 1.4152894
0.4375 0.90549123 1.3888757
-0.1875 0.70944995 0.37691337
-0.0625 0.70944995 0.37691337
0.0625 0.76227725 0.49020183
0.125 0.68303633 0.32026911
-0.6875 0.92075908 0.83006728
-0.4375 0.97358638 0.94335574
-0.5 0.9471727 0.88671154
-0.375 0.89434546 0.77342308
0.3125 0.92075908 0.83006728
0.4375 0.92075908 0.83006728
0.5625 0.97358638 0.94335574
0.5625 0.92075908 0.83006728
0.625 0.89434546 0.77342308
0.4375 1.0264137 1.0566442
0.5 1.0528272 1.1132885
0.375 1.1056546 1.2265769
0.6875 1.0792409 1.1699327
-0.5625 1.0264137 1.0566442
-0.5 1.0528272 1.1132885
-0.625 1.1056546 1.2265769
-0.4375 1.0792409 1.1699327
-0.3125 1.0792409 1.1699327
-0.0625 1.2377228 1.5097982
0 1.2641364 1.5664424
-0.125 1.3169637 1.6797309
0.0625 1.29055 1.6230867
0.1875 1.29055 1.6230867
-0.6875 0.7998367 1.1622988
-0.5625 0.93572181 1.3058178
-0.625 0.9093082 1.2491736
-0.75 1.0225967 1.1963464
-0.1875 0.34668273 1.3736079
-0.0625 0.48256791 1.517127
-0.1875 0.51279855 1.4340692
-0.25 0.56944275 1.4076555
-0.1875 1.0111458 1.6154528
-0.1875 1.0942037 1.6456833
-0.0625 1.1470309 1.7589718
-0.1875 1.1772616 1.6759139
-0.25 1.2339058 1.6495003
-0.6875 0.8377012 0.7998367
-0.5625 0.69418216 0.93572181
-0.625 0.75082636 0.9093082
-0.75 0.80365366 1.0225967
-0.1875 0.62639213 0.34668273
-0.1875 0.59616148 0.42974067
-0.0625 0.48287296 0.48256791
-0.1875 0.56593084 0.51279855
-0.25 0.59234452 0.56944275
-0.1875 0.38454729 1.0111458
-0.1875 0.35431671 1.0942037
-0.0625 0.24102819 1.1470309
-0.1875 0.32408607 1.1772616
-0.25 0.35049975 1.2339058
0.25 0.65280569 0.40332699
0.1875 0.53570032 0.59585643
0.1875 0.56593084 0.51279855
0.0625 0.5131036 0.39951003
0.75 0.86411488 0.8564809
0.6875 0.80747062 0.88289458
0.6875 0.7470094 1.0490103
0.625 0.75082636 0.9093082
0.5625 0.72441268 0.85266399
0.25 0.41096091 1.06779
0.1875 0.35431671 1.0942037
0.1875 0.29385549 1.2603195
0.125 0.29767245 1.1206174
0.0625 0.27125883 1.0639731
0.6875 1.0490103 1.2529906
0.5625 0.85266399 1.2755873
0.625 0.9093082 1.2491736
0.75 0.8564809 1.1358851
0.1875 1.2603195 1.7061446
0.1875 1.1772616 1.6759139
0.0625 1.0639731 1.7287412
0.1875 1.0942037 1.6456833
0.25 1.06779 1.5890391
0.1875 0.59585643 1.4642997
0.0625 0.39951003 1.4868964
0.125 0.45615429 1.4604828
0.25 0.40332699 1.3471943
-0.4375 0.81510448 0.60349035
-0.3125 0.81510448 0.60349035
-0.1875 0.86793178 0.71677881
-0.25 0.84151816 0.66013455
-0.125 0.78869087 0.54684609
-0.1875 0.92075908 0.83006728
0.0625 0.97358638 0.94335574
0 0.9471727 0.88671154
0.125 0.89434546 0.77342308
0.0625 0.81510448 0.60349035
0.1875 0.81510448 0.60349035
0.3125 0.86793178 0.71677881
0.3125 0.81510448 0.60349035
0.375 0.78869087 0.54684609
-0.0625 1.0264137 1.0566442
0 1.0528272 1.1132885
-0.125 1.1056546 1.2265769
0.1875 1.0792409 1.1699327
-0.3125 1.1320682 1.2832212
-0.375 1.2113091 1.4531538
-0.3125 1.1848955 1.3965096
-0.1875 1.1848955 1.3965096
-0.0625 1.1848955 1.3965096
0.1875 1.1320682 1.2832212
0.25 1.1584818 1.3398654
0.125 1.2113091 1.4531538
0.3125 1.1848955 1.3965096
0.4375 1.1848955 1.3965096
-0.4375 0.57325971 1.2679534
-0.4375 0.65631759 1.2981839
-0.3125 0.70914489 1.4114724
-0.5 0.79601973 1.302001
-0.1875 0.67891431 1.4945303
-0.0625 0.81479943 1.6380494
-0.125 0.78838581 1.5814052
-0.1875 0.84503007 1.5549915
-0.25 0.90167427 1.5285778
-0.4375 0.90549123 1.3888757
-0.4375 0.98854911 1.4191064
-0.3125 1.0413764 1.5323949
-0.4375 1.071607 1.449337
-0.5 1.1282513 1.4229233
-0.4375 0.7320466 0.57325971
-0.4375 0.70181602 0.65631759
-0.3125 0.58852756 0.70914489
-0.5 0.69799906 0.79601973
-0.1875 0.50546968 0.67891431
-0.0625 0.36195064 0.81479943
-0.125 0.41859484 0.78838581
-0.1875 0.44500852 0.84503007
-0.25 0.47142214 0.90167427
-0.4375 0.61112428 0.90549123
-0.4375 0.58089364 0.98854911
-0.3125 0.46760517 1.0413764
-0.4375 0.55066305 1.071607
-0.5 0.57707667 1.1282513
0.5 0.75846028 0.62990397
0.4375 0.70181602 0.65631759
0.4375 0.64135486 0.82243335
0.3125 0.61875814 0.62608701
0.5 0.6375379 0.96213549
0.4375 0.52043247 1.1546649
0.4375 0.55066305 1.071607
0.375 0.52424943 1.0149628
0.3125 0.49783576 0.95831853
0.25 0.53188336 0.73555851
0.1875 0.47523904 0.76197219
0.1875 0.41477787 0.92808795
0.125 0.41859484 0.78838581
0.0625 0.39218122 0.73174155
0.4375 1.1546649 1.4795675
0.4375 1.071607 1.449337
0.3125 0.95831853 1.5021642
0.5 0.96213549 1.362462
0.1875 0.92808795 1.5852221
0.0625 0.73174155 1.6078188
0.125 0.78838581 1.5814052
0.1875 0.76197219 1.524761
0.25 0.73555851 1.4681166
0.4375 0.82243335 1.3586452
0.4375 0.73937547 1.3284146
0.3125 0.62608701 1.3812418
0.4375 0.65631759 1.2981839
0.5 0.62990397 1.2415397
-0.0625 0.60379541 0.15033644
0 0.63020903 0.20698065
-0.125 0.68303633 0.32026911
0.1875 0.65662265 0.26362491
-0.3125 0.70944995 0.37691337
-0.375 0.78869087 0.54684609
-0.3125 0.76227725 0.49020183
-0.1875 0.76227725 0.49020183
-0.0625 0.76227725 0.49020183
0.1875 0.70944995 0.37691337
0.25 0.73586357 0.43355763
0.125 0.78869087 0.54684609
0.4375 0.76227725 0.49020183
-0.5625 0.81510448 0.60349035
-0.625 0.89434546 0.77342308
-0.5625 0.86793178 0.71677881
-0.3125 0.86793178 0.71677881
-0.8125 0.92075908 0.83006728
-0.875 1 1
-0.8125 0.97358638 0.94335574
-0.5625 0.97358638 0.94335574
-0.3125 0.92075908 0.83006728
-0.25 0.9471727 0.88671154
-0.375 1 1
-0.1875 0.97358638 0.94335574
-0.0625 0.97358638 0.94335574
0.4375 0.81510448 0.60349035
0.5 0.84151816 0.66013455
0.375 0.89434546 0.77342308
0.6875 0.86793178 0.71677881
0.1875 0.92075908 0.83006728
0.125 1 1
0.3125 0.97358638 0.94335574
0.4375 0.97358638 0.94335574
0.6875 0.92075908 0.83006728
0.75 0.9471727 0.88671154
0.625 1 1
0.8125 0.97358638 0.94335574
0.9375 0.97358638 0.94335574
0.875 1 1
0.8125 1.0264137 1.0566442
0.5625 1.0264137 1.0566442
0.8125 1.0792409 1.1699327
0.375 1 1
0.0625 1.0264137 1.0566442
0.25 1.0528272 1.1132885
0.3125 1.0792409 1.1699327
0.625 1.1056546 1.2265769
0.5625 1.1320682 1.2832212
0.3125 1.1320682 1.2832212
0.5625 1.1848955 1.3965096
-0.125 1 1
-0.4375 1.0264137 1.0566442
-0.3125 1.0264137 1.0566442
-0.1875 1.0792409 1.1699327
-0.625 1 1
-0.9375 1.0264137 1.0566442
-0.75 1.0528272 1.1132885
-0.6875 1.0792409 1.1699327
-0.375 1.1056546 1.2265769
-0.4375 1.1320682 1.2832212
-0.6875 1.1320682 1.2832212
-0.5 1.1584818 1.3398654
-0.4375 1.1848955 1.3965096
0.375 1.2113091 1.4531538
0.3125 1.2377228 1.5097982
0.0625 1.2377228 1.5097982
0.3125 1.29055 1.6230867
-0.125 1.2113091 1.4531538
-0.4375 1.2377228 1.5097982
-0.25 1.2641364 1.5664424
-0.1875 1.29055 1.6230867
0.125 1.3169637 1.6797309
0.0625 1.3433774 1.7363751
-0.1875 1.3433774 1.7363751
0 1.369791 1.7930193
0.0625 1.3962046 1.8496635
-0.9375 0.94335574 1.0264137
-0.75 0.8564809 1.1358851
-0.8125 0.91312516 1.1094716
-0.8125 1.0792409 1.1699327
-0.6875 0.71677881 1.1320682
-0.5 0.62990397 1.2415397
-0.5625 0.68654823 1.215126
-0.5625 0.85266399 1.2755873
-0.6875 1.0490103 1.2529906
-0.625 1.075424 1.3096348
-0.5 0.96213549 1.362462
-0.5625 1.1848955 1.3965096
-0.4375 0.49020183 1.2377228
-0.25 0.40332699 1.3471943
-0.3125 0.45997125 1.3207806
-0.3125 0.62608701 1.3812418
-0.1875 0.26362491 1.3433774
0 0.17675006 1.4528488
-0.0625 0.23339427 1.4264352
-0.0625 0.39951003 1.4868964
-0.1875 0.59585643 1.4642997
-0.125 0.62227005 1.5209439
0 0.50898159 1.5737712
-0.0625 0.64868367 1.5775882
-0.0625 0.73174155 1.6078188
-0.4375 1.1546649 1.4795675
-0.25 1.06779 1.5890391
-0.3125 1.2074921 1.5928559
-0.3125 1.29055 1.6230867
-0.1875 0.92808795 1.5852221
0 0.84121311 1.6946937
-0.0625 0.98091519 1.6985106
-0.0625 1.0639731 1.7287412
-0.1875 1.2603195 1.7061446
-0.125 1.2867332 1.7627888
0 1.1734446 1.815616
-0.0625 1.3131467 1.819433
-0.0625 1.3962046 1.8496635
-0.9375 0.97358638 0.94335574
-0.75 0.86411488 0.8564809
-0.8125 0.8905285 0.91312516
-0.8125 0.83006728 1.0792409
-0.6875 0.86793178 0.71677881
-0.625 0.81128752 0.74319243
-0.5 0.75846028 0.62990397
-0.5625 0.72441268 0.85266399
-0.6875 0.7470094 1.0490103
-0.625 0.6903652 1.075424
-0.5 0.6375379 0.96213549
-0.5625 0.60349035 1.1848955
-0.4375 0.76227725 0.49020183
-0.25 0.65280569 0.40332699
-0.3125 0.67921937 0.45997125
-0.3125 0.61875814 0.62608701
-0.1875 0.65662265 0.26362491
0 0.54715121 0.17675006
-0.0625 0.54333419 0.31645221
-0.0625 0.5131036 0.39951003
-0.1875 0.53570032 0.59585643
-0.125 0.47905606 0.62227005
0 0.42622876 0.50898159
-0.0625 0.4224118 0.64868367
-0.0625 0.39218122 0.73174155
-0.4375 0.52043247 1.1546649
-0.25 0.41096091 1.06779
-0.3125 0.40714401 1.2074921
-0.3125 0.37691337 1.29055
-0.1875 0.41477787 0.92808795
0 0.30530632 0.84121311
-0.0625 0.30148941 0.98091519
-0.0625 0.27125883 1.0639731
-0.1875 0.29385549 1.2603195
-0.125 0.23721129 1.2867332
0 0.18438399 1.1734446
-0.0625 0.18056703 1.3131467
-0.0625 0.15033644 1.3962046
0.0625 0.60379541 0.15033644
0.1875 0.62639213 0.34668273
0.125 0.59997845 0.29003853
0 0.48668993 0.34286582
0.3125 0.70944995 0.37691337
0.3125 0.67921937 0.45997125
0.4375 0.7320466 0.57325971
0.25 0.59234452 0.56944275
0.0625 0.48287296 0.48256791
0.0625 0.45264244 0.56562585
0.1875 0.50546968 0.67891431
0 0.3657676 0.67509735
0.5625 0.81510448 0.60349035
0.6875 0.8377012 0.7998367
0.625 0.81128752 0.74319243
0.5 0.69799906 0.79601973
0.8125 0.92075908 0.83006728
0.9375 0.94335574 1.0264137
0.8125 0.86029792 0.99618304
0.75 0.80365366 1.0225967
0.5625 0.69418216 0.93572181
0.5625 0.66395152 1.0187798
0.6875 0.71677881 1.1320682
0.5625 0.63372087 1.1018376
0.5 0.57707667 1.1282513
0.0625 0.36195064 0.81479943
0.1875 0.38454729 1.0111458
0.0625 0.30148941 0.98091519
0 0.24484515 1.0073289
0.3125 0.46760517 1.0413764
0.4375 0.49020183 1.2377228
0.3125 0.40714401 1.2074921
0.25 0.35049975 1.2339058
0.0625 0.24102819 1.1470309
0.0625 0.21079761 1.2300888
0.1875 0.26362491 1.3433774
0.0625 0.18056703 1.3131467
0 0.12392282 1.3395604
0.9375 1.0264137 1.0566442
0.75 1.0225967 1.1963464
0.8125 0.99618304 1.1397021
0.8125 0.83006728 1.0792409
0.6875 1.1320682 1.2832212
0.625 1.075424 1.3096348
0.5 1.1282513 1.4229233
0.5625 0.93572181 1.3058178
0.6875 0.7998367 1.1622988
0.625 0.74319243 1.1887125
0.5 0.79601973 1.302001
0.5625 0.60349035 1.1848955
0.4375 1.2377228 1.5097982
0.25 1.2339058 1.6495003
0.3125 1.2074921 1.5928559
0.3125 1.0413764 1.5323949
0.1875 1.3433774 1.7363751
0 1.3395604 1.8760772
0.0625 1.2300888 1.7892025
0.0625 1.1470309 1.7589718
0.1875 1.0111458 1.6154528
0.125 0.95450157 1.6418664
0 1.0073289 1.7551548
0.0625 0.98091519 1.6985106
0.0625 0.81479943 1.6380494
0.4375 0.57325971 1.2679534
0.25 0.56944275 1.4076555
0.3125 0.45997125 1.3207806
0.3125 0.37691337 1.29055
0.1875 0.67891431 1.4945303
0.125 0.62227005 1.5209439
0 0.67509735 1.6342324
0.0625 0.48256791 1.517127
0.1875 0.34668273 1.3736079
0.125 0.29003853 1.4000216
0 0.34286582 1.5133101
0.0625 0.15033644 1.3962046
-0.03125 0.854725 0.68845665
0 0.86793178 0.71677881
0.03125 1.145275 1.3115433
0 1.1320682 1.2832212
-0.15625 0.48447639 1.4472759
-0.15625 0.31087929 1.1489395
0.15625 0.31087929 1.1489395
0.1875 0.47126955 1.4189538
0.15625 0.48447639 1.4472759
0 0.92075908 0.83006728
-0.03125 0.93396592 0.85838938
0 1.0792409 1.1699327
0.03125 1.0660341 1.1416106
-0.25 1.1848955 1.3965096
-0.28125 1.1716887 1.3681875
0.25 1.1848955 1.3965096
-0.15625 0.77517897 1.5530831
0.15625 0.77517897 1.5530831
-0.25 0.97358638 0.94335574
0.25 0.97358638 0.94335574
0.21875 1.0396204 1.0849664
-0.21875 1.0396204 1.0849664
-0.25 1.0264137 1.0566442
-0.09375 0.30324537 1.4283437
-0.09375 0.26171643 1.4132284
-0.0625 0.60715473 1.5624729
-0.0625 0.19568235 1.2716178
0.09375 0.20888919 1.2999399
0.0625 0.60715473 1.5624729
0.09375 0.59394795 1.5341508
0.0625 0.27492326 1.4415505
0.09375 0.26171643 1.4132284
-0.125 0.86793178 0.71677881
0.125 0.86793178 0.71677881
0.09375 0.88113862 0.74510092
-0.125 1.1320682 1.2832212
-0.09375 1.1188614 1.254899
-0.03125 1.1716887 1.3681875
0.125 1.1320682 1.2832212
-0.28125 0.76388067 1.4549098
-0.28125 0.88846749 1.5002558
0.28125 0.88846749 1.5002558
0.28125 0.76388067 1.4549098
-0.375 0.92075908 0.83006728
0.375 0.92075908 0.83006728
0.375 1.0792409 1.1699327
-0.21875 0.41653383 1.3755164
-0.09375 0.42783219 1.4736896
-0.1875 0.55432749 1.4491844
-0.1875 0.36943197 1.0526748
-0.21875 0.38263881 1.0809969
-0.09375 0.28446561 1.0922952
-0.1875 0.30897081 1.2187905
0.21875 0.38263881 1.0809969
0.1875 0.36943197 1.0526748
0.21875 0.33729291 1.2055837
0.09375 0.26935035 1.1338241
0.21875 0.54112065 1.4208623
0.09375 0.42783219 1.4736896
0.09375 0.46936113 1.4888048
0.1875 0.38821173 1.3887233
-0.21875 0.854725 0.68845665
-0.28125 0.854725 0.68845665
-0.09375 0.90755224 0.80174518
-0.15625 0.90755224 0.80174518
0.03125 0.96037954 0.91503364
-0.03125 0.96037954 0.91503364
0.125 0.92075908 0.83006728
0.25 0.86793178 0.71677881
0.21875 0.854725 0.68845665
-0.03125 1.0396204 1.0849664
0.03125 1.0396204 1.0849664
-0.125 1.0792409 1.1699327
0.09375 1.0924478 1.1982548
0.15625 1.0924478 1.1982548
-0.21875 1.145275 1.3115433
-0.25 1.1320682 1.2832212
-0.34375 1.1981022 1.4248317
-0.375 1.1848955 1.3965096
-0.15625 1.1981022 1.4248317
0.21875 1.145275 1.3115433
0.28125 1.145275 1.3115433
0.09375 1.1981022 1.4248317
0.125 1.1848955 1.3965096
0.34375 1.1981022 1.4248317
-0.21875 0.74876535 1.4964387
-0.21875 0.70723641 1.4813235
0.1875 0.72044325 1.5096456
-0.34375 0.88113862 0.74510092
-0.28125 0.93396592 0.85838938
-0.25 0.92075908 0.83006728
-0.375 0.97358638 0.94335574
-0.15625 0.98679316 0.9716779
0.34375 0.88113862 0.74510092
0.375 0.86793178 0.71677881
0.28125 0.93396592 0.85838938
0.25 0.92075908 0.83006728
0.09375 0.98679316 0.9716779
0.125 0.97358638 0.94335574
0.34375 0.98679316 0.9716779
0.375 1.0264137 1.0566442
0.09375 1.0132068 1.0283221
0.15625 1.0132068 1.0283221
0.25 1.0792409 1.1699327
0.34375 1.1188614 1.254899
-0.125 1.0264137 1.0566442
-0.09375 1.0132068 1.0283221
-0.375 1.0264137 1.0566442
-0.28125 1.0660341 1.1416106
-0.25 1.0792409 1.1699327
-0.34375 1.1188614 1.254899
-0.28125 0.55623591 1.3793334
-0.28125 0.59776485 1.3944486
-0.15625 0.31836063 1.3868147
-0.1875 0.30515385 1.3584926
-0.03125 0.20507216 1.439642
-0.0625 0.19186538 1.41132
-0.03125 0.32965899 1.484988
-0.15625 0.60906321 1.4926219
-0.1875 0.63738537 1.4794151
-0.03125 0.49577475 1.5454491
-0.0625 0.52409685 1.5322423
-0.28125 0.43928301 1.0545832
-0.15625 0.26553339 1.2735263
-0.1875 0.27874017 1.3018484
-0.03125 0.21270609 1.1602378
-0.0625 0.22591293 1.1885599
-0.03125 0.15224493 1.3263535
0.28125 0.42416775 1.0961121
0.28125 0.43928301 1.0545832
0.0625 0.22591293 1.1885599
0.03125 0.21270609 1.1602378
0.1875 0.27874017 1.3018484
0.15625 0.26553339 1.2735263
0.0625 0.16545171 1.3546757
0.28125 0.59776485 1.3944486
0.15625 0.65059215 1.5077372
0.1875 0.63738537 1.4794151
0.03125 0.53730369 1.5605644
0.03125 0.49577475 1.5454491
0.15625 0.31836063 1.3868147
0.1875 0.30515385 1.3584926
0.03125 0.37118793 1.5001032
0.0625 0.35798109 1.4717811
0.03125 0.20507216 1.439642
0.03125 0.16354328 1.4245267
0.03125 0.88113862 0.74510092
0.03125 0.854725 0.68845665
-0.09375 0.854725 0.68845665
-0.0625 1.1584818 1.3398654
-0.03125 1.145275 1.3115433
0.09375 1.145275 1.3115433
-0.03125 1.1188614 1.254899
-0.28125 0.84693849 1.4851404
0.28125 0.80540955 1.4700252
-0.125 0.41462535 1.4453675
-0.15625 0.44294745 1.4321606
-0.15625 0.52600539 1.4623913
-0.1875 0.47126955 1.4189538
-0.21875 0.45806277 1.3906317
-0.125 0.31278771 1.0790883
-0.15625 0.32599455 1.1074104
-0.15625 0.29576397 1.1904684
-0.1875 0.33920139 1.1357327
-0.21875 0.36752355 1.1225258
0.21875 0.35240817 1.1640548
0.1875 0.33920139 1.1357327
0.125 0.28255719 1.1621463
0.15625 0.32599455 1.1074104
0.15625 0.34110987 1.0658816
0.125 0.49768323 1.4755981
0.15625 0.40141857 1.4170454
0.15625 0.44294745 1.4321606
0.21875 0.49959171 1.4057469
-0.0625 0.9471727 0.88671154
0.09375 0.93396592 0.85838938
0.03125 0.93396592 0.85838938
-0.03125 0.90755224 0.80174518
-0.09375 1.0660341 1.1416106
-0.03125 1.0660341 1.1416106
0.03125 1.0924478 1.1982548
0.0625 1.0528272 1.1132885
-0.34375 1.1716887 1.3681875
-0.21875 1.1981022 1.4248317
-0.21875 1.1716887 1.3681875
-0.1875 1.1584818 1.3398654
0.15625 1.1716887 1.3681875
0.21875 1.1716887 1.3681875
0.28125 1.1981022 1.4248317
0.28125 1.1716887 1.3681875
0.3125 1.1584818 1.3398654
-0.1875 0.80350113 1.5398762
-0.21875 0.79029429 1.5115541
0.15625 0.73365009 1.5379677
0.1875 0.80350113 1.5398762
0.21875 0.83182323 1.5266694
-0.34375 0.96037954 0.91503364
-0.28125 0.96037954 0.91503364
-0.21875 0.98679316 0.9716779
-0.21875 0.96037954 0.91503364
-0.1875 0.9471727 0.88671154
0.15625 0.96037954 0.91503364
0.21875 0.96037954 0.91503364
0.28125 0.98679316 0.9716779
0.28125 0.96037954 0.91503364
0.3125 0.9471727 0.88671154
0.21875 1.0132068 1.0283221
0.25 1.0264137 1.0566442
0.1875 1.0528272 1.1132885
0.28125 1.0396204 1.0849664
0.34375 1.0396204 1.0849664
-0.28125 1.0132068 1.0283221
-0.3125 1.0528272 1.1132885
-0.28125 1.0396204 1.0849664
-0.15625 1.0396204 1.0849664
-0.09375 0.22018749 1.3981131
-0.03125 0.2881301 1.4698726
-0.0625 0.27492326 1.4415505
-0.125 0.33156747 1.4151368
-0.09375 0.55241901 1.5190355
-0.09375 0.59394795 1.5341508
-0.09375 0.63547683 1.5492661
-0.125 0.66379899 1.5360593
-0.09375 0.23911971 1.216882
-0.09375 0.22400445 1.2584109
-0.03125 0.16736019 1.2848246
-0.09375 0.20888919 1.2999399
-0.125 0.22209597 1.328262
0.28125 0.40905243 1.1376411
0.125 0.25232655 1.2452042
0.09375 0.22400445 1.2584109
0.09375 0.19377381 1.3414688
0.0625 0.19568235 1.2716178
0.03125 0.18247551 1.2432957
0.28125 0.47317809 1.3491027
0.09375 0.63547683 1.5492661
0.03125 0.57883263 1.5756798
0.125 0.58074111 1.5058286
0.09375 0.34477431 1.443459
0.09375 0.30324537 1.4283437
0.03125 0.2466011 1.4547573
0.125 0.24850965 1.3849063
-0.1875 0.89434546 0.77342308
-0.15625 0.88113862 0.74510092
-0.03125 0.88113862 0.74510092
-0.09375 0.88113862 0.74510092
-0.15625 0.854725 0.68845665
0.0625 0.89434546 0.77342308
0.21875 0.88113862 0.74510092
0.15625 0.88113862 0.74510092
0.09375 0.854725 0.68845665
-0.21875 1.1188614 1.254899
-0.15625 1.1188614 1.254899
-0.09375 1.145275 1.3115433
-0.0625 1.1056546 1.2265769
-0.09375 1.1716887 1.3681875
0.03125 1.1981022 1.4248317
0 1.1848955 1.3965096
0.03125 1.1716887 1.3681875
0.0625 1.1584818 1.3398654
0.03125 1.1188614 1.254899
0.09375 1.1188614 1.254899
0.15625 1.145275 1.3115433
0.15625 1.1188614 1.254899
0.1875 1.1056546 1.2265769
-0.25 0.69402957 1.4530014
-0.28125 0.72235167 1.4397945
-0.28125 0.80540955 1.4700252
-0.25 0.86014533 1.5134625
-0.28125 0.46951365 0.97152531
0.25 0.45630682 0.94320321
0.28125 0.84693849 1.4851404
0.25 0.77708745 1.483232
0.28125 0.68082279 1.4246793
0.28125 0.72235167 1.4397945
-0.34375 0.93396592 0.85838938
-0.34375 0.90755224 0.80174518
-0.3125 0.89434546 0.77342308
0.28125 0.90755224 0.80174518
0.34375 0.90755224 0.80174518
0.34375 1.0660341 1.1416106
0.3125 1.1056546 1.2265769
0.34375 1.0924478 1.1982548
-0.375 1.0792409 1.1699327
-0.34375 1.0924478 1.1982548
-0.28125 1.0924478 1.1982548
-0.21875 0.33347595 1.3452858
-0.21875 0.37500489 1.3604012
-0.15625 0.40141857 1.4170454
-0.1875 0.38821173 1.3887233
-0.09375 0.38630319 1.4585743
-0.03125 0.45424581 1.5303338
-0.0625 0.44103903 1.5020118
-0.09375 0.46936113 1.4888048
-0.125 0.49768323 1.4755981
-0.21875 0.49959171 1.4057469
-0.21875 0.54112065 1.4208623
-0.15625 0.56753433 1.4775065
-0.21875 0.58264959 1.4359776
-0.25 0.61097169 1.4227707
-0.21875 0.41286939 0.99793899
-0.21875 0.39775407 1.0394679
-0.15625 0.34110987 1.0658816
-0.25 0.39584565 1.109319
-0.03125 0.22782135 1.1187088
-0.0625 0.25614351 1.105502
-0.09375 0.26935035 1.1338241
-0.125 0.28255719 1.1621463
-0.21875 0.35240817 1.1640548
-0.21875 0.33729291 1.2055837
-0.15625 0.28064865 1.2319973
-0.21875 0.32217765 1.2471126
0.25 0.42607623 1.0262611
0.21875 0.39775407 1.0394679
0.21875 0.36752355 1.1225258
0.25 0.36561501 1.1923769
0.21875 0.30706227 1.2886416
0.21875 0.32217765 1.2471126
0.1875 0.30897081 1.2187905
0.15625 0.29576397 1.1904684
0.125 0.31278771 1.0790883
0.09375 0.28446561 1.0922952
0.09375 0.25423503 1.1753531
0.0625 0.25614351 1.105502
0.21875 0.62417853 1.451093
0.21875 0.58264959 1.4359776
0.15625 0.52600539 1.4623913
0.1875 0.55432749 1.4491844
0.25 0.52791381 1.3925402
0.09375 0.51089001 1.5039202
0.03125 0.41271687 1.5152185
0.0625 0.44103903 1.5020118
0.125 0.41462535 1.4453675
0.21875 0.45806277 1.3906317
0.21875 0.41653383 1.3755164
0.15625 0.35988957 1.4019301
0.21875 0.37500489 1.3604012
-0.34375 0.854725 0.68845665
-0.21875 0.88113862 0.74510092
-0.25 0.86793178 0.71677881
-0.21875 0.90755224 0.80174518
-0.09375 0.93396592 0.85838938
-0.125 0.92075908 0.83006728
-0.0625 0.89434546 0.77342308
-0.09375 0.96037954 0.91503364
0.03125 0.98679316 0.9716779
0 0.97358638 0.94335574
0.0625 0.9471727 0.88671154
0.03125 0.90755224 0.80174518
0.09375 0.90755224 0.80174518
0.15625 0.93396592 0.85838938
0.15625 0.90755224 0.80174518
0.1875 0.89434546 0.77342308
0.15625 0.854725 0.68845665
0.28125 0.88113862 0.74510092
0.28125 0.854725 0.68845665
-0.03125 1.0132068 1.0283221
0 1.0264137 1.0566442
-0.0625 1.0528272 1.1132885
0.09375 1.0396204 1.0849664
-0.15625 1.0660341 1.1416106
-0.1875 1.1056546 1.2265769
-0.15625 1.0924478 1.1982548
-0.09375 1.0924478 1.1982548
-0.03125 1.0924478 1.1982548
0.09375 1.0660341 1.1416106
0.125 1.0792409 1.1699327
0.0625 1.1056546 1.2265769
0.21875 1.0924478 1.1982548
-0.28125 1.1188614 1.254899
-0.3125 1.1584818 1.3398654
-0.28125 1.145275 1.3115433
-0.15625 1.145275 1.3115433
-0.28125 1.1981022 1.4248317
-0.15625 1.1716887 1.3681875
-0.125 1.1848955 1.3965096
-0.09375 1.1981022 1.4248317
-0.03125 1.1981022 1.4248317
0.21875 1.1188614 1.254899
0.25 1.1320682 1.2832212
0.1875 1.1584818 1.3398654
0.34375 1.145275 1.3115433
0.09375 1.1716887 1.3681875
0.15625 1.1981022 1.4248317
0.21875 1.1981022 1.4248317
0.34375 1.1716887 1.3681875
0.375 1.1848955 1.3965096
-0.28125 0.68082279 1.4246793
-0.21875 0.66570747 1.4662082
-0.15625 0.73365009 1.5379677
-0.1875 0.72044325 1.5096456
-0.25 0.77708745 1.483232
-0.21875 0.83182323 1.5266694
-0.25 0.45630682 0.94320321
-0.28125 0.45439833 1.0130543
0.28125 0.46951365 0.97152531
0.21875 0.42798471 0.95641005
0.25 0.86014533 1.5134625
0.21875 0.79029429 1.5115541
0.21875 0.74876535 1.4964387
0.15625 0.69212115 1.5228524
0.21875 0.70723641 1.4813235
0.25 0.69402957 1.4530014
0.28125 0.63929385 1.409564
-0.375 0.86793178 0.71677881
-0.28125 0.88113862 0.74510092
-0.28125 0.90755224 0.80174518
-0.3125 0.9471727 0.88671154
-0.21875 0.93396592 0.85838938
-0.15625 0.93396592 0.85838938
-0.34375 0.98679316 0.9716779
-0.28125 0.98679316 0.9716779
-0.15625 0.96037954 0.91503364
-0.125 0.97358638 0.94335574
-0.1875 1 1
-0.09375 0.98679316 0.9716779
-0.03125 0.98679316 0.9716779
0.34375 0.854725 0.68845665
0.3125 0.89434546 0.77342308
0.21875 0.90755224 0.80174518
0.1875 0.9471727 0.88671154
0.21875 0.93396592 0.85838938
0.34375 0.93396592 0.85838938
0.09375 0.96037954 0.91503364
0.0625 1 1
0.15625 0.98679316 0.9716779
0.21875 0.98679316 0.9716779
0.34375 0.96037954 0.91503364
0.375 0.97358638 0.94335574
0.3125 1 1
0.28125 1.0132068 1.0283221
0.34375 1.0132068 1.0283221
0.1875 1 1
0.03125 1.0132068 1.0283221
0.125 1.0264137 1.0566442
0.15625 1.0396204 1.0849664
0.3125 1.0528272 1.1132885
0.28125 1.0660341 1.1416106
0.15625 1.0660341 1.1416106
0.21875 1.0660341 1.1416106
0.28125 1.0924478 1.1982548
0.28125 1.1188614 1.254899
0.375 1.1320682 1.2832212
-0.0625 1 1
-0.21875 1.0132068 1.0283221
-0.15625 1.0132068 1.0283221
-0.09375 1.0396204 1.0849664
-0.3125 1 1
-0.34375 1.0132068 1.0283221
-0.34375 1.0396204 1.0849664
-0.1875 1.0528272 1.1132885
-0.21875 1.0660341 1.1416106
-0.34375 1.0660341 1.1416106
-0.21875 1.0924478 1.1982548
-0.3125 1.1056546 1.2265769
-0.375 1.1320682 1.2832212
-0.34375 1.145275 1.3115433
-0.25 0.52791381 1.3925402
-0.28125 0.63929385 1.409564
-0.21875 0.29194701 1.3301705
-0.125 0.24850965 1.3849063
-0.15625 0.27683175 1.3716995
-0.15625 0.35988957 1.4019301
-0.09375 0.17865855 1.3829978
0 0.13522112 1.4377335
-0.03125 0.16354328 1.4245267
-0.03125 0.2466011 1.4547573
-0.09375 0.34477431 1.443459
-0.0625 0.35798109 1.4717811
0 0.30133688 1.4981947
-0.03125 0.37118793 1.5001032
-0.03125 0.41271687 1.5152185
-0.21875 0.62417853 1.451093
-0.125 0.58074111 1.5058286
-0.15625 0.65059215 1.5077372
-0.15625 0.69212115 1.5228524
-0.09375 0.51089001 1.5039202
0 0.46745265 1.558656
-0.03125 0.53730369 1.5605644
-0.03125 0.57883263 1.5756798
-0.25 0.42607623 1.0262611
-0.28125 0.42416775 1.0961121
-0.21875 0.42798471 0.95641005
-0.21875 0.30706227 1.2886416
-0.125 0.25232655 1.2452042
-0.15625 0.25041807 1.3150551
-0.15625 0.23530281 1.3565841
-0.09375 0.25423503 1.1753531
0 0.19949925 1.1319157
-0.03125 0.19759083 1.2017667
-0.03125 0.18247551 1.2432957
-0.09375 0.19377381 1.3414688
-0.0625 0.16545171 1.3546757
0 0.13903809 1.2980314
-0.03125 0.1371296 1.3678825
-0.03125 0.12201428 1.4094114
0.21875 0.41286939 0.99793899
0.28125 0.45439833 1.0130543
0.25 0.39584565 1.109319
0.28125 0.39393717 1.17917
0.03125 0.22782135 1.1187088
0.09375 0.23911971 1.216882
0.03125 0.19759083 1.2017667
0 0.16926873 1.2149736
0.15625 0.28064865 1.2319973
0.21875 0.29194701 1.3301705
0.15625 0.25041807 1.3150551
0.125 0.22209597 1.328262
0.03125 0.16736019 1.2848246
0.03125 0.15224493 1.3263535
0.09375 0.17865855 1.3829978
0.03125 0.1371296 1.3678825
0 0.10880744 1.3810893
0.25 0.61097169 1.4227707
0.28125 0.55623591 1.3793334
0.28125 0.51470697 1.364218
0.25 0.44485593 1.3623096
0.21875 0.66570747 1.4662082
0.125 0.66379899 1.5360593
0.15625 0.60906321 1.4926219
0.15625 0.56753433 1.4775065
0.09375 0.55241901 1.5190355
0.0625 0.52409685 1.5322423
0 0.55051053 1.5888865
0.03125 0.45424581 1.5303338
0.21875 0.33347595 1.3452858
0.125 0.33156747 1.4151368
0.15625 0.27683175 1.3716995
0.15625 0.23530281 1.3565841
0.09375 0.38630319 1.4585743
0 0.38439476 1.5284253
0.03125 0.32965899 1.484988
0.03125 0.2881301 1.4698726
0.09375 0.22018749 1.3981131
0.0625 0.19186538 1.41132
0 0.218279 1.4679642
0.03125 0.12201428 1.4094114
-0.015625 0.86132836 0.70261776
0.015625 0.86132836 0.70261776
0.015625 1.1386716 1.2973822
-0.015625 1.1386716 1.2973822
-0.171875 0.47787297 1.4331149
-0.171875 0.32504034 1.142336
0.15625 0.31843692 1.128175
0.171875 0.47787297 1.4331149
0.15625 0.46371192 1.4397182
-0.015625 0.9273625 0.84422833
0 0.93396592 0.85838938
0.015625 1.0726376 1.1557716
0 1.0660341 1.1416106
-0.234375 1.178292 1.3823485
0.265625 1.178292 1.3823485
-0.171875 0.76857555 1.538922
-0.171875 0.78934008 1.5464796
0.1875 0.78273666 1.5323186
-0.234375 0.96698296 0.92919469
0.265625 0.96698296 0.92919469
0.25 1.0396204 1.0849664
-0.234375 1.033017 1.0708053
-0.265625 1.033017 1.0708053
-0.09375 0.2824809 1.420786
-0.078125 0.26831985 1.4273894
-0.078125 0.62131584 1.5558695
-0.078125 0.20228577 1.2857788
0.078125 0.20228577 1.2857788
0.078125 0.60055137 1.5483118
0.09375 0.61471236 1.5417085
0.078125 0.26831985 1.4273894
0.09375 0.2824809 1.420786
-0.140625 0.8745352 0.73093987
-0.125 0.88113862 0.74510092
0.109375 0.8745352 0.73093987
0.125 0.88113862 0.74510092
-0.109375 1.1254648 1.2690601
-0.125 1.1188614 1.254899
0.015625 1.178292 1.3823485
-0.015625 1.178292 1.3823485
0.140625 1.1254648 1.2690601
-0.265625 0.74971962 1.4615133
-0.28125 0.7431162 1.4473522
-0.296875 0.92339301 1.50121
0.265625 0.89507091 1.5144168
0.265625 0.72895515 1.4539557
-0.328125 0.91415566 0.81590623
0.34375 0.92075908 0.83006728
0.359375 0.91415566 0.81590623
0.328125 1.0858443 1.1840937
-0.34375 1.0792409 1.1699327
-0.359375 1.0858443 1.1840937
-0.21875 0.39576936 1.3679588
-0.203125 0.38160831 1.3745621
-0.078125 0.45520008 1.4954083
-0.078125 0.43443561 1.4878507
-0.203125 0.56848854 1.4425809
-0.203125 0.37603539 1.0668359
-0.21875 0.39019644 1.0602324
-0.078125 0.26274693 1.1196631
-0.078125 0.27030456 1.0988986
-0.203125 0.31557423 1.2329515
0.203125 0.37603539 1.0668359
0.203125 0.38359302 1.0460713
0.203125 0.31557423 1.2329515
0.21875 0.32973528 1.2263482
0.078125 0.26274693 1.1196631
0.21875 0.56188512 1.4284199
0.203125 0.56848854 1.4425809
0.09375 0.44859666 1.4812472
0.078125 0.45520008 1.4954083
0.203125 0.38160831 1.3745621
-0.25 0.854725 0.68845665
-0.265625 0.86132836 0.70261776
-0.125 0.90755224 0.80174518
-0.140625 0.91415566 0.81590623
0 0.96037954 0.91503364
-0.015625 0.96698296 0.92919469
0.140625 0.91415566 0.81590623
0.265625 0.86132836 0.70261776
0 1.0396204 1.0849664
0.015625 1.033017 1.0708053
-0.125 1.0924478 1.1982548
-0.140625 1.0858443 1.1840937
0.125 1.0924478 1.1982548
0.140625 1.0858443 1.1840937
-0.234375 1.1386716 1.2973822
-0.265625 1.1386716 1.2973822
-0.34375 1.1848955 1.3965096
-0.125 1.1981022 1.4248317
0.25 1.145275 1.3115433
0.265625 1.1386716 1.2973822
0.125 1.1981022 1.4248317
0.328125 1.1914989 1.4106708
0.359375 1.1914989 1.4106708
-0.21875 0.72800088 1.4888811
-0.203125 0.71383983 1.4954846
0.203125 0.71383983 1.4954846
-0.34375 0.86793178 0.71677881
-0.25 0.93396592 0.85838938
-0.34375 0.97358638 0.94335574
-0.359375 0.9801898 0.95751679
-0.125 0.98679316 0.9716779
0.328125 0.8745352 0.73093987
0.359375 0.8745352 0.73093987
0.265625 0.9273625 0.84422833
0.234375 0.9273625 0.84422833
0.125 0.98679316 0.9716779
0.328125 0.9801898 0.95751679
0.359375 0.9801898 0.95751679
0.34375 1.0264137 1.0566442
0.359375 1.0198102 1.0424832
0.109375 1.0198102 1.0424832
0.265625 1.0726376 1.1557716
0.25 1.0660341 1.1416106
0.34375 1.1320682 1.2832212
-0.109375 1.0198102 1.0424832
-0.125 1.0132068 1.0283221
-0.328125 1.0198102 1.0424832
-0.265625 1.0726376 1.1557716
-0.234375 1.0726376 1.1557716
-0.328125 1.1254648 1.2690601
-0.359375 1.1254648 1.2690601
-0.265625 0.58360386 1.401052
-0.171875 0.31175721 1.3726537
-0.171875 0.2909928 1.3650961
-0.046875 0.1984688 1.425481
-0.046875 0.17770433 1.4179233
-0.03125 0.35042346 1.4925456
-0.15625 0.62982774 1.5001795
-0.03125 0.51653922 1.5530068
-0.265625 0.41756433 1.0819511
-0.15625 0.2579757 1.2942908
-0.03125 0.20514846 1.1810023
-0.03125 0.14468729 1.347118
0.265625 0.42512202 1.0611867
0.046875 0.21175188 1.1951632
0.171875 0.26457912 1.3084518
0.046875 0.15129066 1.361279
0.265625 0.56283933 1.3934944
0.15625 0.62982774 1.5001795
0.03125 0.51653922 1.5530068
0.046875 0.5099358 1.5388458
0.15625 0.29759622 1.3792571
0.03125 0.35042346 1.4925456
0.03125 0.18430769 1.4320843
0.046875 0.17770433 1.4179233
-0.015625 0.8745352 0.73093987
0.078125 0.86132836 0.70261776
-0.046875 0.86132836 0.70261776
-0.0625 0.854725 0.68845665
-0.046875 1.1518785 1.3257043
-0.0625 1.145275 1.3115433
0.046875 1.1518785 1.3257043
0.015625 1.1254648 1.2690601
-0.265625 0.8327775 1.4917438
-0.28125 0.82617408 1.4775828
0.265625 0.81201297 1.4841862
0.28125 0.82617408 1.4775828
-0.140625 0.4287864 1.4387641
-0.15625 0.42218304 1.424603
-0.140625 0.49107981 1.461437
-0.203125 0.48543066 1.4123504
-0.140625 0.31939113 1.0932494
-0.15625 0.33355224 1.0866461
-0.140625 0.29671824 1.1555429
-0.203125 0.34580481 1.1498936
0.203125 0.34580481 1.1498936
0.203125 0.3533625 1.1291292
0.15625 0.3033216 1.169704
0.140625 0.31939113 1.0932494
0.15625 0.50524092 1.4548336
0.15625 0.42218304 1.424603
0.140625 0.4287864 1.4387641
0.203125 0.46466613 1.4047928
-0.0625 0.93396592 0.85838938
0.0625 0.93396592 0.85838938
0.046875 0.94056928 0.87255049
0.015625 0.91415566 0.81590623
-0.0625 1.0660341 1.1416106
-0.046875 1.0594307 1.1274495
-0.015625 1.0858443 1.1840937
0.0625 1.0660341 1.1416106
-0.296875 1.1650853 1.3540266
-0.265625 1.1914989 1.4106708
-0.1875 1.1716887 1.3681875
0.1875 1.1716887 1.3681875
0.203125 1.1650853 1.3540266
0.234375 1.1914989 1.4106708
0.3125 1.1716887 1.3681875
-0.171875 0.74781108 1.5313643
-0.203125 0.81766218 1.5332727
0.171875 0.76857555 1.538922
0.15625 0.75441456 1.5455253
0.203125 0.79689771 1.5257151
-0.3125 0.96037954 0.91503364
-0.296875 0.95377612 0.90087259
-0.265625 0.9801898 0.95751679
-0.1875 0.96037954 0.91503364
0.1875 0.96037954 0.91503364
0.203125 0.95377612 0.90087259
0.234375 0.9801898 0.95751679
0.3125 0.96037954 0.91503364
0.234375 1.0198102 1.0424832
0.265625 1.0198102 1.0424832
0.1875 1.0396204 1.0849664
0.296875 1.0462239 1.0991274
-0.234375 1.0198102 1.0424832
-0.296875 1.0462239 1.0991274
-0.3125 1.0396204 1.0849664
-0.203125 1.0462239 1.0991274
-0.109375 0.25511301 1.3990673
-0.046875 0.28152668 1.4557116
-0.046875 0.26076216 1.448154
-0.09375 0.32400984 1.4359013
-0.09375 0.57318348 1.5265931
-0.109375 0.58734453 1.5199897
-0.046875 0.57222927 1.5615187
-0.109375 0.62887347 1.535105
-0.109375 0.64963794 1.5426626
-0.09375 0.23156208 1.2376465
-0.109375 0.2381655 1.2518076
-0.046875 0.18907893 1.2574568
-0.09375 0.2013315 1.3207043
0.265625 0.39489138 1.1442446
0.28125 0.4014948 1.1584055
0.109375 0.2381655 1.2518076
0.09375 0.23156208 1.2376465
0.109375 0.21549261 1.314101
0.046875 0.18152124 1.2782211
0.265625 0.47978151 1.3632638
0.28125 0.49394256 1.3566604
0.125 0.64303452 1.5285016
0.0625 0.58639026 1.5549152
0.046875 0.59299374 1.5690763
0.09375 0.57318348 1.5265931
0.09375 0.32400984 1.4359013
0.109375 0.31740642 1.4217403
0.046875 0.28152668 1.4557116
0.09375 0.2409519 1.4056708
-0.171875 0.88774204 0.75926197
-0.1875 0.88113862 0.74510092
-0.0625 0.88113862 0.74510092
-0.078125 0.88774204 0.75926197
-0.109375 0.86132836 0.70261776
-0.125 0.854725 0.68845665
0.0625 0.88113862 0.74510092
0.046875 0.88774204 0.75926197
0.1875 0.88113862 0.74510092
0.171875 0.88774204 0.75926197
0.140625 0.86132836 0.70261776
-0.1875 1.1188614 1.254899
-0.171875 1.112258 1.240738
-0.140625 1.1386716 1.2973822
-0.0625 1.1188614 1.254899
-0.046875 1.112258 1.240738
-0.046875 1.1650853 1.3540266
-0.078125 1.1650853 1.3540266
0.015625 1.1914989 1.4106708
-0.015625 1.1914989 1.4106708
0.0625 1.1716887 1.3681875
0.0625 1.1188614 1.254899
0.078125 1.112258 1.240738
0.125 1.145275 1.3115433
0.109375 1.1386716 1.2973822
0.1875 1.1188614 1.254899
-0.265625 0.70819068 1.446398
-0.28125 0.70158726 1.4322369
-0.265625 0.77048409 1.4690709
-0.28125 0.86770296 1.4926981
-0.265625 0.85354197 1.4993016
-0.265625 0.4553526 0.97812879
-0.265625 0.46291023 0.95736426
0.25 0.44874918 0.96396768
0.265625 0.46291023 0.95736426
0.265625 0.87430638 1.5068592
0.28125 0.78464508 1.4624676
0.265625 0.79124856 1.4766285
0.28125 0.70158726 1.4322369
0.265625 0.70819068 1.446398
-0.34375 0.92075908 0.83006728
-0.359375 0.9273625 0.84422833
-0.3125 0.90755224 0.80174518
0.3125 0.90755224 0.80174518
0.328125 0.90094888 0.78758413
0.328125 0.9273625 0.84422833
0.34375 1.0792409 1.1699327
0.359375 1.0726376 1.1557716
0.328125 1.0990511 1.2124159
0.3125 1.0924478 1.1982548
-0.328125 1.0726376 1.1557716
-0.328125 1.0990511 1.2124159
-0.203125 0.36084384 1.3670045
-0.171875 0.39481515 1.4028842
-0.171875 0.37405068 1.3953266
-0.203125 0.44390172 1.3972352
-0.109375 0.42122877 1.4595284
-0.109375 0.4004643 1.4519708
-0.046875 0.44764245 1.5161728
-0.046875 0.42687798 1.5086151
-0.09375 0.49012554 1.4963624
-0.21875 0.52035618 1.4133046
-0.234375 0.53451723 1.4067013
-0.15625 0.54676986 1.4699489
-0.171875 0.54016644 1.4557879
-0.21875 0.60341406 1.4435352
-0.21875 0.40531176 1.0187035
-0.234375 0.41191518 1.0328646
-0.1875 0.36187434 1.0734392
-0.171875 0.35527092 1.0592781
-0.21875 0.37508118 1.1017613
-0.234375 0.3816846 1.1159225
-0.125 0.30523008 1.0998528
-0.0625 0.24858588 1.1262665
-0.09375 0.26179272 1.1545886
-0.203125 0.33068949 1.1914227
-0.15625 0.28820634 1.2112329
-0.171875 0.30236739 1.2046294
-0.203125 0.30045891 1.2744805
0.234375 0.41191518 1.0328646
0.21875 0.40531176 1.0187035
0.234375 0.38924223 1.095158
0.171875 0.34771329 1.0800426
0.21875 0.34485054 1.1848192
0.234375 0.35901159 1.1782157
0.203125 0.3080166 1.253716
0.171875 0.29480976 1.2253939
0.109375 0.29106903 1.1064563
0.109375 0.26839614 1.1687497
0.109375 0.27595377 1.1479852
0.046875 0.23442477 1.13287
0.21875 0.60341406 1.4435352
0.234375 0.59681064 1.4293742
0.171875 0.54016644 1.4557879
0.171875 0.56093085 1.4633455
0.21875 0.52035618 1.4133046
0.234375 0.51375282 1.3991436
0.109375 0.48352218 1.4822015
0.109375 0.50428665 1.4897591
0.046875 0.42687798 1.5086151
0.046875 0.44764245 1.5161728
0.09375 0.40706772 1.4661319
0.21875 0.4372983 1.383074
0.234375 0.43069488 1.3689129
0.15625 0.3806541 1.4094877
0.171875 0.39481515 1.4028842
0.203125 0.34007931 1.3594469
-0.296875 0.86132836 0.70261776
-0.3125 0.854725 0.68845665
-0.234375 0.8745352 0.73093987
-0.265625 0.8745352 0.73093987
-0.171875 0.86132836 0.70261776
-0.171875 0.90094888 0.78758413
-0.203125 0.90094888 0.78758413
-0.109375 0.9273625 0.84422833
-0.140625 0.9273625 0.84422833
-0.0625 0.90755224 0.80174518
-0.046875 0.90094888 0.78758413
-0.046875 0.95377612 0.90087259
-0.078125 0.95377612 0.90087259
0.015625 0.9801898 0.95751679
-0.015625 0.9801898 0.95751679
0.0625 0.96037954 0.91503364
0.0625 0.90755224 0.80174518
0.046875 0.90094888 0.78758413
0.125 0.93396592 0.85838938
0.109375 0.9273625 0.84422833
0.1875 0.90755224 0.80174518
0.203125 0.86132836 0.70261776
0.1875 0.854725 0.68845665
0.25 0.88113862 0.74510092
0.234375 0.8745352 0.73093987
0.328125 0.86132836 0.70261776
-0.015625 1.0198102 1.0424832
0.015625 1.0198102 1.0424832
-0.0625 1.0396204 1.0849664
0.046875 1.0462239 1.0991274
0.078125 1.0462239 1.0991274
-0.109375 1.0726376 1.1557716
-0.125 1.0660341 1.1416106
-0.171875 1.0990511 1.2124159
-0.1875 1.0924478 1.1982548
-0.046875 1.0990511 1.2124159
0.109375 1.0726376 1.1557716
0.140625 1.0726376 1.1557716
0.046875 1.0990511 1.2124159
0.0625 1.0924478 1.1982548
0.171875 1.0990511 1.2124159
0.203125 1.0990511 1.2124159
-0.234375 1.1254648 1.2690601
-0.25 1.1188614 1.254899
-0.296875 1.1518785 1.3257043
-0.3125 1.145275 1.3115433
-0.203125 1.1518785 1.3257043
-0.171875 1.1518785 1.3257043
-0.328125 1.178292 1.3823485
-0.328125 1.1914989 1.4106708
-0.3125 1.1981022 1.4248317
-0.140625 1.178292 1.3823485
-0.125 1.1716887 1.3681875
-0.203125 1.1914989 1.4106708
-0.078125 1.1914989 1.4106708
-0.0625 1.1981022 1.4248317
0.234375 1.1254648 1.2690601
0.265625 1.1254648 1.2690601
0.171875 1.1518785 1.3257043
0.1875 1.145275 1.3115433
0.296875 1.1518785 1.3257043
0.328125 1.1518785 1.3257043
0.140625 1.178292 1.3823485
0.125 1.1716887 1.3681875
0.046875 1.1914989 1.4106708
0.171875 1.1914989 1.4106708
0.1875 1.1981022 1.4248317
0.34375 1.1848955 1.3965096
0.296875 1.1914989 1.4106708
-0.265625 0.66666174 1.4312826
-0.28125 0.66005826 1.4171216
-0.234375 0.70063305 1.4671624
-0.234375 0.67986852 1.4596047
-0.171875 0.72704667 1.5238067
-0.171875 0.70628214 1.5162491
-0.21875 0.76952982 1.5039964
-0.234375 0.78369087 1.497393
-0.234375 0.82521981 1.5125084
-0.25 0.44874918 0.96396768
-0.234375 0.44214576 0.94980663
-0.265625 0.44779491 0.99889326
0.265625 0.4553526 0.97812879
0.28125 0.46195602 0.99228984
0.234375 0.43458813 0.9705711
0.25 0.83938086 1.5059049
0.21875 0.76952982 1.5039964
0.234375 0.78369087 1.497393
0.15625 0.71288556 1.5304101
0.171875 0.72704667 1.5238067
0.21875 0.68647194 1.4737659
0.265625 0.64589727 1.423725
-0.328125 0.86132836 0.70261776
-0.359375 0.86132836 0.70261776
-0.328125 0.88774204 0.75926197
-0.296875 0.88774204 0.75926197
-0.234375 0.91415566 0.81590623
-0.25 0.90755224 0.80174518
-0.328125 0.94056928 0.87255049
-0.3125 0.93396592 0.85838938
-0.171875 0.94056928 0.87255049
-0.328125 0.96698296 0.92919469
-0.328125 0.99339658 0.98583895
-0.140625 0.96698296 0.92919469
-0.125 0.96037954 0.91503364
-0.203125 0.99339658 0.98583895
-0.1875 0.98679316 0.9716779
-0.078125 0.99339658 0.98583895
0.34375 0.86793178 0.71677881
0.359375 0.86132836 0.70261776
0.296875 0.88774204 0.75926197
0.3125 0.88113862 0.74510092
0.265625 0.91415566 0.81590623
0.25 0.90755224 0.80174518
0.171875 0.94056928 0.87255049
0.203125 0.94056928 0.87255049
0.296875 0.94056928 0.87255049
