# .PCD v0.7 - Point Cloud Data file format
VERSION 0.7
FIELDS x y z
SIZE 4 4 4
TYPE F F F
COUNT 1 1 1
WIDTH 1500
HEIGHT 1
VIEWPOINT 0 0 0 1 0 0 0
POINTS 1500
DATA ascii
0.31894255 0.93145031 2.5933571
0.66374266 0.63552475 2.3882325
0.74278629 0.76126504 2.3396986
0.41541362 1.0444329 2.5401535
0.41074395 1.0618603 2.5273957
0.69425237 0.84030873 2.4654388
0.68958271 0.85773611 2.4526811
0.021075189 0.73665082 1.804774
0.024126165 0.75712919 1.8124946
0.14754504 0.93783522 1.7271197
0.15059602 0.95831364 1.7348404
-0.14754504 1.0621648 2.2728803
-0.15059602 1.0416863 2.2651596
-0.12313727 1.225992 2.3346453
-0.138946 1.2008438 2.3443522
-0.021075189 1.2633492 2.195226
0.10805666 0.8132872 2.5474062
0.1050057 0.79280877 2.5396855
-0.054892063 0.88715023 2.5739918
0.25481316 1.3301084 2.4150784
0.39423251 1.2280464 2.3777211
-0.10289755 0.63318866 1.9384589
0.23213677 1.1817763 1.742337
0.24489453 1.186446 1.7249095
0.10289755 1.3668113 2.0615411
-0.23213677 0.81822377 2.257663
-0.24489453 0.81355411 2.2750905
0.43090314 0.64508271 2.4865141
0.45138159 0.65280336 2.4895651
0.45836189 0.82938826 2.5559998
0.47578937 0.81663048 2.5513301
0.29453477 0.76762319 2.5315919
0.43815044 0.54935193 2.1999977
0.41767204 0.54163128 2.1969466
0.60197759 0.61111701 2.2244055
0.59425694 0.60806602 2.203927
0.49991554 0.57375968 2.3638248
0.64366394 0.87627667 2.0738094
0.63594329 0.87322569 2.0533309
0.70542908 0.90068442 2.2376366
0.70075935 0.9181118 2.2248788
0.68102127 0.7368573 2.1758714
0.51280606 1.0992175 2.3879764
0.50004828 1.0945479 2.4054039
0.55016333 0.95979822 2.4900384
0.53740555 0.95512855 2.5074658
0.6568951 0.9797281 2.3633769
-0.019695185 0.62491953 1.8010256
-0.032452941 0.62024987 1.8184531
0.0047125891 0.78874665 1.8627908
-0.0080451667 0.78407699 1.8802181
0.029120363 0.95257378 1.9245558
0.016362604 0.94790417 1.9419832
0.13423342 1.0104095 1.7928571
0.23629549 1.0477668 1.6534377
-0.029120363 1.0474262 2.0754442
-0.016362604 1.0520959 2.0580168
-0.13118243 1.0100689 2.2148635
-0.13423342 0.98959053 2.2071428
-0.0047125891 1.2112534 2.1372092
0.0080451667 1.2159231 2.1197817
-0.22048676 0.97738123 2.3368554
-0.23629549 0.9522332 2.3465624
-0.30979109 0.94469362 2.4588475
-0.20883673 1.1365387 2.416048
0.019695185 1.3750805 2.1989744
0.032452941 1.3797501 2.1815469
-0.082366884 1.3377233 2.3383937
0.025243253 1.4932811 2.2627256
0.041051984 1.5184293 2.2530189
0.15206443 0.84920686 2.5612288
0.17254281 0.85692751 2.5642796
0.37805632 1.1838522 2.4380915
-0.076828167 0.56528407 1.8552941
-0.077935912 0.71977186 1.9519141
-0.15448247 0.69175392 2.0564785
-0.16724023 0.68708426 2.0739059
-0.053528138 0.88359904 2.013679
0.25820616 1.1138717 1.6591722
0.27401489 1.1390197 1.6494654
0.18776155 1.1268104 1.779178
0.17195281 1.1016624 1.7888848
0.072941713 1.0847836 1.9360248
0.18055186 1.2403415 1.8603567
0.19636059 1.2654896 1.8506498
0.15448247 1.3082461 1.9435215
0.16724023 1.3129158 1.9260941
0.040770378 1.1117313 2.0037484
0.080986887 1.3007065 2.0558066
0.077935912 1.2802281 2.0480859
0.076828167 1.434716 2.144706
-0.069890738 0.93569493 2.0716958
-0.072941713 0.91521651 2.0639751
-0.18055186 0.75965852 2.1396434
-0.18776155 0.87318957 2.2208221
-0.17195281 0.8983376 2.2111151
-0.25820616 0.88612837 2.3408279
-0.27401489 0.86098027 2.3505347
0.24747604 0.71122515 2.5100489
0.52719319 0.6427291 2.4863276
0.54462063 0.62997133 2.481658
0.69102037 0.70449412 2.5107355
0.70844775 0.6917364 2.5060658
0.57207942 0.81427687 2.5511436
0.26883286 0.85457385 2.5640934
0.43265998 0.91633898 2.588501
0.37167814 0.5245713 2.2287505
0.576792 0.60302353 2.4139345
0.67885405 0.64038086 2.2745152
0.74061912 0.6647886 2.4383423
0.63270593 0.94903731 2.0432568
0.71352249 0.71115535 2.2628222
0.7379303 0.87498248 2.3245873
0.77528757 0.7355631 2.4266493
0.53365195 1.1259843 2.3403637
0.42692018 1.1060544 2.4670253
0.46427745 0.96663505 2.5690875
0.47703522 0.97130471 2.5516601
0.70575893 0.90193033 2.3923109
0.60369688 0.864573 2.5317302
0.7431162 0.7625109 2.4943728
0.75587398 0.76718056 2.4769454
0.084310114 0.83724302 1.7659469
0.1414431 0.89687848 1.7116785
0.078208178 0.79628623 1.7505056
0.075157203 0.77580786 1.742785
-0.13534115 1.1440784 2.3037629
-0.13839212 1.1235999 2.2960422
-0.087914959 1.2195225 2.2746425
-0.084310114 1.1627569 2.2340531
0.038346976 0.86431825 2.5660849
0.035296023 0.84383982 2.5583642
0.32452285 1.2790774 2.3963997
0.31985319 1.2965049 2.383642
0.44615802 0.74747467 2.5251174
0.44310704 0.7269963 2.5173967
0.39387578 0.78574795 2.5391264
0.36424449 0.71659213 2.5129135
0.520064 0.58023441 2.2122016
0.49958563 0.57251382 2.2091506
0.54322588 0.58938736 2.2736368
0.46903297 0.5615558 2.2819111
0.67454648 0.88848054 2.1557231
0.66682589 0.88542956 2.1352446
0.68855548 0.83619827 2.1939962
0.66234261 0.80656695 2.1248405
0.53148472 1.0295079 2.4390073
0.60119438 0.97847688 2.4203289
0.5884366 0.97380722 2.4377561
0.58718538 1.0307591 2.3820555
0.016916476 0.87066025 1.8936733
0.080151401 0.97125244 1.8548461
0.067393646 0.96658278 1.8722736
0.07099849 0.90981728 1.8316842
-0.080151401 1.0287476 2.1451538
-0.067393646 1.0334172 2.1277266
-0.07099849 1.0901828 2.1683159
-0.016916476 1.1293398 2.1063268
-0.27151781 0.95870262 2.4065652
-0.27512264 1.0154681 2.4471545
-0.22104064 1.0546252 2.3851655
-0.03133586 1.3564019 2.2686839
-0.018578097 1.3610716 2.2512565
-0.022182941 1.417837 2.2918458
0.031899065 1.4569941 2.229857
0.16121735 0.91064203 2.5843906
0.085405692 0.92071629 2.5876279
0.31768596 1.2000284 2.4822855
0.32235563 1.182601 2.4950433
0.30834663 1.2348833 2.4567702
-0.12896696 0.7010932 2.0216236
-0.11620919 0.70576292 2.0041962
-0.11981404 0.76252842 2.0447855
-0.065732025 0.80168545 1.9827965
0.12397275 1.1034621 1.8663151
0.13673051 1.1081318 1.8488877
0.13312566 1.1648973 1.889477
0.18720767 1.2040544 1.8274879
0.10400531 1.2123235 1.9649212
0.11981404 1.2374716 1.9552144
0.065732025 1.1983145 2.0172033
0.11620919 1.2942371 1.9958037
-0.13312566 0.83510268 2.110523
-0.1841567 0.81642401 2.1802328
-0.18720767 0.79594564 2.1725121
-0.13673051 0.89186817 2.1511123
0.60910678 0.67361164 2.4985316
0.62131065 0.75552523 2.5294142
0.6387381 0.74276745 2.5247445
0.55987549 0.73236334 2.5202613
0.35074645 0.88545644 2.5762973
0.33026803 0.87773579 2.5732462
0.37732679 0.93413383 2.5947895
0.2954132 0.90325129 2.5825856
0.27798575 0.91600907 2.5872552
0.62782305 0.62170219 2.3442249
0.61506528 0.61703253 2.3616524
0.68925816 0.64486408 2.3533778
0.65870553 0.63390607 2.4261384
0.66358846 0.96124119 2.1251702
0.66663945 0.98171961 2.1328909
0.72572637 0.79306889 2.2937047
0.72267544 0.77259052 2.285984
0.74888825 0.80222183 2.35514
0.74440497 0.72335923 2.3447359
0.60336161 1.0749533 2.3216851
0.59869194 1.0923808 2.3089273
0.40140462 1.0967151 2.5018802
0.42008328 1.0270054 2.5529113
0.40732554 1.0223358 2.5703387
0.44559884 1.0363448 2.5180564
0.65472788 0.88325167 2.4620204
0.66748565 0.88792133 2.444593
0.66873688 0.83096939 2.5002937
0.72443753 0.83222061 2.4433417
-0.0044403225 0.72731149 1.8396288
-0.007491298 0.70683306 1.8319082
0.055743627 0.80742532 1.793081
0.042985871 0.80275565 1.8105085
0.046590716 0.74599016 1.7699192
0.04353974 0.72551173 1.7621986
0.11897855 0.90801752 1.7542539
0.1062208 0.90334785 1.7716813
0.18221349 1.0086098 1.7154267
0.16945572 1.0039401 1.7328541
0.17306057 0.94717455 1.6922648
-0.18221349 0.99139023 2.2845733
-0.16945572 0.99605989 2.2671459
-0.17306057 1.0528255 2.3077352
-0.11897855 1.0919825 2.2457461
-0.1062208 1.0966522 2.2283187
-0.14504795 1.1598871 2.3289108
-0.16085668 1.134739 2.3386176
-0.13284406 1.2418007 2.3597934
-0.14865279 1.2166526 2.3695002
-0.094570786 1.2558095 2.3075111
-0.055743627 1.1925747 2.206919
-0.042985871 1.1972444 2.1894915
-0.04353974 1.2744882 2.2378016
-0.046590716 1.2540098 2.2300808
0.007491298 1.2931669 2.1680918
0.14291152 0.7877717 2.5380669
0.13986054 0.76729327 2.5303462
0.09062925 0.82604492 2.5520759
0.00044116378 0.86935532 2.5677035
0.020919561 0.87707597 2.5707545
0.33307499 0.50931644 2.1263585
0.32535434 0.50626552 2.1058803
0.59877241 0.91635501 1.9536226
0.59410274 0.93378246 1.9408648
0.27224058 1.3173507 2.4104087
0.35470802 1.2709894 2.3743026
0.34195024 1.2663198 2.3917301
0.4244177 1.2199583 2.355624
0.41165996 1.2152886 2.3730514
-0.11565532 0.628519 1.9558864
-0.12841308 0.62384933 1.9733138
-0.090139799 0.63785827 1.9210315
0.22603482 1.1408194 1.7268958
0.23879258 1.1454891 1.7094684
0.21937901 1.1771066 1.7597644
0.11565532 1.3714809 2.0441136
0.12841308 1.3761506 2.0266862
0.093190774 1.3826201 2.0866892
0.090139799 1.3621417 2.0789685
-0.21937901 0.82289344 2.2402356
-0.23879258 0.8545109 2.2905316
0.46880901 0.64004558 2.4848955
0.45748353 0.69376016 2.5050063
0.47491094 0.68100238 2.5003366
0.39909929 0.69107664 2.5035741
0.46968743 0.77567375 2.5358889
0.48711485 0.76291597 2.5312192
0.48189133 0.85758728 2.5667715
0.49931872 0.84482956 2.5621018
0.42045611 0.83442539 2.5576186
0.32633865 0.72162926 2.5145321
0.30586025 0.71390867 2.511481
0.33854255 0.80354285 2.5454147
0.33549157 0.78306448 2.537694
0.25662896 0.77266032 2.5332108
0.40223077 0.53552938 2.1559899
0.38947302 0.53085971 2.1734173
0.45862883 0.55707252 2.2030487
0.47138661 0.56174219 2.1856213
0.43311334 0.54773325 2.2379036
0.42035556 0.54306358 2.2553308
0.54054242 0.58795512 2.2152524
0.62245601 0.61883759 2.2274563
0.59694046 0.60949826 2.2623112
0.48447424 0.56765771 2.3228681
0.54590946 0.59081966 2.332021
0.52543104 0.58309901 2.32897
0.51535678 0.57986164 2.4047816
0.62660396 0.90808052 2.0278156
0.62355304 0.88760209 2.0200949
0.64976585 0.91723347 2.0892506
0.65300333 0.84142178 2.0993249
0.68531811 0.91200989 2.1839221
0.68064845 0.92943728 2.1711643
0.71314967 0.9037354 2.2581151
0.7070477 0.8627786 2.2426736
0.67168188 0.77171212 2.1503561
0.69484383 0.78086501 2.211791
0.68712318 0.77781403 2.1913128
0.69036055 0.70200241 2.2013869
0.4779512 1.1247331 2.3973157
0.49070895 1.1294028 2.3798883
0.50938761 1.0596931 2.4309194
0.49196017 1.0724509 2.4355891
0.54766089 1.0737021 2.3786371
0.56041867 1.0783718 2.3612096
0.52806628 0.98998338 2.4819503
0.51063883 1.0027411 2.4866199
0.54674494 0.92027366 2.5329814
0.5293175 0.93303144 2.5376511
0.58501822 0.93428266 2.4806991
0.61737061 1.022671 2.3599584
0.63012832 1.0273407 2.342531
0.63604921 0.95296133 2.4109895
0.6313796 0.97038877 2.3982317
0.69174993 0.95421255 2.3540375
-0.048261672 0.59510177 1.8281599
-0.051312648 0.57462335 1.8204392
-0.026351005 0.6612066 1.8338944
-0.042159736 0.63605857 1.8436012
0.014973253 0.69569403 1.7893327
-0.014147118 0.74312019 1.8647768
-0.029955849 0.71797216 1.8744837
-0.0019432269 0.82503378 1.8956594
-0.017751958 0.79988575 1.9053662
0.036330052 0.83904278 1.8433772
0.049087808 0.84371245 1.8259498
0.01026066 0.90694737 1.926542
-0.0055480711 0.88179928 1.9362488
0.022464547 0.98886091 1.9574245
0.006655816 0.96371287 1.9671313
0.060737826 1.00287 1.9051423
0.099564977 0.93963498 1.8045501
0.096514001 0.91915661 1.7968295
0.11176886 1.0215485 1.8354325
0.10871789 1.0010701 1.8277119
0.16279989 1.0402272 1.7657229
0.20467803 0.99747068 1.6728513
0.20162705 0.97699231 1.6651306
0.21383095 1.0589058 1.6960132
0.21077996 1.0384275 1.6882925
0.26791295 1.0980629 1.6340241
-0.022464547 1.011139 2.0425754
-0.006655816 1.0362871 2.0328686
-0.060737826 0.9971301 2.0948577
-0.01026066 1.0930526 2.073458
0.0055480711 1.1182007 2.0637512
-0.10871789 0.99892986 2.1722879
-0.11176886 0.97845143 2.1645675
-0.15974893 0.98025119 2.2419977
-0.16279989 0.95977277 2.234277
-0.096514001 1.0808434 2.2031705
0.0019432269 1.1749662 2.1043406
0.017751958 1.2001143 2.0946338
-0.049087808 1.1562876 2.1740503
-0.036330052 1.1609572 2.1566229
0.014147118 1.2568798 2.1352232
0.029955849 1.2820278 2.1255164
-0.21077996 0.96157253 2.3117075
-0.21383095 0.94109416 2.3039868
-0.26181102 0.94289386 2.3814173
-0.26486197 0.92241549 2.3736966
-0.21438481 1.0183381 2.3522968
-0.19857608 1.0434861 2.3425901
-0.29703331 0.94936329 2.4414201
-0.30674011 0.96517199 2.466568
-0.30368912 0.98565042 2.4742887
-0.20218092 1.1002517 2.3831792
-0.18942317 1.1049213 2.365752
-0.24350518 1.0657642 2.4277411
-0.18027025 1.1663564 2.3889139
-0.17721927 1.1868348 2.3966343
0.026351005 1.3387934 2.1661057
0.042159736 1.3639414 2.1563988
-0.024680033 1.3201147 2.2358153
-0.011922278 1.3247844 2.2183878
0.038554892 1.420707 2.1969881
0.054363623 1.445855 2.1872814
-0.05990234 1.3265841 2.2958183
-0.062953323 1.3061057 2.2880976
-0.11703533 1.2669487 2.3500867
-0.053800404 1.3675408 2.3112595
-0.050749421 1.3880193 2.3189802
0.038001016 1.4979508 2.2452981
0.0094345212 1.4681332 2.2724323
0.17776637 0.76225615 2.5287275
0.1747154 0.74177778 2.5210068
0.16644087 0.81597072 2.5488384
0.18386832 0.80321294 2.5441687
0.17864476 0.89788431 2.579721
0.19607219 0.88512653 2.5750513
0.11720958 0.87472236 2.5705681
0.096731201 0.86700177 2.567517
0.061876342 0.89251727 2.5768564
0.34583274 0.51398611 2.1089311
0.35859048 0.51865578 2.0915036
0.34079558 0.51236743 2.146837
0.60182339 0.93683344 1.9613432
0.60487437 0.95731181 1.9690639
0.60344207 0.89892757 1.9663804
0.29433766 1.2871655 2.4184968
0.33853182 1.2267952 2.4346731
0.33386219 1.2442226 2.4219153
0.35721049 1.1570855 2.4857039
0.35254079 1.1745129 2.4729462
0.40824151 1.1757641 2.4159944
0.46394223 1.1770153 2.3590424
-0.064070404 0.56995374 1.8378667
-0.079879135 0.54480565 1.8475735
-0.083483979 0.6015712 1.8881629
-0.067675248 0.62671924 1.878456
-0.055471361 0.70863283 1.9093385
-0.058522336 0.68815446 1.9016179
-0.12231113 0.66480613 1.988755
-0.10955337 0.66947579 1.9713275
-0.043267477 0.79054642 1.9402211
-0.14172471 0.69642359 2.0390511
-0.16113828 0.72804105 2.0893474
-0.046872322 0.84731191 1.9808104
-0.034114562 0.85198158 1.963383
-0.097903356 0.82863325 2.0505202
-0.0851456 0.83330292 2.0330927
-0.034668434 0.9292255 2.011693
0.27096391 1.1185412 1.6417447
0.28372169 1.123211 1.6243174
0.23269065 1.1045324 1.6940271
0.24544841 1.109202 1.6765996
0.19746834 1.1110017 1.75403
0.19441736 1.0905234 1.7463093
0.13062857 1.067175 1.8334464
0.1464373 1.0923231 1.8237396
0.1938635 1.1677673 1.7946193
0.20967223 1.1929153 1.7849125
0.095406264 1.0736444 1.8934493
0.092355289 1.053166 1.8857287
0.028566491 1.0298177 1.9728658
0.04132425 1.0344874 1.9554384
0.09180142 1.13041 1.9340386
0.19330962 1.2450111 1.8429292
0.15503635 1.2310022 1.8952115
0.16779411 1.2356719 1.877784
0.14532955 1.2468109 1.9203596
0.14838052 1.2672893 1.9280802
0.14172471 1.3035765 1.9609488
0.0851456 1.166697 1.9669074
0.097903356 1.1713667 1.9494799
0.018859703 1.0456264 1.9980139
0.034668434 1.0707746 1.988307
0.034114562 1.1480184 2.036617
0.1065024 1.3100458 2.0209517
0.12231113 1.3351939 2.011245
0.043267477 1.2094536 2.0597789
0.046318449 1.229932 2.0674996
0.055471361 1.2913672 2.0906615
0.058522336 1.3118455 2.098382
0.067675248 1.3732808 2.1215439
0.083483979 1.3984288 2.1118371
0.064070404 1.4300463 2.1621332
0.079879135 1.4551944 2.1524265
-0.04132425 0.96551263 2.0445616
-0.028566491 0.9701823 2.0271342
-0.10761015 0.84444201 2.0756681
-0.10455918 0.86492038 2.0833888
-0.095406264 0.9263556 2.1065507
-0.092355289 0.94683397 2.1142714
-0.17084508 0.74384975 2.1144953
-0.15503635 0.76899785 2.1047885
-0.19330962 0.75498885 2.1570709
-0.20606738 0.75031918 2.1744981
-0.1464373 0.90767694 2.1762605
-0.13062857 0.93282497 2.1665535
-0.20967223 0.80708468 2.2150874
-0.1938635 0.83223277 2.2053807
-0.19746834 0.88899827 2.24597
-0.19441736 0.90947664 2.2536907
-0.24544841 0.89079797 2.3234005
-0.23269065 0.8954677 2.3059731
-0.27096391 0.8814587 2.3582551
-0.28372169 0.87678903 2.3756826
0.26490349 0.69846737 2.5053792
0.2823309 0.6857096 2.5007095
0.23004863 0.72398287 2.5147185
0.21262118 0.73674065 2.5193882
0.50366384 0.61453009 2.4755561
0.50061285 0.59405166 2.4678354
0.58557743 0.64541262 2.4877601
0.58252645 0.6249342 2.4800394
0.53329515 0.6836859 2.5017691
0.51586771 0.69644362 2.5064387
0.66749102 0.67629516 2.4999638
0.66444004 0.65581673 2.4922433
0.74940455 0.7071777 2.5121677
0.74635357 0.68669927 2.504447
0.69712234 0.74545097 2.5261767
0.54549903 0.76559943 2.5326514
0.5250206 0.75787878 2.5296006
0.62741262 0.79648197 2.5448554
0.60693425 0.78876138 2.5418043
0.5577029 0.84751302 2.563534
0.22482508 0.81865418 2.5502706
0.2217741 0.79817581 2.5425501
0.32416606 0.836779 2.5578051
0.30368769 0.82905835 2.5547538
0.23702896 0.90056777 2.5811532
0.38865227 0.88041925 2.5746784
0.38560128 0.85994089 2.566958
0.48799324 0.89854407 2.5822127
0.46751481 0.89082342 2.5791616
0.41828355 0.94957507 2.6008914
0.34851623 0.51541841 2.1673155
0.33575845 0.51074874 2.1847427
0.39215654 0.53229195 2.2318015
0.37939876 0.52762228 2.249229
0.36631113 0.52170676 2.1119821
0.53079802 0.58596355 2.4457383
0.51031965 0.57824296 2.4426875
0.57410842 0.60159123 2.3555503
0.5613507 0.59692156 2.3729777
0.61271161 0.61684608 2.4579422
0.63286012 0.62332088 2.306319
0.6123817 0.61560023 2.303268
0.67617053 0.63894856 2.216131
0.66341275 0.63427889 2.2335584
0.70705307 0.65115243 2.2980444
0.68690461 0.64467764 2.4496677
0.67414683 0.64000797 2.4670951
0.7379356 0.6633563 2.3799582
0.72517788 0.65868664 2.3973856
0.76881814 0.67556024 2.4618716
0.61116272 0.90197855 1.9868587
0.62498534 0.94598633 2.0227783
0.61726463 0.94293535 2.0023
0.65119815 0.97561765 2.0919342
0.65586782 0.9581902 2.104692
0.67130911 0.96429217 2.1456487
0.69969988 0.66714758 2.2269025
0.69197923 0.66409659 2.2064242
0.70723414 0.76648855 2.2450273
0.70418316 0.74601018 2.2373066
0.73058242 0.67935145 2.308816
0.72410762 0.8309747 2.2886677
0.71638703 0.82792377 2.2681892
0.73164189 0.93031573 2.3067923
0.72859091 0.90983737 2.2990718
0.75032055 0.86060607 2.3578234
0.75679535 0.70898277 2.3779719
0.75374436 0.68850434 2.3702512
0.76899922 0.79089636 2.4088545
0.76594824 0.77041793 2.4011338
0.78767782 0.72118664 2.4598856
0.48136961 1.1642576 2.3543727
0.49412739 1.1689273 2.3369453
0.56850672 1.1004689 2.3310244
0.60803127 1.0575259 2.3344429
0.44776601 1.1328212 2.4194129
0.44309634 1.1502486 2.4066551
0.37930754 1.1269003 2.4937921
0.39206529 1.13157 2.4763646
0.46644467 1.0631115 2.4704437
0.46769592 1.0061595 2.5261445
0.48045367 1.0108292 2.5087171
0.41666487 0.98748094 2.5958543
0.42942262 0.99215055 2.5784268
0.48637453 0.93644989 2.5771756
0.503802 0.92369211 2.572506
0.72660476 0.92869705 2.3446982
0.72193509 0.94612443 2.3319404
0.65814632 0.92277616 2.4190774
0.67090404 0.92744583 2.4016502
0.74528342 0.85898733 2.3957293
0.62454265 0.89133972 2.4841175
0.61987305 0.90876716 2.4713597
0.55608422 0.88541883 2.558497
0.56884199 0.8900885 2.5410695
0.64322132 0.82163006 2.5351486
0.74653465 0.80203545 2.4514298
0.75929242 0.80670512 2.4340024
0.69550365 0.78335679 2.5211396
0.70826137 0.78802645 2.5037122
0.76521325 0.73232573 2.502461
0.78264076 0.71956801 2.4977913
0.12563437 0.87173039 1.7213852
0.10372369 0.80562556 1.7156508
0.10677467 0.82610393 1.7233714
0.081259146 0.81676459 1.7582262
-0.10372369 1.1943744 2.2843492
-0.10677467 1.1738961 2.2766285
-0.081259146 1.1832354 2.2417738
-0.12563437 1.1282696 2.2786148
0.41130319 0.77299023 2.5344567
0.40825224 0.7525118 2.526736
0.36729544 0.73707056 2.5206339
0.40520126 0.73203343 2.5190153
0.42262864 0.71927565 2.5143456
0.53550529 0.58633637 2.2531583
0.51502687 0.57861578 2.2501073
0.48951137 0.56927645 2.2849622
0.4945485 0.57089514 2.2470565
0.48682788 0.56784415 2.226578
0.68388581 0.85362566 2.1812384
0.67616516 0.85057473 2.1607602
0.67006326 0.80961794 2.1453187
0.66844451 0.84752375 2.1402817
0.66377491 0.86495113 2.1275239
0.57100916 0.98656493 2.4424257
0.59185505 1.0133317 2.3948133
0.57909727 1.008662 2.4122407
0.5442425 1.0341775 2.4215801
0.051584911 0.94143474 1.8819803
0.074049458 0.93029565 1.8394048
0.061291698 0.92562604 1.8568323
0.029674236 0.87532991 1.8762459
-0.074049458 1.0697043 2.1605952
-0.061291698 1.074374 2.1431677
-0.029674236 1.1246701 2.123754
-0.051584911 1.0585653 2.1180196
-0.27817363 0.99498975 2.4394338
-0.26541585 0.99965942 2.4220064
-0.23379838 1.0499555 2.4025929
-0.2526581 1.0043291 2.4045792
-0.25570905 0.98385066 2.3968585
-0.025233909 1.3973587 2.2841253
-0.012476146 1.4020283 2.2666979
0.019141316 1.4523244 2.2472842
0.00028160214 1.406698 2.2492704
-0.0027693659 1.3862195 2.2415497
0.10893509 0.9489153 2.5983996
0.088456675 0.94119465 2.5953486
0.29217044 1.1906891 2.5171404
0.28283113 1.225544 2.4916248
0.30025852 1.2127862 2.4869552
-0.12286501 0.74205005 2.037065
-0.11010724 0.74671972 2.0196376
-0.07848978 0.79701579 2.0002239
-0.097349487 0.75138938 2.0022101
-0.10040046 0.73091096 1.9944896
0.13007469 1.144419 1.8817564
0.14283246 1.1490886 1.864329
0.17444992 1.1993847 1.8449154
0.15559021 1.1537583 1.8469015
0.15253924 1.1332798 1.8391809
0.07848978 1.2029842 1.999776
0.094298512 1.2281322 1.9900693
0.10040046 1.269089 2.0055106
0.11010724 1.2532803 1.9803624
0.12286501 1.2579499 1.962935
-0.17444992 0.80061531 2.1550846
-0.15253924 0.86672014 2.1608191
-0.15559021 0.84624171 2.1530986
-0.13007469 0.85558105 2.1182437
0.63568711 0.72228909 2.5170238
0.58035392 0.74008393 2.5233121
0.5977813 0.72732615 2.5186424
0.59167933 0.68636942 2.5032012
0.35684836 0.92641318 2.5917385
0.33636996 0.91869259 2.5886874
0.30151516 0.94420809 2.5980268
0.31589156 0.91097194 2.5856366
0.31284061 0.89049351 2.5779159
0.66877979 0.63714349 2.3503268
0.65602201 0.63247383 2.3677542
0.67146325 0.63857573 2.408711
0.64326429 0.62780416 2.3851817
0.62278587 0.62008345 2.3821306
0.74116766 0.79917085 2.3346615
0.73811668 0.77869248 2.3269408
0.74745595 0.74383759 2.3524563
0.7350657 0.75821412 2.3192203
0.72734505 0.75516307 2.2987418
0.38522846 1.052521 2.5622506
0.3979862 1.0571907 2.5448232
0.43284106 1.0316751 2.5354838
0.40607432 1.0792876 2.5146379
0.66406721 0.84839678 2.487536
0.67682499 0.85306644 2.4701085
0.71167982 0.82755095 2.4607692
0.6849131 0.87516356 2.4399233
0.02717714 0.77760756 1.8202152
0.049641684 0.76646852 1.7776397
0.03688392 0.76179886 1.7950672
0.0052664578 0.71150273 1.8144808
0.15364699 0.97879207 1.742561
0.17611153 0.96765298 1.6999855
0.16335377 0.96298331 1.7174129
0.13173631 0.91268718 1.7368265
-0.17611153 1.032347 2.3000145
-0.16335377 1.0370166 2.2825871
-0.13173631 1.0873128 2.2631736
-0.15364699 1.0212079 2.2574391
-0.15170376 1.1961741 2.3617797
-0.10732853 1.25114 2.3249385
-0.12618825 1.2055135 2.3269248
-0.12923922 1.1850351 2.3192041
-0.049641684 1.2335315 2.2223601
-0.03688392 1.2382011 2.2049327
-0.0052664578 1.2884972 2.1855192
-0.024126165 1.2428708 2.1875052
-0.02717714 1.2223924 2.1797848
0.084527314 0.78508818 2.5366344
0.11938213 0.75957263 2.5272951
-0.020037234 0.86163473 2.5646524
0.24547383 1.3649633 2.3895628
0.40232062 1.2501435 2.3475358
0.38956285 1.2454739 2.3649633
0.36746576 1.275659 2.3568752
-0.14727278 0.57822287 1.9753
-0.12175726 0.5875622 1.9404451
-0.11870629 0.60804057 1.9481657
0.2546013 1.1706371 1.6997615
0.25765228 1.1911156 1.7074821
0.12175726 1.4124378 2.0595551
0.11870629 1.3919594 2.0518343
0.14727278 1.4217771 2.0247002
-0.25765228 0.80888444 2.2925179
-0.2546013 0.82936281 2.3002386
0.47185999 0.66052401 2.4926162
0.41652673 0.67831886 2.4989045
0.43395412 0.66556108 2.4942348
0.42785218 0.62460434 2.4787934
0.49626774 0.82435113 2.5543811
0.44093448 0.84214604 2.5606694
0.45531094 0.80890989 2.5482793
0.45225996 0.78843147 2.5405586
0.33244061 0.76258606 2.5299735
0.31196219 0.75486541 2.5269225
0.27710736 0.78038096 2.5362616
0.29148382 0.74714482 2.5238714
0.28843284 0.72666639 2.5161507
0.44318756 0.55097061 2.1620917
0.43042982 0.54630095 2.1795192
0.44587108 0.55240285 2.2204762
0.39719367 0.53391063 2.1938958
0.60701466 0.61273569 2.1864996
0.60969824 0.61416793 2.2448838
0.58149916 0.60339636 2.2213545
0.56102079 0.59567571 2.2183034
0.50495261 0.57537836 2.3259189
0.49219486 0.57070869 2.3433464
0.50763619 0.57681066 2.3843031
0.47943711 0.56603909 2.3607738
0.45895872 0.55831844 2.3577228
0.64204526 0.91418242 2.0687723
0.63899428 0.89370406 2.0610516
0.64833361 0.85884923 2.0865672
0.6282227 0.87017471 2.0328526
0.70381033 0.93859023 2.2325995
0.71009868 0.88325703 2.2503943
0.69770837 0.89763343 2.2171581
0.68998772 0.89458251 2.1966798
0.67940253 0.77476311 2.1708343
0.67635155 0.75428468 2.1631136
0.68569094 0.71942985 2.1886292
0.67330056 0.73380631 2.1553931
0.66557997 0.73075533 2.1349146
0.48729053 1.0898782 2.4228313
0.53490317 1.0690324 2.3960645
0.51747572 1.0817902 2.4007342
0.50813639 1.116645 2.3752186
0.52464783 0.95045888 2.5248933
0.57226044 0.92961299 2.4981265
0.55483305 0.94237077 2.5027962
0.54549366 0.9772256 2.4772806
0.62670988 0.98781615 2.385474
0.63946766 0.99248582 2.3680465
0.67432249 0.96697032 2.3587072
0.65222538 0.99715549 2.3506191
0.64755571 1.0145829 2.3378613
-0.045210704 0.6155802 1.8358805
-0.00083547831 0.67054594 1.7990395
-0.01664421 0.6453979 1.8087463
-0.022746161 0.60444111 1.793305
-0.02080293 0.77940732 1.8976456
0.023572296 0.83437312 1.8608046
0.0077635646 0.80922508 1.8705114
0.0016616136 0.76826823 1.8550701
0.0036048442 0.9432345 1.9594107
0.047980066 0.99820024 1.9225696
0.032171335 0.9730522 1.9322765
0.026069392 0.93209541 1.9168352
0.10566692 0.98059177 1.8199914
0.11842468 0.98526144 1.8025639
0.15004215 1.0355575 1.7831503
0.13118243 0.98993111 1.7851365
0.12813146 0.96945274 1.7774159
0.207729 1.0179491 1.6805719
0.22048676 1.0226188 1.6631445
0.25210422 1.0729148 1.6437309
0.23324451 1.0272884 1.6457171
0.23019354 1.0068099 1.6379964
-0.047980066 1.0017997 2.0774302
-0.032171335 1.0269479 2.0677235
-0.026069392 1.0679046 2.0831647
-0.0036048442 1.0567656 2.0405893
-0.15004215 0.96444243 2.2168498
-0.12813146 1.0305473 2.2225842
-0.11842468 1.0147386 2.1974361
-0.10566692 1.0194082 2.1800086
-0.023572296 1.1656269 2.1391954
-0.0077635646 1.1907749 2.1294887
-0.0016616136 1.2317318 2.1449299
0.02080293 1.2205927 2.1023543
-0.25210422 0.92708516 2.3562691
-0.23019354 0.99318999 2.3620036
-0.23324451 0.97271156 2.3542829
-0.207729 0.9820509 2.319428
-0.33530658 0.93535429 2.4937024
-0.32254884 0.94002396 2.476275
-0.3322556 0.95583266 2.5014229
-0.22769645 1.0909123 2.4180341
-0.21188772 1.1160604 2.4083273
-0.20578577 1.1570171 2.4237685
-0.19607899 1.1412084 2.3986206
-0.18332122 1.1458781 2.3811932
0.00083547831 1.3294541 2.2009604
0.01664421 1.3546021 2.1912537
0.022746161 1.3955588 2.2066951
0.045210704 1.3844198 2.1641195
-0.1012266 1.2920967 2.34038
-0.085417867 1.3172448 2.330673
-0.079315916 1.3582016 2.3461144
-0.069609135 1.3423929 2.3209662
-0.056851372 1.3470626 2.3035388
0.044102967 1.5389076 2.2607393
0.069618478 1.548247 2.2258844
0.19302122 0.8646481 2.5673306
0.13768797 0.88244301 2.5736189
0.1551154 0.86968523 2.5689492
0.14901346 0.82872844 2.553508
0.34787115 1.1919403 2.4601886
0.3606289 1.19661 2.4427612
0.39548376 1.1710944 2.4334219
0.37338668 1.2012796 2.4253337
0.36871698 1.2187071 2.412576
-0.10234369 0.55594474 1.8901489
-0.08958593 0.56061441 1.8727216
-0.09929271 0.57642311 1.8978696
-0.096795619 0.67414546 1.9539002
-0.080986887 0.69929349 1.9441934
-0.074884936 0.74025029 1.9596347
-0.065178156 0.72444153 1.9344866
-0.052420393 0.72911119 1.9170592
-0.17999798 0.68241459 2.0913334
-0.17694701 0.70289296 2.0990541
-0.072387844 0.83797258 2.0156653
-0.056579109 0.86312068 2.0059586
-0.050477166 0.90407741 2.0213997
-0.040770378 0.88826871 1.9962517
-0.028012618 0.89293838 1.9788243
0.27706587 1.1594981 1.657186
0.30258137 1.1688374 1.6223311
0.15614408 1.0765144 1.7985916
0.17805476 1.1426191 1.8043261
0.1750038 1.1221408 1.7966053
0.20051931 1.1314801 1.7617506
0.05408201 1.039157 1.9380109
0.069890738 1.0643051 1.9283042
0.075992689 1.1052619 1.9437454
0.085699469 1.0894532 1.9185973
0.098457232 1.0941229 1.9011699
0.19941157 1.2859679 1.8583705
0.22492708 1.2953073 1.8235157
0.17999798 1.3175855 1.9086666
0.17694701 1.297107 1.900946
0.050477166 1.0959226 1.9786003
0.053528138 1.116401 1.9863209
0.028012618 1.1070616 2.0211759
0.056579109 1.1368793 1.9940416
0.072387844 1.1620274 1.9843347
0.074884936 1.2597497 2.0403655
0.052420393 1.2708888 2.0829408
0.065178156 1.2755585 2.0655134
0.096795619 1.3258545 2.0460999
0.10234369 1.4440553 2.1098511
0.09929271 1.4235768 2.1021304
0.08958593 1.4393857 2.1272786
-0.075992689 0.89473808 2.0562546
-0.098457232 0.90587717 2.09883
-0.085699469 0.91054684 2.0814025
-0.05408201 0.96084297 2.0619891
-0.19941157 0.71403205 2.1416295
-0.19636059 0.73451042 2.1493502
-0.22492708 0.70469272 2.1764843
-0.17805476 0.85738081 2.1956739
-0.1750038 0.87785923 2.2033947
-0.20051931 0.8685199 2.2382493
-0.15614408 0.92348564 2.2014084
-0.27706587 0.8405019 2.342814
-0.30258137 0.83116257 2.3776689
0.25880152 0.65751058 2.4899378
0.22394669 0.68302608 2.4992771
0.24442507 0.69074672 2.5023282
0.56204808 0.61721355 2.4769883
0.5507226 0.67092812 2.4970994
0.54767162 0.65044975 2.4893787
0.50671482 0.63500845 2.4832768
0.7258752 0.67897868 2.5013962
0.71454972 0.7326932 2.521507
0.71149874 0.71221483 2.5137863
0.670542 0.69677353 2.5076845
0.58645582 0.78104073 2.5387535
0.56902844 0.79379851 2.5434232
0.57513034 0.8347553 2.5588644
0.55160093 0.80655622 2.5480928
0.53112257 0.79883564 2.5450418
0.28320932 0.8213377 2.551703
0.26578188 0.83409548 2.5563726
0.27188382 0.87505227 2.5718141
0.24835446 0.84685326 2.5610423
0.22787605 0.83913261 2.5579913
0.44703645 0.88310277 2.5761108
0.42960903 0.89586055 2.5807805
0.43571097 0.93681735 2.5962217
0.41218162 0.90861833 2.5854502
0.39170325 0.90089768 2.5823991
0.3230007 0.50607908 2.2021701
0.33844197 0.51218104 2.2431271
0.35119975 0.51685071 2.2256997
0.54859293 0.5922519 2.3904052
0.55631351 0.59530288 2.4108834
0.59727037 0.61074412 2.4169855
0.56403422 0.59835386 2.4313619
0.55127645 0.5936842 2.4487894
0.65065503 0.62960923 2.2509856
0.65837562 0.63266021 2.2714641
0.69933248 0.64810145 2.2775662
0.66609633 0.63571119 2.2919426
0.65333855 0.63104153 2.30937
0.71242011 0.65401697 2.4148128
0.72014076 0.65706795 2.4352913
0.76109749 0.67250925 2.4413934
0.72786134 0.66011894 2.4557698
0.71510357 0.65544927 2.4731972
0.63880789 0.98999411 2.0586979
0.63575691 0.96951568 2.0509775
0.64652854 0.99304509 2.0791764
0.70113218 0.72553182 2.2295861
0.70580184 0.70810437 2.2423439
0.72124314 0.71420634 2.2833006
0.71047151 0.69067693 2.2551017
0.70742059 0.67019856 2.247381
0.72553992 0.88935894 2.2913511
0.73020959 0.87193149 2.3041089
0.74565089 0.87803346 2.3450656
0.73487931 0.85450411 2.3168666
0.73182833 0.83402574 2.3091459
0.76289725 0.74993956 2.3934131
0.76756692 0.73251212 2.4061708
0.78300816 0.73861408 2.4471278
0.77223659 0.71508467 2.4189286
0.7691856 0.6946063 2.4112082
0.50688517 1.1735969 2.3195179
0.54174 1.1480814 2.3101788
0.52898222 1.1434118 2.327606
0.40482306 1.1362396 2.4589372
0.42225051 1.1234819 2.4542675
0.43158984 1.088627 2.4797831
0.43967792 1.1107241 2.4495981
0.45243567 1.1153938 2.4321706
0.4421804 0.99682021 2.5609994
0.45960781 0.98406249 2.5563297
0.46894711 0.94920766 2.5818453
0.48979297 0.97597438 2.5342326
0.68366182 0.93211544 2.3842227
0.70108926 0.91935772 2.3795531
0.7104286 0.88450289 2.4050686
0.71851671 0.90659994 2.3748834
0.73127449 0.91126961 2.357456
0.58159971 0.89475816 2.5236421
0.59902716 0.88200039 2.5189724
0.60836649 0.84714556 2.544488
0.6164546 0.86924267 2.5143027
0.62921238 0.87391233 2.4968753
0.72101915 0.79269612 2.4862847
0.73844653 0.77993834 2.4816151
0.74778587 0.74508351 2.5071306
0.76863176 0.77185023 2.459518
0.090412065 0.87819982 1.7813882
0.08736109 0.85772145 1.7736675
0.11287661 0.86706078 1.7388127
0.10011885 0.86239111 1.7562401
0.068501383 0.81209499 1.7756536
0.15114988 0.88106972 1.6865304
0.13839212 0.87640005 1.7039578
0.11953242 0.83077359 1.7059439
0.087914959 0.78047752 1.7253575
0.056297496 0.7301814 1.7447711
-0.16390765 1.1142606 2.3308971
-0.15114988 1.1189302 2.3134696
-0.11953242 1.1692264 2.2940559
-0.1414431 1.1031215 2.2883215
-0.10067272 1.2148528 2.2920699
-0.056297496 1.2698185 2.255229
-0.072106227 1.2446705 2.2649357
-0.075157203 1.2241921 2.257215
-0.078208178 1.2037138 2.2494943
-0.11287661 1.1329392 2.2611873
-0.10011885 1.1376089 2.2437599
-0.068501383 1.1879051 2.2243464
-0.08736109 1.1422786 2.2263324
-0.090412065 1.1218002 2.218612
0.014817595 0.83611917 2.5553131
0.049672455 0.81060368 2.5459738
0.33261093 1.3011745 2.3662145
0.29775608 1.32669 2.3755538
0.48406386 0.74243754 2.5234985
0.4635855 0.73471689 2.5204477
0.42873061 0.76023245 2.5297871
0.44005609 0.70651788 2.509676
0.41435415 0.79346859 2.5421772
0.35902095 0.81126344 2.5484657
0.37644836 0.79850572 2.5437961
0.37339741 0.7780273 2.5360754
0.37034643 0.75754893 2.5283546
0.40215027 0.711555 2.5112948
0.38167191 0.70383435 2.5082438
0.34681708 0.72934991 2.5175831
0.36119351 0.69611377 2.5051928
0.35814255 0.67563534 2.497472
0.52510118 0.58185315 2.1742957
0.51234341 0.57718349 2.1917231
0.52778465 0.58328545 2.2326798
0.47910726 0.56479317 2.2060995
0.55598366 0.59405702 2.2562094
0.55866718 0.59548932 2.3145936
0.55094659 0.59243834 2.2941151
0.53046811 0.58471769 2.291064
0.50998974 0.57699704 2.2880132
0.47407013 0.56317449 2.2440054
0.46131235 0.55850482 2.2614329
0.47675359 0.56460679 2.3023896
0.44855461 0.55383515 2.2788603
0.42807621 0.54611456 2.2758093
0.6729278 0.92638636 2.1506858
0.66987681 0.90590793 2.1429653
0.67921615 0.8710531 2.1684809
0.65910524 0.88237858 2.1147661
0.6916064 0.85667664 2.2017169
0.69789481 0.80134344 2.2195117
0.69322515 0.81877089 2.206754
0.6855045 0.81571984 2.1862755
0.67778385 0.81266892 2.1657972
0.66072392 0.84447277 2.1198034
0.65767294 0.8239944 2.1120827
0.66701227 0.78913951 2.1375983
0.65462196 0.80351597 2.104362
0.64690137 0.80046499 2.0838838
0.50596917 1.0201685 2.4738622
0.51872694 1.0248382 2.4564347
0.55358177 0.99932271 2.4470954
0.53615439 1.0120804 2.4517651
0.52681506 1.0469353 2.4262497
0.57567883 0.96913755 2.4551835
0.62329149 0.94829166 2.428417
0.60586405 0.96104944 2.4330864
0.59652472 0.99590427 2.4075711
0.55700022 1.0388472 2.4041526
0.569758 1.0435169 2.3867252
0.60461283 1.0180013 2.3773859
0.58251572 1.0481865 2.3692977
0.57784611 1.065614 2.35654
-0.0085990429 0.86132091 1.9285282
0.0041587166 0.86599058 1.9111007
0.035776179 0.91628671 1.8916872
0.019967448 0.89113861 1.9013939
0.013865504 0.85018182 1.8859527
0.054635882 0.96191311 1.889701
0.099011108 1.0168788 1.85286
0.083202377 0.99173087 1.8625667
0.077100426 0.95077407 1.8471255
0.042431995 0.87999958 1.8588184
0.055189759 0.88466918 1.8413911
0.086807221 0.93496531 1.8219775
0.067947514 0.88933885 1.8239636
0.064896539 0.86886048 1.8162429
-0.099011108 0.9831211 2.14714
-0.083202377 1.0082692 2.1374333
-0.077100426 1.0492259 2.1528745
-0.054635882 1.0380869 2.1102991
-0.086807221 1.0650346 2.1780226
-0.064896539 1.1311395 2.1837571
-0.067947514 1.1106611 2.1760364
-0.055189759 1.1153308 2.1586089
-0.042431995 1.1200005 2.1411815
-0.035776179 1.0837133 2.1083128
-0.019967448 1.1088613 2.0986061
-0.013865504 1.1498182 2.1140473
-0.0041587166 1.1340095 2.0888994
0.0085990429 1.138679 2.0714719
-0.30313528 0.9084065 2.4259787
-0.28732651 0.93355453 2.4162719
-0.28122458 0.97451133 2.4317131
-0.28427556 0.9540329 2.4239926
-0.25876004 0.96337223 2.3891377
-0.29093137 0.99032009 2.4568613
-0.26902068 1.0564249 2.4625957
-0.27207166 1.0359465 2.4548752
-0.25931391 1.0406162 2.4374478
-0.24655615 1.0452858 2.4200203
-0.23990034 1.0089988 2.3871517
-0.2240916 1.0341468 2.3774447
-0.21798965 1.0751035 2.3928862
-0.20828287 1.0592948 2.367738
-0.19552511 1.0639645 2.3503106
-0.05019556 1.3107754 2.2706702
-0.034386829 1.3359234 2.2609634
-0.028284878 1.3768802 2.2764046
-0.005820334 1.3657411 2.2338293
-0.037991673 1.392689 2.3015528
-0.01608099 1.4587939 2.3072872
-0.019131958 1.4383154 2.2995665
-0.0063742101 1.4429851 2.2821391
0.0063835531 1.4476547 2.2647116
0.013039365 1.4113677 2.231843
0.028848097 1.4365157 2.2221363
0.034950048 1.4774725 2.2375774
0.044656828 1.4616637 2.2124295
0.057414591 1.4663334 2.1950021
0.16731928 0.95159882 2.5998318
0.16426831 0.9311204 2.5921111
0.14989185 0.9643566 2.6045015
0.12331152 0.91567916 2.5860093
0.10283314 0.90795851 2.5829582
0.067978293 0.93347406 2.5922976
0.082354724 0.90023792 2.5799074
0.079303756 0.87975949 2.5721867
0.32702529 1.1651735 2.5078011
0.34445274 1.1524159 2.5031314
0.27816147 1.2429714 2.4788671
0.29091918 1.2476411 2.4614396
0.32577407 1.2221255 2.4521005
0.30367696 1.2523108 2.4440124
0.2990073 1.2697381 2.4312546
-0.14782666 0.65546679 2.0236099
-0.13201793 0.68061483 2.0139031
-0.12591597 0.72157162 2.0293443
-0.10345143 0.71043253 1.9867688
-0.13562277 0.73738039 2.0544925
-0.11371209 0.80348521 2.0602269
-0.11676306 0.78300679 2.0525062
-0.10400531 0.78767645 2.0350788
-0.091247544 0.79234612 2.0176513
-0.084591731 0.75605905 1.9847827
-0.068783 0.78120708 1.975076
-0.062681049 0.82216388 1.9905171
-0.052974265 0.80635512 1.9653691
-0.040216506 0.81102479 1.9479417
0.10511304 1.0578357 1.8683013
0.12092178 1.0829837 1.8585944
0.12702373 1.1239406 1.8740357
0.14948827 1.1128014 1.8314602
0.11731693 1.1397493 1.8991838
0.13922761 1.2058542 1.9049183
0.13617665 1.1853757 1.8971976
0.14893439 1.1900454 1.8797703
0.16169216 1.194715 1.8623428
0.16834797 1.158428 1.8294741
0.1841567 1.183576 1.8197674
0.19025865 1.2245327 1.8352085
0.19996543 1.208724 1.8100605
0.2127232 1.2133937 1.7926331
0.11371209 1.1965148 1.9397731
0.11676306 1.2169932 1.9474938
0.091247544 1.2076539 1.9823486
0.13562277 1.2626196 1.9455076
0.062681049 1.1778362 2.0094829
0.040216506 1.1889752 2.0520582
0.052974265 1.1936449 2.0346308
0.068783 1.2187929 2.024924
0.084591731 1.2439409 2.0152173
0.12591597 1.2784283 1.9706557
0.12896696 1.2989068 1.9783763
0.10345143 1.2895675 2.013231
0.13201793 1.3193852 1.9860969
0.14782666 1.3445332 1.9763901
-0.13922761 0.79414588 2.0950818
-0.13617665 0.81462431 2.1028023
-0.16169216 0.80528498 2.1376572
-0.14893439 0.80995464 2.1202297
-0.11731693 0.86025071 2.1008162
-0.19025865 0.77546722 2.1647913
-0.2127232 0.78660631 2.2073669
-0.19996543 0.79127598 2.1899395
-0.16834797 0.84157205 2.1705258
-0.12702373 0.87605947 2.1259642
-0.12397275 0.89653784 2.1336849
-0.14948827 0.88719857 2.1685398
-0.12092178 0.91701627 2.1414056
-0.10511304 0.9421643 2.1316988
0.64396161 0.64809608 2.4891922
0.62653416 0.66085386 2.4938619
0.63263613 0.70181066 2.5093031
0.62958515 0.68133223 2.5015826
0.58862841 0.66589099 2.4954805
0.65616548 0.73000968 2.5200748
0.64484 0.78372425 2.5401857
0.64178902 0.76324582 2.532465
0.60083228 0.74780458 2.5263631
0.57425195 0.69912714 2.5078709
0.55682456 0.71188492 2.5125406
0.56292647 0.75284171 2.5279818
0.53939706 0.72464263 2.5172102
0.51891869 0.71692204 2.5141592
0.36512291 0.8522203 2.5639069
0.34769547 0.86497802 2.5685766
0.35379741 0.90593481 2.5840178
0.30978966 0.87001514 2.5701952
0.36295033 0.96737003 2.6071796
0.35989934 0.94689161 2.5994592
0.32199353 0.95192873 2.6010778
0.28103673 0.93648744 2.5949759
0.24007994 0.9210462 2.5888739
0.59962398 0.61093056 2.3206954
0.60734457 0.61398154 2.3411739
0.64830142 0.62942278 2.3472757
0.6023075 0.61236286 2.3790796
0.68153757 0.64181316 2.3328993
0.73021495 0.66030538 2.3594797
0.70973659 0.65258473 2.3564286
0.69697881 0.64791507 2.3738561
0.68422103 0.6432454 2.3912835
0.63050652 0.62313449 2.4026091
0.63822716 0.62618542 2.4230874
0.6791839 0.64162672 2.4291894
0.64594775 0.6292364 2.4435658
0.63318998 0.62456673 2.4609933
0.66969043 1.002198 2.1406116
0.67741108 1.0052489 2.1610899
0.71333605 0.80744535 2.2604685
0.71800572 0.79001796 2.2732263
0.73344702 0.79611987 2.3141832
0.71962446 0.75211215 2.2782636
0.74421859 0.81964928 2.3423822
0.76432949 0.80832374 2.3960967
0.7566089 0.80527282 2.3756182
0.75355792 0.78479445 2.3678977
0.75050694 0.76431602 2.360177
0.73201472 0.73773569 2.3114996
0.73668438 0.7203083 2.3242574
0.75212562 0.72641021 2.3652141
0.74135405 0.70288086 2.3370152
0.73830307 0.68240243 2.3292944
0.57659483 1.1225659 2.3008392
0.61144972 1.0970504 2.2915001
0.37588912 1.0873758 2.5367351
0.38864687 1.0920454 2.5193076
0.38055879 1.0699484 2.5494928
0.39456779 1.0176661 2.5877662
0.39923745 1.0002387 2.6005239
0.42350173 1.06653 2.5099683
0.44092914 1.0537722 2.5052986
0.45026851 1.0189173 2.5308142
0.45835659 1.0410144 2.5006289
0.47111434 1.0456841 2.4832015
0.63263077 0.91343683 2.4539323
0.65005821 0.90067905 2.4492626
0.65939754 0.86582422 2.4747782
0.68024343 0.892591 2.4271657
0.65130943 0.84372711 2.5049634
0.67807615 0.79611456 2.5258093
0.67340648 0.81354195 2.5130515
0.68616426 0.81821162 2.4956241
0.69892204 0.82288128 2.4781966
0.70234048 0.86240578 2.4352536
0.71976787 0.849648 2.430584
0.7291072 0.81479317 2.4560995
0.73719531 0.83689028 2.4259145
0.74995309 0.84155995 2.4084871
-0.033006817 0.69749379 1.8667631
-0.020249054 0.7021634 1.8493357
0.011368409 0.75245953 1.8299221
-0.010542274 0.6863547 1.8241876
0.030228108 0.79808599 1.8279359
0.074603334 0.85305178 1.7910949
0.058794603 0.82790369 1.8008018
0.052692652 0.78694689 1.7853605
0.018024221 0.7161724 1.7970533
0.030781984 0.72084206 1.7796259
0.062399447 0.77113819 1.7602124
0.040488765 0.7050333 1.7544779
0.093463033 0.89867818 1.7891088
0.13783826 0.95364398 1.7522677
0.12202953 0.92849594 1.7619746
0.11592758 0.88753915 1.7465333
0.15669796 0.99927044 1.7502816
0.20107318 1.0542362 1.7134407
0.18526445 1.0290881 1.7231474
0.1791625 0.98813134 1.7077061
0.14449407 0.91735685 1.7193991
0.15725183 0.92202652 1.7019717
0.1888693 0.97232264 1.6825581
0.17000958 0.92669618 1.6845442
0.16695862 0.90621781 1.6768236
-0.20107318 0.94576383 2.2865593
-0.18526445 0.97091186 2.2768526
-0.1791625 1.0118686 2.2922938
-0.15669796 1.0007296 2.2497184
-0.1888693 1.0276774 2.3174419
-0.16695862 1.0937822 2.3231764
-0.17000958 1.0733038 2.3154557
-0.15725183 1.0779735 2.2980285
-0.14449407 1.0826432 2.280601
-0.13783826 1.046356 2.2477322
-0.12202953 1.0715041 2.2380254
-0.11592758 1.1124609 2.2534666
-0.093463033 1.1013218 2.2108912
-0.17666541 1.109591 2.3483245
-0.15475473 1.1756958 2.354059
-0.15780571 1.1552174 2.3463383
-0.13229018 1.1645567 2.3114834
-0.16446152 1.1915045 2.3792071
-0.14255084 1.2576094 2.3849416
-0.14560181 1.237131 2.3772209
-0.1200863 1.2464703 2.342366
-0.11343049 1.2101831 2.3094974
-0.097621754 1.2353312 2.2997904
-0.091519803 1.276288 2.3152318
-0.081813022 1.2604792 2.2900836
-0.069055259 1.2651489 2.2726564
-0.074603334 1.1469482 2.208905
-0.058794603 1.1720963 2.1991982
-0.052692652 1.2130531 2.2146397
-0.030228108 1.2019141 2.1720641
-0.062399447 1.2288618 2.2397876
-0.040488765 1.2949667 2.245522
-0.030781984 1.2791579 2.2203741
-0.018024221 1.2838275 2.2029467
-0.011368409 1.2475405 2.170078
0.0044403225 1.2726885 2.1603711
0.010542274 1.3136454 2.1758125
0.020249054 1.2978365 2.1506643
0.033006817 1.3025062 2.1332369
0.18081734 0.78273457 2.536448
0.16033892 0.77501392 2.5333972
0.12548408 0.80052942 2.5427365
0.13680957 0.74681491 2.5226254
0.11110763 0.83376563 2.5551267
0.055774406 0.85156047 2.5614152
0.073201805 0.8388027 2.5567455
0.070150837 0.81832433 2.5490248
0.067099869 0.79784596 2.5413041
0.041397959 0.88479662 2.5738053
-0.013935268 0.90259153 2.5800939
0.0034921169 0.88983375 2.5754242
-0.0026097894 0.84887695 2.5599828
0.33039147 0.50788414 2.0679743
0.30487594 0.49854481 2.1028292
0.59248406 0.97168827 1.9358277
0.58638215 0.93073148 1.9203864
0.2594828 1.3126811 2.4278362
0.30709541 1.2918352 2.4010694
0.28966796 1.304593 2.4057391
0.28499833 1.3220204 2.3929813
0.28032869 1.3394477 2.3802235
0.32919249 1.2616501 2.4091575
0.3768051 1.2408042 2.3823907
0.35937768 1.253562 2.3870604
0.35003835 1.2884167 2.3615448
0.39890218 1.210619 2.3904788
0.44651479 1.1897731 2.3637121
0.42908734 1.2025309 2.3683817
0.41974801 1.2373857 2.3428662
-0.14117083 0.61917967 1.9907411
-0.13811986 0.63965803 1.9984618
-0.10899951 0.59223187 1.9230176
-0.093190774 0.6173799 1.9133109
-0.087088823 0.6583367 1.9287521
-0.077382043 0.642528 1.903604
-0.06462428 0.6471976 1.8861766
0.20717512 1.095193 1.7288818
0.22298385 1.1203411 1.7191751
0.2290858 1.1612978 1.7346163
0.25155035 1.1501588 1.6920409
0.23823872 1.222733 1.7577783
0.23518774 1.2022547 1.7500577
0.26375425 1.2320724 1.7229234
0.14117083 1.3808203 2.0092587
0.13811986 1.360342 2.0015383
0.087088823 1.3416634 2.0712478
0.06462428 1.3528024 2.1138234
0.077382043 1.3574719 2.096396
0.10899951 1.4077681 2.0769823
-0.23823872 0.77726698 2.2422218
-0.23518774 0.79774535 2.2499423
-0.26375425 0.76792765 2.2770767
-0.2290858 0.83870214 2.2653837
-0.22603482 0.85918057 2.2731042
-0.25155035 0.84984124 2.3079591
-0.22298385 0.87965894 2.2808249
-0.20717512 0.90480697 2.2711182
0.48013449 0.58633101 2.4647846
0.44527966 0.61184657 2.4741237
0.46575803 0.61956722 2.4771748
0.49233836 0.6682446 2.495667
0.48101288 0.72195917 2.5157781
0.47796193 0.70148075 2.5080574
0.4370051 0.68603951 2.5019555
0.41042477 0.63736206 2.483463
0.37556994 0.66287756 2.4928024
0.39604834 0.67059827 2.4958534
0.50454223 0.75015819 2.5265496
0.49321678 0.8038727 2.5466604
0.49016583 0.78339434 2.53894
0.44920897 0.76795304 2.5328379
0.51674616 0.83207178 2.5574322
0.50542068 0.88578629 2.577543
0.5023697 0.86530793 2.5698223
0.46141288 0.84986663 2.5637205
0.43483254 0.80118924 2.5452282
0.41740513 0.81394696 2.5498979
0.42350709 0.85490376 2.5653391
0.39997774 0.82670474 2.5545676
0.37949935 0.81898409 2.5515165
0.34071511 0.68839312 2.5021417
0.3232877 0.70115089 2.5068116
0.32938963 0.74210763 2.5222528
0.28538185 0.70618796 2.50843
0.35291901 0.77030671 2.5330243
0.3415935 0.82402122 2.5531354
0.31806415 0.7958222 2.5423636
0.29758576 0.78810155 2.5393126
0.27100542 0.73942417 2.5208204
0.25357798 0.75218189 2.52549
0.25967991 0.79313868 2.5409315
0.23615058 0.76493967 2.5301597
0.21567217 0.75721902 2.5271087
0.37403172 0.52475774 2.1324606
0.38175237 0.52780867 2.1529388
0.42270917 0.54324996 2.1590409
0.37671524 0.52619004 2.1908448
0.48414436 0.56641185 2.1681938
0.50462276 0.5741325 2.1712449
0.40491429 0.53696162 2.2143741
0.41263491 0.5400126 2.2348526
0.45359173 0.5554539 2.2409544
0.40759781 0.53839391 2.2727582
0.56605792 0.59729439 2.1803977
0.55330014 0.59262478 2.1978252
0.58653629 0.60501504 2.1834486
0.64797151 0.62817693 2.1926017
0.63521373 0.62350726 2.2100289
0.66844988 0.63589758 2.1956525
0.56874144 0.59872669 2.2387819
0.57646209 0.60177767 2.2592602
0.61741889 0.61721891 2.2653623
0.58418274 0.60482866 2.2797387
0.57142496 0.60015899 2.2971661
0.43579686 0.54916549 2.2962875
0.4512381 0.55526745 2.3372445
0.46399584 0.55993712 2.3198171
0.51771039 0.58004802 2.3084915
0.56638783 0.59854031 2.3350718
0.53315169 0.58614999 2.3494484
0.52039391 0.58148032 2.3668756
0.46667933 0.56136942 2.3782012
0.48212063 0.56747133 2.419158
0.49487841 0.57214099 2.4017305
0.61421371 0.92245698 1.9945793
0.61888337 0.90502954 2.0073371
0.63432467 0.9111315 2.0482938
0.62050205 0.86712372 2.0123742
0.64509624 0.93466085 2.0764928
0.66520721 0.92333537 2.1302075
0.65748656 0.92028439 2.1097291
0.65443558 0.89980602 2.1020083
0.65138459 0.87932765 2.0942879
0.63289237 0.85274726 2.0456104
0.6422317 0.81789243 2.071126
0.64528263 0.8383708 2.0788465
0.67597878 0.94686472 2.1584065
0.69608968 0.93553925 2.212121
0.68836904 0.93248832 2.1916428
0.68226713 0.89153153 2.1762013
0.71925163 0.94469219 2.2735562
0.71620065 0.92421377 2.2658355
0.72697222 0.94774318 2.2940345
0.69465739 0.87715507 2.2094376
0.69932711 0.85972762 2.2221954
0.71476835 0.86582959 2.2631521
0.70399678 0.84230024 2.2349532
0.70094579 0.82182181 2.2272325
0.65157104 0.7830376 2.0966413
0.66091031 0.74818277 2.1221569
0.66396129 0.76866114 2.1298776
0.68245351 0.79524148 2.178555
0.70256448 0.783916 2.2322695
0.69179285 0.76038665 2.2040706
0.68874192 0.73990822 2.1963499
0.67024958 0.71332788 2.1476724
0.67958897 0.67847306 2.173188
0.68263996 0.69895148 2.1809087
0.45585412 1.1549183 2.3892276
0.47328156 1.1421605 2.384558
0.48262089 1.1073056 2.4100735
0.50346673 1.1340724 2.3624609
