# .PCD v0.7 - Point Cloud Data file format
VERSION 0.7
FIELDS x y z
SIZE 4 4 4
TYPE F F F
COUNT 1 1 1
WIDTH 1589
HEIGHT 1
VIEWPOINT 0 0 0 1 0 0 0
POINTS 1589
DATA ascii
-1.8162 -1.19464 54.258801
-2.7236199 0.36492199 54.028801
0.55693698 -0.93532503 62.016998
1.85466 0.52117503 61.834801
-0.69336599 1.51739 62.5989
5.40727 9.6469898 11.0583
-5.8861198 -0.011032 48.9384
3.48629 0.67053998 60.013901
6.1754599 -6.6285901 59.865299
2.4962299 2.04546 61.255798
1.12453 -1.95591 61.762001
-0.93781 -2.95702 60.0695
-2.92327 -2.8898399 58.236099
-4.20506 -1.32271 56.553101
-4.1290698 0.82677501 55.218201
-7.6221199 1.24721 51.869801
-13.6015 8.1016903 41.4058
-15.8858 3.9072199 41.279202
-14.7031 8.2161503 40.549801
-16.133699 9.3679399 37.945
-16.754801 10.8703 34.5228
-15.5783 13.5805 34.835701
-17.1005 8.0898504 34.097599
-15.2905 15.5219 31.903799
-16.041599 11.4562 31.389
-13.8625 17.210699 29.235701
-12.2936 19.514 29.0534
-10.233 20.048401 25.582701
-12.9578 16.1931 27.560101
-7.7375202 21.629999 23.963499
-8.2659397 16.762699 22.0228
-6.7349901 19.158899 20.730499
-1.29046 19.7047 13.5912
-4.4874101 19.3002 17.674601
-3.2890501 11.2231 13.1031
-2.9655499 14.9307 12.9687
-1.8943599 18.347799 12.8254
-7.0363598 -0.40954 23.655199
-5.9352698 -2.6235499 26.639099
-7.3393202 -2.66903 25.739599
-9.73491 -5.7570601 30.3979
-7.3248901 -3.52969 27.2644
-6.1922598 -1.34837 28.0893
-8.0349703 -2.63728 31.050301
-9.8808498 -3.3789699 28.0751
-14.3907 -3.7448201 32.071201
-8.4480696 -4.2406902 30.4219
-12.7185 -5.5536098 31.481001
-9.0392599 -5.1248202 33.025398
-9.7126799 -8.6551399 36.294601
-11.6585 -7.8017502 32.601299
-12.8923 -11.3429 36.438801
-14.0562 -8.9307098 35.1991
-10.904 -9.45961 34.820301
-15.6867 -7.6458101 37.643299
-9.3141403 -14.656 41.1926
-11.2409 -13.4792 38.475399
-14.3292 -11.9431 41.492001
-12.548 -15.0401 40.844299
-13.7924 -12.9066 39.7547
-8.19207 -12.5094 41.662498
-10.8371 -17.1222 42.7155
-12.0272 -16.2393 44.171501
-6.21983 -10.9452 44.737499
-6.1215701 -15.8873 45.8106
-9.6087799 -19.3449 46.4809
-12.1432 -14.9856 46.0471
-3.3220201 -13.2413 49.2206
-9.2339697 -18.5012 44.393398
-11.4287 -13.7632 48.2948
-9.1725397 3.42559 48.218201
-8.5050602 3.0706799 47.088699
-11.0843 5.5966001 44.7617
-11.2984 6.9640298 41.569901
-12.6906 8.4635801 40.850498
-11.0903 7.7305799 38.761398
-14.7961 11.3426 37.757401
-12.2105 10.4139 37.557598
-10.4471 8.7281599 35.416801
-12.6211 13.5402 34.8134
-13.7141 12.9357 36.0989
-14.1245 16.630301 32.4282
-9.7073002 11.009 32.585499
-11.0307 13.2633 33.188702
-12.5519 17.8613 31.172701
-10.8592 16.3333 31.232201
-9.74512 20.8584 27.065701
-8.6075401 20.491501 26.960899
-5.9560299 18.225401 26.0476
-6.37818 21.695999 23.6514
-5.3522601 20.5499 24.136
-2.66348 20.9569 20.350901
-4.0960002 21.681601 19.9963
-2.1332099 21.1541 18.2542
4.0471001 5.3217702 15.3805
2.92116 16.2962 13.4189
5.40236 2.3945 12.1991
4.27876 9.6511297 14.2476
0.58610499 19.402901 15.5955
-0.54287302 20.329399 14.5596
5.89469 5.2863998 10.8755
4.08707 13.687 12.4046
2.1131201 18.3951 11.4726
-5.68749 1.13615 50.799301
-5.9677 1.58468 52.182499
-2.8455 -2.2409301 52.3484
2.4793 -2.29233 57.8713
5.3470101 -3.2249999 59.986301
5.7404699 2.0465701 62.2901
5.5149698 -0.48533899 60.988701
8.6895599 5.8399401 66.406502
12.7468 4.6085 67.591103
11.7509 -2.6873 64.897102
14.6199 -6.0530801 66.909203
11.3702 6.76794 67.853897
9.7952204 -1.1064399 70.840897
7.5532398 -5.5349102 67.967201
15.0651 0.59637398 68.300598
16.2008 -10.5567 68.5177
11.0418 -19.1623 65.244698
12.17 -16.650101 68.251099
14.3914 10.4414 71.958702
15.2075 6.7881899 70.374802
18.688801 6.0474401 73.651199
16.837299 9.7976303 73.361298
18.3874 12.8053 77.150299
20.1964 9.4030504 77.247704
18.712099 15.0694 80.287201
21.2087 13.6143 82.211899
22.453501 9.48351 81.644501
23.1731 -6.3618102 85.366798
20.8638 -8.5037298 81.548103
19.3729 -8.6143503 80.631401
21.415001 -7.3538299 77.802902
17.821501 -10.2309 77.096901
18.9874 -10.4437 77.202003
20.323601 -9.4439297 78.232399
21.084999 -8.4110699 78.372902
13.7367 -10.6574 72.805603
15.8866 -12.3488 73.576698
15.3051 -14.7647 70.723701
13.6028 -14.1886 70.7258
17.139999 -12.9806 72.954201
17.510099 -12.2476 71.2286
9.53193 6.7353802 68.610802
10.602 -12.7368 69.116501
14.7191 -15.7025 68.677101
8.8675604 2.3052599 69.5205
9.6800699 5.8518701 69.741997
11.3211 2.53725 73.1558
11.9905 7.44175 73.604698
12.4641 9.6615496 72.985199
13.1406 10.3446 71.869499
14.2433 10.7513 77.4506
12.9307 6.28544 75.930397
16.038099 13.295 76.120399
15.7146 13.5926 77.204597
18.127701 15.9319 81.893501
15.166 12.9899 77.5634
4.86235 -4.0906501 65.4114
5.2011099 -0.54843402 65.552299
5.6044798 3.6055701 63.604401
4.7853699 3.02299 63.743099
5.7947898 2.83324 65.383904
8.2772303 -20.539499 63.886501
13.5214 -15.4625 66.232903
8.7589598 -20.2349 62.636398
4.8666101 -22.092699 61.385899
6.3749099 -22.019199 61.3993
3.26531 -21.502199 60.808701
1.8191 -20.200399 60.420101
-3.0976501 -21.329599 55.900902
0.87796801 -22.7799 58.380001
8.8004904 -18.995701 62.119499
2.33529 -19.712299 56.156799
4.3817 -21.876301 58.855999
1.3965 -23.5289 57.328098
-2.1287601 -23.0261 55.362499
-3.28723 -23.090099 53.310299
1.22273 -22.449499 56.1021
-2.34904 -17.945299 50.968201
-6.1967402 -21.6639 51.509701
-6.5791402 -21.5965 49.5966
-2.0391901 -22.8279 53.387001
-7.71314 -17.3564 52.424599
-9.8217497 -18.352699 48.392601
-6.4007602 -19.361601 47.138599
-3.66769 -19.8479 50.162201
-6.8786101 -20.3144 51.922798
-5.5043702 -21.624399 49.711601
3.2639301 2.70631 59.819199
-0.058205999 -2.5018599 55.335701
2.07828 2.81952 55.016602
-1.49035 5.3463602 56.836601
-4.5359602 2.3801799 55.389599
-1.5697401 -1.94532 61.431099
-3.2481799 3.37637 61.289799
-0.299546 3.2177 54.105
2.3656299 -1.56256 55.878899
-9.5181904 -18.538601 30.241699
15.7833 -5.5373702 37.439499
-5.09376 -5.0966001 14.6665
3.76735 7.31885 56.826599
0.69454199 8.3082895 59.455601
-2.8396699 10.4654 62.720001
-4.0293999 7.2734098 62.014
2.4765501 10.8436 59.903198
-3.20979 19.806801 69.148804
-6.1718898 5.9530101 63.364899
-6.3473401 14.4363 66.859703
-11.9615 9.4441404 68.137802
2.96136 21.190599 67.224998
-1.37676 23.293301 72.649696
9.2301798 21.7442 66.123901
-9.17383 12.2035 67.3116
6.4686499 15.3059 67.185799
-3.0251999 9.3320599 68.2873
2.9346199 22.997601 69.839302
1.3959399 13.0794 68.8899
-15.8204 10.4861 71.597298
-14.3479 12.9434 71.455597
-13.7489 16.1005 73.463402
-19.409599 11.6039 75.799896
-21.7561 13.4427 80.474197
-21.658001 11.2149 78.7463
-19.5982 16.402 80.839401
-24.9174 11.6136 85.384102
-3.21382 24.093399 81.932701
-3.76208 24.799999 81.606201
-4.48909 24.8335 80.474602
-2.8389499 22.475201 81.351601
-7.0588398 24.6509 81.450699
0.100545 21.073999 76.019096
-0.62951702 22.6068 77.578102
-1.00184 24.2719 76.522301
-3.34112 24.116699 76.164299
7.3829498 19.9599 68.727097
3.6880701 20.693199 72.050903
0.180509 23.602699 76.011803
6.0023799 22.773899 68.801201
-10.3476 7.3025298 69.396896
-8.0952702 8.0870504 69.565804
3.3677199 17.731501 70.819702
3.44102 22.257 72.544502
5.10427 22.655199 70.651299
0.47058499 23.938 73.673599
-5.5739799 10.5563 71.197502
-13.5798 7.6911702 70.470398
-16.9485 8.5746298 73.149399
-19.4592 9.3951197 75.688301
-9.0388699 10.1986 73.298798
-14.1885 8.1624699 73.080902
-12.2414 10.3582 76.401199
-16.7005 8.7841997 76.527397
-17.1621 9.2753201 78.698097
-22.594801 9.9800997 80.6409
-17.334101 8.4685297 74.8918
-21.566799 9.3307199 80.238503
-15.2125 8.8183603 70.915802
-7.5652099 5.9264798 64.8592
-6.4135499 5.6989002 65.441597
-4.3547301 6.65413 66.090302
-3.2341001 4.2651 60.607899
0.73728299 3.7030001 61.4781
0.25203899 7.1136799 64.678703
-5.9224701 5.1168098 64.097603
-1.88274 3.51142 61.848999
3.7790999 0.76488203 57.929401
0.77962798 -1.57936 54.274799
6.0016098 -2.7831299 53.8759
2.64623 -4.9618201 51.994301
4.8847098 -7.75385 48.923801
1.66058 -9.62924 46.455399
2.34004 -11.4838 44.748699
-0.60599297 -13.9674 41.0131
-0.337787 -15.3297 39.732498
1.16045 -15.6657 39.149899
1.82417 -16.4718 36.360802
-4.33324 -17.553801 35.5289
-2.7095201 -18.021999 35.186001
0.37342301 -17.1318 33.554001
-4.7527599 -18.2197 30.8043
-1.08974 -16.733999 31.010799
-5.9500899 -18.905001 31.9918
-11.3783 -18.035299 27.999399
-5.7758799 -17.327499 28.608
-11.6469 -16.8202 25.7204
-11.6577 -12.6573 20.6203
-14.3157 -16.292299 25.426001
-14.0441 -14.0677 21.684401
-16.1401 -13.5076 21.4198
-15.4445 -11.5783 17.9095
-12.7706 -9.8359699 15.9039
-14.8443 -8.9229498 13.3489
-9.2332802 -6.7091899 12.7129
-0.83218598 -4.61621 19.302799
3.6821101 -3.2646101 23.2672
-2.9798501 -1.40042 23.8437
5.6575098 -2.0672801 27.3757
7.4088898 -3.25754 27.6943
5.9492698 -4.9035702 26.5287
3.6222601 -2.56446 27.922199
6.1009402 -7.9718599 28.2628
9.3678503 -3.1736901 30.447399
7.21034 -3.0750699 30.567499
10.5651 -2.9286599 32.417301
14.0666 -4.5543098 34.240601
10.9324 -6.6973 31.657
10.3994 -4.3369002 30.6796
14.5859 -3.1564701 34.9193
14.4421 -2.26512 35.564201
11.9235 -2.0504999 35.906101
16.368099 0.43289301 39.772701
17.355301 -3.34126 38.311199
19.033501 -1.32258 44.9258
13.0985 0.277495 40.958
16.857401 -4.9390702 40.408901
16.541201 2.0457001 42.1241
10.518 -0.099610999 42.593601
19.2027 -0.015853001 40.842701
19.9063 -0.338498 43.198399
16.693399 -3.12363 46.056099
20.192699 3.2825999 44.162498
21.308201 3.98312 46.121601
15.8462 4.45295 45.791599
13.2498 3.80441 46.408901
19.042101 5.8821502 46.602798
21.2386 3.83482 48.518398
1.39384 -6.1806302 48.437801
1.15124 -8.5180702 46.7178
0.85243201 -8.4288998 44.877102
-0.32017601 -11.5149 42.7911
-1.02248 -11.6766 40.860699
-2.83336 -13.4685 37.909801
-2.73897 -11.8206 36.005501
-3.6146901 -15.7347 37.2388
-4.8826399 -12.0214 32.8167
-5.8817201 -14.8655 34.199299
-7.75001 -18.262899 32.3946
-7.54497 -16.966499 32.985199
-9.0999098 -14.8207 30.729401
-12.4342 -16.6542 28.3659
-8.5646 -12.7622 29.9554
-14.2234 -13.3188 25.579599
-13.667 -10.7886 24.610901
-15.6117 -14.4613 24.177999
-15.8524 -10.6191 22.1479
-16.895901 -12.3243 21.218599
-17.2672 -10.4053 19.3041
-7.0697398 0.79224902 18.5497
-4.2861099 2.9838901 17.5716
-10.3864 0.64852703 15.3693
-16.755199 -8.0326796 18.2939
-17.3435 -10.2807 17.153099
-5.9672699 3.57002 15.2238
-2.8645799 6.2758298 12.777
-16.4177 -5.69309 15.9143
-17.376499 -6.2918601 13.5183
-14.062 -1.77633 13.9558
-6.62433 5.0283298 11.6657
-10.6733 2.59218 10.612
-14.6938 -1.0951101 10.592
2.3503699 -3.03824 49.633701
1.7979 -5.0539098 51.308102
1.38109 -2.8176999 51.776299
1.1752501 0.158824 54.102501
3.7687399 0.75555199 51.610001
21.181601 6.77281 48.153999
21.914101 7.5118799 50.140202
17.2922 7.83255 49.268799
19.861401 8.6959801 49.8297
18.1731 1.12761 49.9636
21.322701 11.2737 53.2327
20.0418 5.93156 52.611099
21.223801 9.9500399 54.057201
16.333 17.628401 59.726101
20.167801 10.2909 55.635101
19.574301 13.7846 57.646
16.438499 12.5687 54.591801
20.112101 14.1174 56.526001
19.162901 14.1248 55.804401
18.115999 10.0375 57.303501
13.4375 18.196699 60.709599
17.4151 17.3584 60.179798
17.1217 16.2239 60.702702
17.1824 14.1798 60.043598
11.4717 20.8715 65.199898
15.0036 18.657 62.693298
12.5155 20.295401 63.331299
9.65345 18.8335 66.759804
5.0299602 0.071362004 12.4733
3.5273199 2.2028501 16.093901
-4.9712501 -0.78646398 58.563499
-0.98533702 -13.4779 69.037697
-16.2994 -9.0068703 76.928902
-2.17944 -2.69803 60.428699
-4.1840501 1.85419 61.072701
-1.74824 7.9376502 55.1721
2.8868699 8.4228697 51.187
0.96525902 3.91381 55.006599
3.1313701 6.4925499 51.6656
7.3097701 10.1409 45.926899
10.0343 11.3384 42.230499
14.0034 10.602 37.7766
13.3452 9.4969101 39.630901
17.9062 7.5752902 34.440201
14.1105 11.2801 36.022598
16.0187 9.6731796 33.0648
12.3785 12.4409 34.135399
19.354 5.45608 32.780399
18.978201 6.4913001 31.600201
20.9335 2.5265801 29.690901
17.275499 7.4563599 30.3333
19.3808 3.905 28.129299
20.558701 1.18717 26.803301
16.9424 5.49511 27.765499
17.0371 -1.9033 20.7348
20.3948 -3.2481599 23.396999
17.3074 -4.4200802 18.5116
16.674299 -6.9929399 15.4799
13.6876 -3.32566 15.5454
14.3789 -5.7673502 13.08
9.5044899 -2.3094101 12.1536
1.58436 4.4407601 19.564301
-0.69136697 0.99953097 22.0485
1.15519 7.31778 23.779499
-0.313218 5.75284 26.595699
-0.032313 9.0317202 25.9624
-1.285 9.0287905 27.692801
-0.99502498 9.63764 27.297899
0.084787004 14.9319 31.6632
0.074289002 8.5757103 30.276501
-1.50957 10.4312 30.2208
-2.1708701 12.2769 30.706499
-2.0782001 14.3707 31.7157
-1.74589 11.1815 32.873199
-3.9322801 14.3548 33.750599
-3.7776799 17.210899 35.0644
-4.1448398 13.5835 34.957298
-2.1797199 17.776899 35.528
-7.0255399 18.0315 37.927299
-6.0352101 14.0641 38.292801
-7.7304502 15.67 38.8545
-5.8568201 19.258801 39.371899
-9.0177202 14.0827 42.295799
-9.3209801 19.1084 41.120098
-11.6308 15.9958 43.179001
-8.0191603 17.129801 38.5602
-9.6824903 19.493601 43.650299
-8.6946497 12.2915 44.3283
-10.1685 18.251499 41.000702
-11.3158 10.6408 48.671299
-6.7241302 19.3057 43.6236
-12.2142 19.0431 43.9828
-15.4669 18.3276 47.8619
-13.847 15.1859 46.072899
-14.9277 13.3209 48.620098
-14.2271 17.055799 45.4091
-15.022 17.9734 46.455898
-13.3599 18.9307 47.227402
-10.8059 18.9098 46.885399
-8.3715696 18.095699 47.652599
4.02565 6.5149498 47.372601
6.0216799 7.7597499 47.987301
9.6644802 8.4932203 43.987999
8.6890001 7.4549398 43.624901
16.3787 6.1262698 35.792198
12.3324 6.7040601 38.811699
13.3645 7.9632401 39.760899
15.2819 5.2344098 35.279202
12.4357 5.6792998 36.080502
21.159201 -0.85443503 26.4426
18.334499 4.02665 32.955502
20.449499 -0.130311 28.450701
16.7707 2.70841 31.808599
15.4159 0.93164998 29.837299
18.4704 -3.80952 25.313101
15.4548 -5.1248202 23.6507
20.1852 -4.1469302 24.087099
18.2131 -6.4432302 21.5884
14.2872 -8.2502203 18.5606
18.8771 -6.3600101 20.2008
0.27673599 -2.9365399 18.635599
16.867399 -8.0831699 18.3304
16.837799 -8.2061996 16.1952
3.2778101 -6.03895 16.434
10.8646 -8.6406698 16.486401
0.685018 -6.91785 12.0697
6.3118901 -8.07055 14.9887
-2.3733699 -3.3708301 15.4208
9.8990803 -9.8798599 12.5658
-3.0366499 -5.0209999 11.4464
4.0798502 -8.7260504 10.9717
13.8015 -9.7813902 13.6827
5.1515298 6.7900901 48.137199
-2.49157 5.43575 51.008701
2.65084 5.3986602 51.573002
1.00023 5.2017498 50.845001
-1.4655 -5.7080402 63.939899
-4.4858599 -5.1723299 62.178902
-2.7574301 -5.4860201 62.687302
-8.4740496 -2.11742 60.168999
-3.3310299 -13.0265 68.082603
-6.5865002 -7.4753098 64.009697
-10.8777 -9.7112999 66.486198
-20.415199 0.41372499 67.2836
-13.7238 -2.8317101 69.044502
-21.7307 -4.8663602 67.715202
-22.104 -2.08495 68.961403
-9.0060501 -4.5448699 68.858902
-8.13241 -12.9076 68.527199
-5.1383901 -15.7699 70.635399
-0.29260001 -21.3645 77.1409
-1.26397 -16.316999 71.212997
-6.4745498 -18.017401 73.472
0.787916 -19.858299 75.566399
-2.93887 -19.3325 74.243896
-2.1115699 -22.557699 79.0289
1.74221 -23.436001 81.1492
-1.8891701 -24.300301 82.572899
-5.50949 -22.9888 81.362
-15.517 -19.469101 84.717201
-18.6614 -12.6071 83.120399
-18.3004 -15.4503 79.864197
-17.494301 -10.0911 78.841499
-19.4918 -12.0779 81.150002
-19.9258 -12.7628 80.391899
-19.631001 -13.6127 79.629402
-20.3978 -9.3324404 76.441299
-18.990299 -8.9288101 76.772598
-20.805401 -10.108 73.877296
-21.1579 -9.4018402 74.843102
-20.2771 -9.1208496 71.166496
-19.594 -5.82025 72.942596
-22.9496 -2.85759 68.835602
-2.10762 -10.3171 70.228302
-5.3078499 -6.5812502 68.778801
-20.575899 -2.9346499 70.047401
-17.4718 -2.9976499 70.0121
-21.750299 -5.69697 71.888496
-22.494499 -5.45263 69.710899
-3.0603099 -10.9774 72.137497
-0.17541499 -13.9033 72.526901
0.66011101 -17.004101 72.849503
-6.52878 -8.9577198 72.315804
-1.92448 -14.0785 75.697304
1.72431 -18.7313 76.906898
1.97069 -19.8116 77.161102
0.22668999 -16.469101 76.726898
1.67573 -19.4403 80.1959
-1.7567199 -7.8406 66.844597
-1.30006 -8.9671097 66.028702
-2.57812 -0.936566 61.879101
-6.5890498 -2.0237999 65.398102
-6.7839699 3.007 61.599998
-3.8308799 -5.2782202 66.378899
-23.7598 4.3701501 63.709499
-23.025801 -0.82496202 65.116798
-24.121401 2.07424 64.751503
-22.535999 8.1171103 61.3932
-23.9632 7.4390802 61.085201
-24.086901 3.90236 62.633801
-16.279499 13.6301 56.178799
-20.6546 11.4751 58.7061
-22.658199 12.0086 57.572701
-23.5147 8.5304804 58.937801
-18.532301 15.193 54.6866
-21.1143 14.0392 53.950401
-19.3433 12.8694 52.655102
-18.0418 10.8798 53.073399
-20.322001 15.0565 54.4734
-18.768101 16.1467 50.7132
-14.5308 17.750799 50.480999
-17.7178 17.184099 51.121498
-3.559 4.4282598 58.879299
-1.23563 5.3749199 59.237701
0.95365798 5.2599502 57.494301
-3.8642399 9.0685501 0.430309
-9.1406202 -1.07093 0.40053299
-1.57096 9.62778 0.00050800003
-8.7313004 -2.2063799 4.3076901
-5.3038902 -6.3071499 4.3076901
-0.61662501 -7.6904402 0.41782999
3.0896599 -6.7676902 0.35993001
7.9640999 0.073523 0.435202
7.30899 4.3223 0.444868
6.8534899 5.1784101 4.3076901
5.7469301 6.8034 0.00098200003
3.4746599 8.5853996 0.41640401
1.04417 9.4771404 0.45891601
-6.2378402 7.6806102 0.001777
-7.9404602 5.7490902 0.41995701
-9.2257795 2.86707 0.422566
3.45241 8.9803696 0
16.448099 8.9346304 0
8.1997404 0.91082299 0
17.426701 0.92761397 0
6.8997998 -3.10623 0.00065200002
5.3618302 -5.1493702 0.00046800001
0.97505897 -7.7666798 0
-7.7933898 -3.95749 0.00071300002
-9.3319702 -1.59846 0
-9.3540697 3.2377601 0
-3.59585 -7.13345 0.00061599998
-5.8813801 -5.91993 0.00056700001
7.7572498 2.7507 4.3076901
5.3818598 7.15624 4.3076901
3.18659 8.7375498 4.3076901
0.014064 9.6761503 4.3077798
-3.29111 9.2703304 4.3076901
-6.1459098 7.8260899 4.3076901
-1.78534 -7.6323299 4.3078198
1.87712 -7.2349801 4.3076901
4.3007998 -6.0325799 4.3076901
6.7188802 -3.51179 4.3076901
7.8972902 -0.13745201 4.3076401
-9.3277903 0.393603 4.3076901
-9.1222696 3.00249 4.3076901
-8.1545496 5.395 4.3076901
-7.34237 -4.5281601 4.3076901
-23.1619 0.741974 3.7188499
-19.703899 6.1195502 4.1995401
-17.585501 9.5519199 3.8048601
-20.1646 7.2817702 3.3030601
-17.9387 10.2867 2.6099999
-11.8154 14.8025 3.68418
-12.721 12.8389 4.2378898
-9.4418201 16.9419 2.5669501
-5.4272199 17.978901 4.0918899
-22.1537 -5.9407401 3.9813199
-5.14394 -16.8444 2.65467
13.0894 -17.7712 2.9296401
10.7378 -17.474199 4.2614899
10.3333 -18.879499 2.78632
6.91044 -19.405001 2.5092101
5.6663399 -18.7472 3.8649199
-2.0705099 -16.5446 4.2073898
-2.9419899 -17.2707 3.4887099
-7.8775601 -14.213 4.1589999
-13.1064 -11.7504 3.9065199
-13.6518 -12.4263 2.5276301
15.5063 -15.2804 3.74913
14.9868 -13.9306 4.28793
7.4730301 21.765301 4.1945901
10.5416 21.007299 2.5097301
11.2213 18.15 4.22685
11.2065 19.616501 3.6402299
14.7743 14.587 2.4949
13.9918 14.9875 3.7163401
15.9563 9.9001999 3.4310901
14.5996 9.9839802 4.2034898
16.366501 3.70538 4.01582
17.411699 2.16661 2.70363
18.278 -6.2409401 2.68136
17.372999 -11.4365 4.0745602
5.3706999 23.3999 3.3992801
-5.91291 18.893 2.7563901
-3.8245499 21.1798 2.9633801
-3.2432301 20.6094 4.1619301
-23.762199 -3.6909499 2.79638
-23.802299 -2.2790101 0
-23.7892 -0.152577 2.59407
-21.1742 6.2815199 2.5273399
-20.6126 7.0055599 0
-23.014601 3.01299 -6.2999999e-05
-22.930901 3.03705 2.52688
-18.914301 9.1343699 0
-15.7707 12.2159 0
-13.3162 14.297 2.44402
-10.2789 16.3435 0
-22.6868 -6.6895399 2.6574099
-22.7556 -6.6550798 -3.8999999e-05
-1.41439 22.8458 3.1203599
-2.8062301 22.0662 9.0000003e-06
-5.7474098 19.084101 -4.9999999e-06
7.6480098 22.9627 2.7660501
12.9576 18.1586 2.6635799
9.9764004 21.683701 -8.2999999e-05
13.8284 16.444099 0
15.4259 12.7273 0
17.084 5.0788598 0
16.3687 9.52495 2.2251401
5.4082198 23.700199 3.0000001e-06
1.40367 23.8314 -5.9999998e-05
2.8204401 23.9615 2.7698801
-6.5475202 -3.54914 9.1004295
-8.3979301 5.7823901 6.2941399
-3.4904201 9.7413702 5.26055
-13.386 1.40896 6.8241601
-19.4415 -4.5388899 4.6242199
-17.026199 -5.4692202 8.7745104
-16.9088 -6.02917 8.3065205
-20.0539 -9.1498404 4.0204101
-19.064699 -7.1478 4.6787601
-16.608 -7.3807602 11.0326
-16.712601 -6.94594 6.61412
-16.6045 -10.6186 4.29217
-16.882601 -8.4564304 5.0892801
-14.2006 -8.75564 5.1054301
-15.0179 -7.14431 7.4513202
-14.9616 -7.2964101 9.9352198
-12.0603 -6.4093699 9.3889198
-10.9904 -6.3092999 7.0726299
-10.6459 -8.09165 4.9382501
-9.6889496 -5.5640702 9.6465998
-17.756599 -4.9878302 6.2133298
-16.1563 -2.46156 7.6689
-16.4993 -1.41107 5.8275299
-17.8179 -0.469513 4.7040901
-12.98 2.93607 5.6566
-13.0118 5.0242801 4.5971699
-4.6487298 10.4312 4.6072102
-4.3935399 8.1944799 6.3094301
17.808599 -6.7240901 4.0166502
6.2355099 -1.796 8.8171101
-6.88796 -8.4478598 4.3157501
14.2208 -12.2378 4.6623001
15.4425 -9.62356 5.1975298
13.9161 -8.6364899 9.8016796
8.2853298 -2.7745199 9.3337402
11.9776 -5.01015 10.4524
13.6993 -7.4168501 9.9371099
15.864 -4.29918 4.3011599
14.6707 -7.8297901 5.9073501
14.061 -8.3931904 7.7509599
12.1431 -5.75986 8.12922
12.8778 -4.51162 5.4902401
12.5647 -2.5820799 4.62991
10.5921 -4.0602498 7.0712099
12.927 -9.9268198 8.4606104
13.0932 -10.5914 6.1206698
10.6229 -12.5336 4.8683801
6.12502 -11.9142 5.07412
9.6665897 -10.7248 7.1216898
1.90131 -9.1767597 6.4720101
5.1718998 -10.1581 6.6311302
3.8648701 -12.4843 4.4984398
-1.76896 -9.5538998 4.8048401
-1.06555 -11.3823 4.3527899
-2.7931199 -7.1419802 6.4023499
-6.95154 -4.9121499 5.9705901
-6.9649301 -6.7251301 4.72717
9.5784101 -14.3777 4.30898
5.1045299 -14.1279 4.3076901
-4.23808 -12.6584 4.3076901
6.8748598 -17.736401 4.30021
-12.8448 -10.5149 4.3115301
14.0689 8.2139502 4.3076901
12.5754 -18.133801 -3.9999999e-05
3.1082399 -19.1402 2.81756
4.0447698 -19.2344 -2.1e-05
8.0181198 -19.324499 -2.1e-05
-0.73797202 -18.329599 2.5153401
-9.4561195 -14.8047 3.05497
-0.71379298 -18.359301 -4e-06
-4.8779898 -16.9326 0
15.521 -15.9686 2.4939001
17.4667 -13.4868 -3.8999999e-05
17.4403 -13.329 2.5771201
-1.90039 8.1490297 9.4166203
-1.9185899 11.142 9.36479
7.1326799 -1.44894 6.4935398
10.6013 0.145823 4.3105798
0.53595001 22.6805 4.18958
-0.66121399 17.1586 9.2153597
-2.1540201 8.9159298 7.0548401
-2.40008 16.3535 5.5387001
-1.47066 15.4955 9.8757296
-3.34852 13.2887 5.2020998
-1.6286 14.4796 7.6213799
-1.15315 20.0501 4.9058599
-0.24910299 18.7169 6.6007199
0.64781702 18.511101 9.3089199
1.93828 20.7055 4.7913198
2.62763 17.8407 8.10501
2.4359901 18.578899 6.47752
4.4106002 18.4492 5.1016898
5.5204802 20.007299 4.34551
6.77178 15.8979 4.6981802
5.0355601 14.2836 7.0681901
5.9863601 14.4449 5.7163901
8.8971901 9.8409204 4.5867901
8.9365702 13.333 4.3551602
6.1513 10.7017 7.0847702
9.0166903 19.0271 4.3076901
8.0836897 7.1230698 5.2887301
7.03549 6.0952501 6.7177601
9.1212397 3.9344101 4.8006601
7.4001799 1.62483 6.2960801
8.5375004 -0.83172899 5.04108
-4.5892 16.5502 4.3155298
-6.1725302 11.4783 4.3076901
-11.9832 7.3758001 4.33319
-21.768299 0.59776998 4.26683
-18.2624 1.23816 4.3308201
-21.1726 -5.3952599 4.2986202
-16.4245 8.2400999 4.3076901
7.7342501 21.322599 65.509201
3.6110599 12.5005 61.193802
2.08009 14.9328 62.6898
4.9917998 4.4005699 53.722099
6.5996399 2.72157 50.771301
10.028 3.08411 49.515202
10.1407 2.8993399 47.711601
11.6209 4.6715598 49.965401
13.1879 6.2912502 49.584999
12.3533 5.8340802 51.809502
13.9111 10.2895 53.319302
12.8356 7.4230599 51.709499
12.7622 8.5040302 55.440399
12.5676 10.274 55.099701
11.6152 12.3542 60.054798
11.3369 12.9722 59.160099
11.5152 13.7567 58.3839
12.0799 14.805 58.254601
9.2864399 15.8722 61.7878
10.5124 17.635 61.058998
7.7684898 17.6325 63.000401
5.4193802 19.1684 64.307404
3.0000601 17.945801 64.2854
8.0963497 -5.8887901 37.0205
1.77984 -7.3583598 43.275501
3.4503901 -8.0475903 41.796398
0.95458001 -8.6043596 40.925301
2.7565801 -9.2590799 37.795898
0.052556999 -9.5286999 38.952599
1.51917 -8.95854 37.3162
0.329308 -8.5857496 35.509701
2.17784 -8.2929096 35.190399
3.0178101 -7.0833998 34.2714
2.6540301 -5.1413598 45.9575
4.52988 -4.5629201 46.059101
3.9983399 -2.2846 47.847301
5.6901598 -0.76331401 47.6982
8.8636799 0.54882199 45.6133
8.29459 -1.42129 46.4119
9.3831396 -1.11868 44.039299
10.1898 -1.7492501 39.266899
9.7746696 -2.8421199 43.1674
9.1202898 -3.34952 38.550499
9.5971098 -4.6226702 39.826
8.4003401 -3.4559 35.2952
5.1052599 -5.3787999 34.5033
7.37395 -4.61625 36.2304
5.3845301 -7.4383898 34.623001
0.36107501 -9.6904097 30.964899
14.2745 -4.6737199 46.819401
11.5182 -4.5567598 46.341301
5.39431 -13.8279 33.1147
5.7498598 -10.6017 34.4314
7.68677 -9.5834999 34.400101
8.6080198 -9.5104799 31.3843
13.2164 -8.1974096 36.208698
12.8831 -7.4484301 34.339401
8.7723598 -9.89361 32.9669
10.7914 -8.0867004 37.4216
12.6265 -6.84587 40.984699
14.3044 -7.6960402 38.7365
13.6223 -7.3357 40.541801
15.1349 -6.3990798 42.1912
13.1618 -5.98985 44.0406
12.1489 -4.3798499 49.002602
9.0337496 -3.9322 47.565102
9.3160295 -4.8357701 50.226799
6.6166101 -4.18117 47.279499
7.3076501 -5.2209702 47.932999
6.9200101 -6.1817999 49.991199
5.8575602 -7.5313501 47.221802
4.2959099 -9.2617998 47.056801
4.8477001 -7.4072499 44.206799
5.2157102 -9.40236 44.224098
3.93187 -13.0969 42.321602
5.1247702 -13.1062 40.325199
4.7251501 -14.719 38.2314
5.1991301 -11.5152 38.522202
5.62395 -13.1467 37.520599
6.8952799 -11.4197 32.723301
5.6542301 -12.0027 35.664501
6.2353401 -12.4743 33.011501
5.4770999 -14.4924 35.592499
-4.8396101 -11.5808 25.7264
-1.46984 -15.2241 28.847099
4.5481 -12.168 31.1373
2.19888 -13.0171 30.371599
-0.216703 -13.0941 28.859301
3.82392 -14.1109 31.678801
4.56986 -10.0988 30.148701
6.58569 -10.8782 30.7479
3.7423601 -6.0802598 25.196899
3.0969801 -8.1796999 28.020201
3.55879 -7.08671 26.132401
0.92460299 -6.6372099 26.527599
-1.31277 -5.8452401 24.009501
0.76860398 -6.4670501 24.5658
-3.8783 -5.9031301 21.2339
0.201206 -6.1252398 22.756201
0.92666602 -5.5360699 22.221201
-3.7723601 -6.3122301 19.4697
-4.7351899 -6.3354902 17.1164
-6.6003799 -6.28234 19.3319
-10.4444 -5.3262901 18.6994
-7.4632902 -7.34268 17.802
-8.8064299 -8.1125898 15.8988
-9.7527399 -7.5348401 18.927401
-10.0134 -9.16362 16.701099
-9.3301601 -8.9148998 20.6243
-9.99897 -10.804 19.260401
-7.8540902 -10.4263 22.191999
-8.9836502 -12.1062 21.3692
-6.12287 -12.0913 23.981701
-7.25105 -13.2678 23.6115
-3.19765 -12.9926 26.6255
-0.382359 -14.3465 28.8925
13.6609 9.0346899 57.965599
13.1969 6.3243799 54.251099
9.7550297 2.1981499 51.081902
12.2086 3.1874399 51.4244
7.30516 3.6503899 53.276699
5.3091002 7.2993798 57.237999
5.76438 12.4783 62.837601
7.6154399 0.090655997 55.939301
8.7064896 16.332399 66.222099
3.9879301 10.8948 65.783203
5.7125602 11.4063 65.097801
6.2244401 12.2778 64.315102
6.151 15.7637 64.608101
7.4554501 16.2931 64.253998
6.9383602 15.6941 65.740097
10.7706 15.8638 64.824303
9.6136904 14.9296 62.603298
10.9642 13.9158 62.7411
13.351 12.6269 61.774899
15.3683 8.7540903 58.354099
15.3546 3.97052 54.037399
16.6448 4.6877999 54.648201
15.3085 0.157057 51.495399
14.0421 -0.90843201 50.897499
12.9059 -2.3146901 50.823399
11.8906 -0.484258 51.570801
10.1344 -0.187022 53.793999
9.8650904 1.1522599 53.500198
9.8211498 -1.5276 53.4916
8.0032196 3.0290899 57.491699
7.8390498 4.57025 56.960999
6.6431899 8.2458696 61.4613
6.3334699 8.7778702 60.217701
6.3643599 4.9727101 60.405499
-8.18367 12.8816 76.5485
-5.3887901 14.892 74.3172
-4.7930398 13.4916 73.927696
-8.1880198 14.4699 77.184799
-2.33166 14.399 72.625504
-6.0205202 18.227699 72.600502
-0.41481301 14.9859 71.710999
-11.5151 21.613001 81.461899
-3.6056299 16.6933 66.808403
-3.6509199 18.741199 71.573997
-17.581699 15.3076 76.667
-13.7204 18.3288 79.375298
-2.5166199 21.708401 70.7827
-3.9934499 20.983801 73.267799
-4.5648599 23.1663 74.929298
-5.4851999 22.0469 75.483299
-7.3350501 21.625 77.792999
-9.3805199 22.6474 79.714699
-8.7922096 23.590401 80.050301
-14.154 20.8943 83.196602
-15.2401 21.9937 85.052399
-16.2582 20.449301 83.588997
-17.1108 18.985399 81.378304
-15.5286 19.075199 81.7798
-14.703 18.7211 79.3955
-13.7044 18.2654 75.874001
-10.9586 18.0734 76.369797
-10.162 18.6045 73.885498
-8.6368399 18.313601 74.183601
-10.0853 18.1185 72.293404
-4.5829501 18.7719 69.086304
-9.5120697 16.099501 70.0392
-6.3811998 18.8349 71.098
-3.04267 19.411699 71.772202
1.75886 -3.5334301 28.342899
-10.2693 -7.9090099 22.448999
1.32377 -4.72123 28.887699
-5.6545401 -3.2993801 22.065901
-4.71766 -2.5194099 23.0865
-5.42132 -0.89550501 21.941099
-8.4398003 -2.6342499 20.3472
-11.3295 -8.9273901 25.15
-10.5076 -3.1031599 19.0902
-11.4269 -1.97745 18.118299
-13.21 -3.4674399 17.9715
-14.232 -5.8055601 19.603701
-11.9802 -5.9236398 19.6947
-14.2278 -7.17942 21.174
-12.4112 -6.86939 21.6604
-9.1468201 -8.69874 25.4932
-6.2468901 -9.7312899 26.260201
-5.9816599 -9.8374796 28.8529
-7.1134601 -10.3304 29.216801
-2.72104 -9.6753302 32.509899
-3.4893601 -10.116 28.6756
-0.93896902 -9.2039404 31.371599
0.75840801 -7.3692598 33.355301
1.67161 -8.33986 30.9398
1.96216 -6.2887602 32.902901
4.0943899 -4.4397702 31.4734
2.0693099 -7.59231 30.0056
2.0467 -5.6759901 30.796301
-0.72693598 -3.3453801 26.492399
-1.48668 -4.5503898 25.585899
1.0836999 -6.2295299 28.305799
5.42519 -17.349701 58.7276
-4.0991402 -7.7302399 48.583
11.102 -9.1787395 63.584499
5.7250099 -7.6870799 59.907501
1.63438 -7.1881199 56.894299
1.65986 -5.7270799 56.172298
-1.30393 -5.7807102 52.964401
-3.1594 -5.9598198 50.405201
-4.7797699 -9.5754404 50.0933
-4.1290598 -10.6 48.225498
-5.6858501 -10.8636 51.212399
-3.3761301 -12.2183 51.202099
-0.292689 -15.8998 53.009201
-0.92432302 -14.4416 53.349499
-0.105411 -14.6151 56.103001
2.8989301 -15.829 57.203098
1.864 -15.2756 59.0485
3.4082601 -15.316 59.127399
8.0402203 -15.2561 61.936001
11.3408 -15.1019 63.892601
-7.3431501 0.82486701 30.5054
-8.3511105 9.3688898 31.034
-8.5265598 14.7503 29.7789
0.35260999 18.028299 18.004
1.6888601 14.6344 17.7085
-10.1876 3.8489201 31.079
-8.4538898 2.34179 31.4676
-6.6820102 2.5381999 28.524599
-9.3028498 5.5971999 32.008701
-9.0529203 7.4276199 32.887901
-9.4523296 8.4614697 29.008101
-6.9728599 11.5396 28.229799
-6.5883999 12.8762 28.298
-3.15186 13.9035 22.0404
-2.11235 15.0084 22.258801
-2.4372399 18.9387 21.8892
-3.52619 15.4512 24.5625
-0.131237 16.205601 19.997299
2.1001401 12.3156 17.852301
1.72523 9.20502 19.2784
-0.13607401 6.0897002 22.0355
-1.72247 4.4516101 23.8703
-5.29424 1.30607 27.6917
-2.0807099 5.59199 23.631399
-5.2851501 4.5509901 25.487499
-1.4730901 6.3240399 22.9715
-9.9594297 4.7688298 41.835899
-10.7615 -5.1669898 40.0135
-8.6073303 -7.6027298 39.173199
-8.6250801 2.7021501 45.090302
-10.4654 1.40203 42.734699
-10.1662 3.7923701 40.3578
-11.1798 2.9102499 39.1763
-10.0044 5.1753502 37.864101
-10.702 3.3454101 36.0802
-9.5341301 4.8144102 35.603199
-9.7011404 1.95742 34.266399
-8.55198 2.77472 33.169399
-10.5805 -0.78701502 35.1063
-8.9911404 -1.7373101 34.496201
-8.7204103 1.35956 44.5364
-6.4760599 -1.58632 47.1451
-4.9302001 -2.92928 48.8018
-5.8971 -4.0778298 47.4897
-5.4100299 -5.7280202 46.972401
-7.8797998 -5.9033499 45.801998
-7.0103402 -7.2890501 43.795399
-7.5446601 -8.1973696 41.9631
-10.0413 -6.11167 42.601101
-8.4224396 -6.5530801 41.395401
-9.3436003 -5.3056998 38.348099
-10.836 -3.37287 37.279499
-9.0823803 -5.2890701 35.878601
-9.3992996 2.86306 29.931801
-2.5443799 6.7716899 22.7691
0.45355701 11.5678 19.0644
-0.57804102 14.5418 19.823799
-7.8800602 10.5921 26.9515
-5.0282798 12.835 24.1985
-10.607 5.6595302 30.881201
-15.391 2.46047 31.1688
0.040146001 9.5692396 20.3311
-12.1744 3.98052 46.009998
-15.0603 2.13112 36.126202
-14.8417 0.43416801 33.231701
-14.1985 -1.46758 34.825802
-14.9641 -2.24225 32.939301
-15.3144 -6.1363502 35.034199
-14.6035 -4.17418 37.047901
-15.4831 -5.1174998 35.967602
-14.154 -6.4836402 40.719601
-15.2182 -8.8936596 41.6119
-13.3162 -7.31248 43.873402
-15.1913 -7.3645601 40.572701
-13.9643 -10.9942 44.252102
-12.1625 -6.95748 45.979
-13.2582 -8.5303898 46.605801
-12.0073 -7.9590201 48.6502
-9.8862 -5.5469699 47.238998
-11.3336 -6.0392599 48.258202
-10.4427 -4.3001499 50.756699
-9.2421103 -3.4354401 47.431599
-10.5015 -3.6882999 49.255402
-10.3901 -1.43041 50.348701
-11.4898 1.47334 48.091499
-10.6885 -1.6177599 47.499599
-8.9120102 -0.81956398 45.723999
-11.6391 0.98181301 43.147598
-14.2911 4.3807502 43.505501
-11.8396 0.48306 44.934799
-12.3539 1.18463 46.044899
-14.3734 2.21924 38.4925
-16.850201 4.8145399 38.8755
-16.0009 2.6547899 38.666698
-13.8703 1.44226 34.444801
-17.3097 3.5211799 36.096298
-16.0271 2.01424 34.205799
-16.9139 3.4265699 33.857899
-14.4138 12.5829 28.9133
-7.8715701 14.6552 21.312401
-4.6459799 11.4324 15.9857
-5.3097501 7.7549701 17.859301
-10.8095 0.195813 26.985001
-6.1128302 4.0527701 20.1681
-14.9437 0.248656 31.144899
-13.6522 1.80907 30.218201
-14.4324 5.1025 30.6537
-16.023001 4.8337898 31.580999
-8.2623701 3.3108101 26.98
-11.1294 1.68496 27.868099
-8.8096199 1.0091701 24.7969
-8.6186199 2.7836499 24.975201
-7.3799801 3.34723 22.3099
-6.7297301 4.7964902 24.0667
-4.6140599 7.5736098 21.058201
-5.5963802 7.0237298 20.380301
-3.84744 10.2569 19.070601
-4.7209702 10.1144 17.952
0.72515702 13.528 18.638599
-3.36865 12.214 18.6626
-4.5851498 13.2649 17.2623
-3.4809101 13.2798 19.2393
-5.2154498 15.6934 17.438999
-5.5823398 14.2247 19.0571
-4.7789502 13.505 20.6642
-6.7581201 12.9456 22.2491
-9.5357704 11.3308 24.908199
-13.4143 8.8946505 28.187401
-10.2611 13.2184 24.1651
-14.4856 9.1703396 28.989
-11.8148 8.9046001 27.7974
-16.018999 6.7588501 58.729401
-22.327499 3.4188001 61.3536
-15.0148 9.5906 52.221298
-15.1927 -9.0503302 67.454102
-11.6573 -2.44098 61.1408
-16.0567 -3.9226899 63.639702
-10.1531 0.53271502 58.6768
-7.2186999 6.1350598 53.9599
-7.3749399 4.1017199 54.740898
-6.9484401 2.3215699 56.002602
-5.74547 5.5829 51.881401
-6.1161499 7.5926099 49.337299
-8.0483198 9.9864798 50.1166
-9.5982704 9.85182 48.694199
-10.8459 10.2393 51.982601
-12.8321 9.6377296 51.432598
-15.9298 7.83991 55.072102
-14.6957 8.2979097 55.437801
-18.715799 6.69695 56.796101
-17.621599 5.5015702 57.991001
-18.2705 3.3531799 60.5989
-19.985201 3.05229 60.330101
-19.2283 -0.178739 63.226601
-20.827299 -0.83413303 63.560398
-19.436701 -3.6946001 64.966904
12.1706 1.18547 29.2855
11.9053 -4.43929 22.1511
4.6603599 3.64061 25.7565
2.0894599 4.3232899 27.345699
11.883 4.69629 33.900799
3.12745 6.7722902 30.9457
2.50366 5.66044 29.047001
3.3640699 3.5704501 26.7349
4.2917199 6.3280902 29.051399
7.1441302 6.1448398 32.301201
12.8736 2.4678299 30.973101
9.2593803 5.0798898 30.7365
10.4873 3.6188099 31.1341
10.7226 4.0897298 28.1378
11.1918 1.76536 27.8876
12.1294 -1.15391 26.113701
12.6718 0.48480901 28.703699
13.2218 -5.24617 22.8818
12.1413 -7.2095299 19.837
7.7771502 -6.86026 18.2654
5.1983099 -4.8498602 19.6842
3.54053 -1.9721299 22.1479
2.4648499 0.246646 23.777599
4.1601801 -0.242587 23.4977
5.2658901 -1.63735 24.957001
4.89009 6.8517699 33.201
-4.8420601 11.3787 41.8563
7.6914701 5.9381099 33.9762
5.3181 6.9872098 44.706501
6.39042 7.1726098 42.372398
5.7814798 8.8277502 40.228298
7.5515599 6.9158301 37.170101
7.7751298 7.0114999 39.392399
6.3283901 8.5052404 36.9646
5.63726 7.8909998 34.8405
4.0190001 8.9031 34.369099
1.4923199 9.06812 34.017502
3.4563401 8.3861303 44.253399
2.2009399 6.77527 46.7621
0.053022999 7.9762101 46.919399
-1.76692 6.7870302 48.3801
-1.9948601 8.1259003 47.513802
-4.94519 8.7203197 46.900398
-3.1223199 9.2699804 46.7062
-3.1473801 10.8652 44.9422
-2.17469 12.2299 41.897598
-1.1293401 12.9367 40.148701
-3.5752499 12.0074 38.467098
0.48985299 12.421 37.597
-1.08377 10.8374 35.491798
-1.197 11.6664 37.858002
2.1164899 10.7932 35.528301
5.1058602 -0.128555 22.9575
6.1662898 -3.44224 20.601999
8.0785999 -5.2773499 18.8936
9.8487196 -7.2423902 18.683901
11.2384 -5.3178501 20.208
11.7723 -1.58371 23.700199
8.3723402 6.9809599 30.7558
6.6451702 7.5311799 31.1103
5.4204998 7.79317 30.273001
8.42873 13.9124 32.966202
5.5147901 12.8436 34.255699
2.5406201 14.2677 31.0588
3.6944399 14.8504 32.417801
4.9922299 14.1932 32.8022
3.7714701 13.2394 34.904202
0.71466303 16.958 34.439201
1.81909 15.8276 36.957001
-0.054659002 16.514799 40.069801
-0.230698 18.0849 37.148499
-1.51069 18.557301 40.886501
-1.4066401 16.396 43.219898
-2.6139901 17.4482 45.146301
-1.92848 14.5003 46.3745
-2.8287399 15.1187 48.9991
-1.62014 13.8321 48.5322
-1.40412 11.7774 47.469501
0.26404399 11.7505 50.581799
0.004987 10.6406 47.402302
1.75529 10.1612 46.296902
2.4935501 10.664 49.865002
2.09776 11.0455 48.100101
7.5696101 12.8837 36.8251
3.9635601 10.2595 44.0121
4.9377799 11.1873 44.987801
5.5106602 10.8446 46.510601
6.3087001 11.5745 40.540901
9.4197197 12.7432 41.2216
9.9566298 13.4811 38.958599
7.7929201 13.0566 39.945702
8.3735504 13.7484 36.3372
6.9532599 13.1021 34.8988
9.9335403 14.0482 36.0387
14.6064 9.7380104 31.003401
6.7507601 1.44612 21.364
13.1897 -2.13398 16.834801
2.51143 9.0465403 25.754999
7.5442801 12.9945 31.0415
8.6406298 12.0356 31.104601
10.1348 10.289 30.248501
10.7792 12.0228 31.353701
11.4243 7.3446598 28.294399
5.89116 10.408 29.609699
6.1644802 13.194 30.729
4.3566298 11.4543 28.422199
4.8894501 7.5619402 26.2054
5.0521898 6.6475401 27.118099
3.9902201 7.0696998 24.037399
5.7350898 3.80656 23.525
5.0829902 4.11797 20.3575
8.0168695 1.11281 18.799801
5.43467 4.3694201 21.604099
7.4430499 1.47899 17.500799
10.9065 -1.17838 16.0098
8.8290901 -0.95344299 19.045
10.9646 -1.52118 17.6731
10.7199 -2.5780499 18.7488
14.7298 -0.94058001 19.795099
11.7015 -2.3080299 19.582001
12.2846 -1.13826 21.5562
13.0465 -0.72430801 20.622
13.7135 3.2725799 24.236401
14.9138 2.43155 23.526899
13.753 7.4651399 27.817101
12.5211 2.7817199 24.721399
12.8129 6.9271102 27.2705
11.2837 -12.9442 64.399597
-4.0904002 -12.96 53.167301
-5.95469 -9.3324003 50.974602
-3.4679999 -7.69173 51.6945
-2.1862099 -7.2782302 53.837502
9.2527905 -9.2007999 62.648899
12.3486 -11.3181 64.570602
9.3463097 -8.6766796 69.151001
5.9857101 -10.2458 62.748402
8.8700104 -11.9141 64.425797
3.5637801 -8.8129301 60.369701
1.36594 -7.5539699 62.256901
-6.2913799 -4.3863101 55.179798
-4.2018399 -15.4337 56.070599
-4.33393 -17.0669 56.238201
9.5441198 -16.655001 66.821404
-9.4061499 -11.5001 51.052601
6.2063899 -10.4624 65.956398
5.2768402 -8.9653797 65.513496
5.0186801 -10.3244 64.007103
8.4035702 -13.4047 67.115601
7.9400702 -15.3568 66.188103
8.3097496 -13.0989 65.601799
8.6082802 -13.5479 64.348297
6.7974901 -14.9306 64.599899
6.6118798 -14.6317 63.0737
4.68117 -16.774401 63.485001
4.4506202 -15.7371 62.755699
-1.27969 -17.1791 58.937401
-1.74298 -14.2648 55.556301
-0.81640202 -15.8878 58.775002
-8.17062 -14.4614 52.7188
-7.4373202 -13.6845 52.9394
-10.5521 -11.6876 50.313
-9.3645296 -9.7433996 51.162899
-6.8211899 -8.50175 52.4604
-9.9754105 -8.5861301 51.364498
-7.7922702 -6.9060502 53.828098
-4.4412298 -8.06077 54.772701
-5.7776499 -7.6303401 55.011398
-3.7142899 -6.7067699 57.847599
0.55414099 -8.5987997 59.907902
-0.151081 -8.2733498 57.996201
-0.471645 -7.8962102 60.218498
11.8138 -1.2754 73.622299
15.1417 1.28739 77.859398
13.4129 1.29354 76.7463
11.7226 -5.2003798 72.084503
-18.259399 -3.9046299 64.558502
-18.122499 2.4031701 62.6567
-13.1443 10.1631 55.2845
-9.4179497 11.3263 51.7677
-6.9840202 10.8766 50.903599
-6.81778 8.3312101 51.476501
-10.1875 1.90916 58.552299
-14.1773 -2.21474 62.339199
-14.7263 16.193899 52.9389
-18.499399 9.9411602 59.8834
-11.3397 -0.50676501 66.219597
-12.505 1.7551301 61.706001
-13.9737 1.3911901 64.368599
-15.8986 -0.25083601 64.102798
-15.5497 0.20227399 66.833397
-17.2169 0.278128 65.566902
-18.2386 0.538845 67.010002
-17.8853 -0.013493 64.512901
-19.545401 3.5854001 64.817802
-18.2647 2.14101 64.758797
-17.017401 5.4994998 61.029701
-15.9012 10.8335 58.641499
-15.2546 9.3356705 58.606602
-17.1469 7.23985 61.312199
-13.2281 13.4666 55.5546
-12.3835 12.6434 55.219002
-10.5736 16.2568 51.557499
-9.0226803 14.7263 52.124401
-6.3436799 16.0814 49.831402
-6.28018 14.8386 50.830299
-5.6449699 12.3944 51.900398
-4.21558 13.3669 51.787899
-3.98792 10.9334 54.009399
-6.3120999 9.5874996 53.677299
-8.4545298 5.7683001 57.2794
-7.9874501 6.65026 57.993999
-5.3234 10.5484 54.1343
-5.2537498 8.3885002 56.763699
-10.2056 3.43293 62.469299
-10.4 4.0438499 60.968102
-9.9170399 2.6507499 63.2197
-3.86553 -13.3155 76.681702
-8.7348804 -12.5704 77.223602
-7.7908502 -10.9252 76.139297
-11.0468 -6.37814 71.754097
19.0128 3.9447701 82.2463
14.0961 -0.853302 75.300201
12.7312 -3.09097 73.390099
18.879 0.76999599 75.718498
17.182699 2.4888899 70.834
18.818399 -7.9126701 71.953102
17.6616 -6.2140999 73.2799
18.688101 -6.6480198 72.933998
20.643 -6.7957702 75.2593
20.1446 -4.0978198 77.007301
23.007099 -3.1668301 80.315598
21.659201 -3.8433399 78.1437
24.3239 2.1278601 83.923302
21.659599 -1.52388 79.989998
22.592501 0.84300202 82.082603
23.182899 3.7374799 83.6007
22.3617 4.8323698 81.960297
22.7043 6.0422301 80.4487
21.2017 3.7211599 78.251404
20.724899 3.5072601 79.104301
20.692499 3.6135299 75.774498
17.4048 -2.02617 73.1735
19.261499 1.1709 73.118301
17.9461 -1.95726 71.994904
16.738701 -6.0207701 70.407097
15.7213 -5.09798 71.677803
16.935499 -2.8150699 69.563599
17.010599 -6.93818 69.425797
-10.3607 -9.45263 74.145699
-7.7086201 -20.368099 77.401901
-17.5907 -11.2219 71.2118
-17.0439 -13.9613 75.572899
-16.174801 -11.8529 73.8106
-18.681801 -13.1086 75.193398
-15.7913 -13.8884 76.2565
-14.5442 -16.048599 79.094803
-15.0846 -17.3109 79.748299
-15.9003 -17.7486 80.602501
-12.8906 -20.3025 83.020897
-12.3443 -19.2868 82.334602
-11.5842 -22.065701 85.202301
-9.6724901 -21.8358 83.536102
-8.9906301 -21.138399 81.979698
-8.0500002 -22.4317 82.142502
-9.2404299 -19.749599 79.6828
-10.2061 -16.698999 73.278603
-10.4597 -16.9102 76.397797
-9.1449299 -19.4189 77.256302
-11.7282 -14.9801 73.560699
-10.192 -14.4146 70.571602
-12.5903 -12.8056 72.958504
-13.9409 -11.8703 71.095001
-14.0922 -10.3377 71.7463
-15.7247 -10.6824 70.286499
-14.5995 -11.072 69.151802
-15.545 -10.1918 71.857903
-17.583401 -10.0908 69.768204
-6.31745 18.959101 79.406303
-3.1672299 19.1434 77.6828
-2.02791 19.7794 77.729301
-3.3613 19.2339 75.777901
0.25933 18.292 73.817902
-0.844015 17.784 72.8508
0.51485997 15.9035 71.786797
18.1714 -0.94739902 81.532097
13.2416 -6.6612 71.633499
16.5357 -6.0535598 79.137901
17.840599 -3.3948801 78.951797
16.880899 -8.2188997 77.931297
15.8396 -6.1528902 75.441498
15.0502 -8.0852804 75.589203
14.107 -7.1332402 73.022697
12.2152 -8.2259703 72.218002
-12.6304 -6.4173398 71.868698
-13.4881 -12.5171 79.281303
-15.1531 -10.9001 76.041496
-15.0636 -10.1198 76.837601
-16.434 -6.88412 74.077698
-15.3496 -8.3078098 73.407402
-14.9721 -5.5178499 72.087097
-13.9684 -5.4232998 71.694199
-8.32444 -21.752701 86.031502
1.32937 -19.882601 83.070801
-9.6869202 -18.607201 83.5774
-7.66571 -14.8016 80.338501
-1.35312 -16.806499 80.723999
-5.2983799 -13.7145 79.230904
-17.380699 -12.3937 83.453796
-11.543 -15.4589 82.079201
-13.804 -11.4718 80.8218
-3.63978 -17.771 81.488197
-1.9556299 -20.8032 83.815201
-8.4986496 -18.8592 83.291801
-13.047 -19.3943 85.796303
-15.0173 -15.3374 83.719101
16.6786 13.8566 83.6455
15.8543 2.55439 79.946503
14.3711 4.1097102 79.267097
17.6738 6.7958598 81.685501
20.535 -2.86883 83.573097
18.837799 -6.4740701 83.050102
16.6945 -3.8987601 80.867897
15.1143 9.77178 80.845497
20.416201 1.94559 83.179802
18.839399 10.7674 83.803596
20.563499 3.8450699 83.455101
18.146 16.1845 86.118103
20.763201 12.0377 86.136597
22.3986 7.42939 85.929802
22.8356 -4.6925802 86.190002
23.658001 5.7216501 82.9282
23.360399 3.45543 86.170601
19.782801 16.997601 85.433197
20.864599 15.9068 84.635399
20.763 16.0079 86.113297
22.744699 13.3069 85.463303
23.8284 7.1661501 86.106903
24.3799 6.9730802 85.390503
24.7041 -0.138336 85.353897
24.465599 0.96114999 85.949699
23.424 -0.22689299 86.171898
24.2017 -4.1961699 85.605904
21.870001 -7.3399601 86.053497
-9.3966703 18.5926 81.996498
-10.7656 14.8754 80.253601
-13.2432 18.5732 83.568398
-9.8852901 13.3392 79.238701
-5.2803702 18.4405 80.833
-4.0148802 21.695801 83.051003
-7.0556998 21.4839 83.444702
-10.4784 21.032 84.204201
-13.7495 17.270599 82.887299
-14.2827 10.9423 80.027901
-14.439 13.519 81.196098
-19.6129 9.6700802 82.802902
-7.3463402 25.465599 85.776497
-4.9189501 24.821199 86.126297
-10.8657 24.4006 85.496498
-10.3765 23.3146 86.269302
-15.3763 21.500601 85.997902
-19.3011 19.008301 85.385399
-21.695801 16.677799 85.242302
-24.069401 13.5635 85.242302
-22.3232 15.2889 86.117699
-24.752399 10.3525 86.139603
-23.629801 9.7985296 85.653702
-17.593901 14.2511 83.483101
-15.0407 20.5047 86.185699
-18.195299 17.780701 86.178398
-21.0779 14.0253 86.153397
-23.2318 9.7712698 86.120697
-4.6159902 -22.7855 86.137001
-16.701099 -17.1555 86.209801
-10.0145 -22.6429 84.707298
-18.7852 -16.5928 85.702003
0.217584 -23.1147 86.151703
-17.293501 -18.180401 85.341003
2.95117 -22.7598 86.043098
3.2081699 -23.711201 84.698303
2.2378399 -24.711901 86.135696
2.3820701 -25.002001 85.2854
-0.203361 -25.562201 85.443497
-5.5244002 -24.533899 85.343102
-4.3072801 -24.1947 86.148201
-7.9909401 -23.500799 85.7649
-10.1787 -21.9869 86.145203
-14.8724 -19.869301 85.916901
-19.1577 -14.6413 86.182297
-16.9548 -11.6681 2e-06
-20.800501 -9.3264999 2.4567201
-20.406401 -9.6536198 1e-06
-13.7689 -12.3968 -4e-06
-17.429899 -11.5442 3.12533
18.5516 -9.5514898 3.0928199
18.6273 -8.0033903 -2.9999999e-05
17.4359 -3.5304599 -2e-06
17.3557 -3.55128 3.12749
0.28720501 -0.121987 4.3077302
-0.212769 2.44647 4.3076901
-0.70651299 1.0284801 8.7072201
-2.1849999 0.73374599 4.3077302
