# .PCD v0.7 - Point Cloud Data file format
VERSION 0.7
FIELDS x y z
SIZE 4 4 4
TYPE F F F
COUNT 1 1 1
WIDTH 1577
HEIGHT 1
VIEWPOINT 0 0 0 1 0 0 0
POINTS 1577
DATA ascii
37.052383 -10.525055 59.647339
34.533531 -10.822599 58.712063
32.236458 -9.5822124 58.371086
31.071018 -7.3425598 58.187447
26.495775 -7.574913 56.574028
14.74039 -1.4075642 52.573166
13.985036 -5.9365892 51.252174
13.392626 -1.5547676 52.224991
10.677723 -0.4615612 50.963078
8.1762056 1.5306816 48.931412
8.5152931 4.2548165 50.067791
8.5084963 -0.84671402 47.425167
6.8724136 6.8820906 48.380699
7.1990385 3.2641025 46.340462
6.3844128 9.7308941 46.468594
6.9515762 12.432979 46.889244
6.9754496 14.826801 43.595848
6.6937828 9.7694759 44.332142
7.8909159 17.757067 42.207993
8.0000916 13.980484 38.538986
8.0094929 17.069305 38.075607
9.2385979 22.067841 30.699001
8.4926987 19.093723 34.90097
9.8187218 14.15463 27.063799
8.9446039 17.468634 28.520613
8.7827148 20.875843 29.620281
14.804672 -0.4396944 31.844322
17.72308 -2.6885519 33.045753
16.147387 -3.0938263 32.677689
17.122665 -8.141552 35.924816
17.096638 -4.2607307 33.573914
17.783665 -2.152771 34.917778
17.935961 -4.936161 37.37825
15.259234 -5.5190372 35.075081
13.354673 -9.0245628 39.605572
17.775084 -6.2908077 36.248863
15.031208 -9.6272488 37.804932
18.704493 -8.0657005 38.222527
20.639137 -12.306124 39.593765
17.087997 -11.377092 37.430145
18.808064 -16.044907 39.440445
16.561869 -14.168261 39.818584
19.207335 -13.087982 38.337337
15.906725 -14.532486 42.93655
24.934225 -18.627785 40.916019
21.742739 -17.70335 39.715912
20.0406 -18.67804 43.85714
22.160919 -20.302204 41.397484
19.995884 -18.740934 41.800747
25.463087 -16.449814 41.947754
25.055647 -21.839699 41.540249
24.446253 -22.055771 43.514519
28.050184 -15.145222 44.667507
30.063717 -19.586927 43.324944
28.434959 -24.26783 43.360088
24.823179 -21.599499 45.694618
33.182426 -17.095919 46.57077
27.566504 -22.77549 41.867214
26.077358 -20.905741 47.931282
22.908701 -5.3621998 54.924751
23.068851 -5.030901 53.616367
19.106426 -3.3751736 53.542751
17.091452 -1.381567 51.525646
15.153751 -0.53026009 51.999989
15.781102 0.18213272 49.438442
11.143619 1.860815 51.299469
13.508438 2.2967229 49.955837
14.529509 2.2933769 46.874977
11.013056 5.5554137 49.164032
10.845044 4.1775169 50.297939
7.7671537 8.1875439 48.979301
13.213808 5.380651 45.29274
11.706918 6.5121946 47.20219
8.1697931 10.30082 48.01149
10.073103 9.753891 46.879307
7.8158131 15.294861 45.068306
8.8364477 15.526793 44.481617
11.328497 15.072641 41.915833
8.8787289 18.514736 41.575752
10.298223 17.866085 41.169331
10.748447 20.526653 37.369225
9.167676 20.598923 37.8153
10.196579 21.545841 35.532669
18.763275 11.800818 24.185278
13.715078 21.132904 27.788277
19.336456 10.87132 19.788183
17.18096 15.891048 25.10548
11.811069 22.068359 31.705078
10.121374 22.64698 31.577772
18.309872 13.921258 19.825459
15.008451 19.751591 25.418629
11.543741 23.112064 27.325016
27.680456 -6.4860172 55.05352
27.933666 -6.6387405 56.504555
31.764795 -8.514122 54.011299
38.754478 -7.7850647 57.088852
42.398148 -7.9043465 57.61451
42.219627 -3.9535913 61.811104
42.187016 -5.8103924 59.641708
45.445473 -0.63407707 66.124603
49.762878 -0.19858742 65.382111
49.85104 -6.0140285 60.123688
54.162796 -8.1561852 59.46941
48.08601 0.92878246 66.977249
50.406345 -7.3003235 66.42366
48.521584 -11.202593 62.666538
53.214291 -2.7517681 63.49955
57.539639 -11.718889 58.341053
54.237934 -20.339762 53.226025
55.80394 -18.593981 56.561035
51.40266 4.1828728 71.205963
52.451004 1.9302521 67.989227
57.077888 1.9080791 69.401474
54.285683 4.3268223 71.38372
56.414017 6.4508705 75.478111
58.981907 4.3631363 73.502106
57.433178 7.5881443 79.047379
60.831291 6.9170341 79.286568
62.837975 4.1558838 76.587654
69.761734 -9.9859753 72.402336
66.725502 -11.711555 68.894226
65.087875 -12.205772 68.507851
65.1717 -9.3956375 66.088013
62.664963 -13.230858 65.253395
63.758598 -12.917671 64.904778
65.056076 -11.775789 65.831787
65.459061 -10.603268 66.19104
57.415073 -14.167416 62.637245
60.071747 -14.855518 61.898266
59.007835 -16.319466 58.575729
57.403114 -16.598337 59.33522
61.03529 -14.643406 60.72171
60.357838 -13.352695 59.485954
46.883926 -0.14613438 68.14032
53.722054 -16.248899 59.508545
57.869007 -16.774252 56.598949
48.030319 -4.4503136 67.113312
47.775963 -1.1568985 68.654877
51.665783 -4.2182341 69.566605
50.994728 0.090352058 71.951874
50.465557 2.3582115 72.287079
50.335266 3.5655861 71.45385
53.653229 2.768095 76.02388
53.1717 -1.1450939 73.119934
53.825066 6.1110153 75.517418
53.951698 5.899107 76.660988
57.408493 7.5828152 80.961792
53.826469 5.0388584 76.853966
44.67923 -10.442892 61.946762
43.990108 -7.3423214 63.55719
42.23811 -3.0840816 63.660423
41.779816 -3.9843149 63.755959
43.424301 -4.1721048 64.759735
51.698288 -22.345596 52.271545
55.690075 -16.393106 54.994835
51.454174 -21.505722 51.212006
48.15189 -24.455254 50.463173
49.409416 -23.719769 50.065365
46.368034 -24.506802 50.710579
44.591278 -23.943626 51.391148
38.742828 -25.780106 48.510925
43.636852 -25.94545 48.786667
50.893845 -20.289633 51.320076
42.969238 -22.05014 47.860695
46.543007 -23.748795 48.567184
43.821655 -26.036415 47.410458
39.816097 -26.619053 47.010597
37.935432 -26.591782 45.589317
42.807991 -24.844032 46.911373
36.167374 -21.141541 45.648026
34.253014 -26.166878 45.56292
33.051331 -25.72094 44.090572
38.946404 -25.832466 45.405975
32.121357 -23.480415 48.714115
28.822906 -24.086403 45.481647
31.44289 -23.033997 42.967346
35.250126 -23.103336 44.499817
33.467442 -25.455177 46.717522
34.018291 -25.295517 43.860062
38.826286 -3.7846718 60.747826
35.535431 -8.3582497 55.59845
35.635536 -2.8138151 57.092682
32.70018 -2.8172474 60.809681
30.349216 -6.2644157 59.149017
36.833954 -10.354074 61.436161
33.793903 -6.5747757 64.19886
33.102463 -3.2784023 57.199093
37.549835 -6.6361351 55.768269
20.982065 -18.786436 29.989277
41.758766 1.4399776 34.486687
13.781381 -0.88845062 21.58321
36.555149 1.21175 60.145901
34.852257 -0.10376358 63.709942
32.703003 -0.82719707 68.469925
32.317436 -3.8486881 66.789261
35.814167 2.7052097 64.703979
32.539551 5.0065365 78.19973
31.502844 -6.3213196 67.964493
30.437576 -0.26439476 74.775482
27.736397 -7.3738842 75.257927
36.478573 9.509882 75.388504
34.636936 7.7462463 82.183052
41.112865 13.115219 72.870193
28.909382 -3.5507793 74.982674
41.146198 6.129632 71.684517
35.378891 -3.4990234 72.714294
37.100403 10.25671 78.414413
38.282642 1.4727316 73.609863
25.7276 -9.2415428 79.776947
26.186491 -6.4646759 80.329285
26.668333 -4.1195221 83.266197
24.257933 -11.141893 84.878159
23.837631 -12.01387 90.337036
23.797466 -13.343649 87.84938
24.955523 -8.6540756 91.341759
23.910595 -16.416655 94.586365
37.020859 4.8754196 90.916
36.204353 5.3212967 91.118469
35.072716 5.3547745 90.391518
37.550629 3.8483028 89.588928
33.39566 3.7604618 91.886635
38.047562 5.5488796 83.597206
37.682205 6.0577507 85.81543
36.405704 7.6054211 85.781235
34.315998 6.5287991 86.095078
41.245869 10.016558 74.807518
39.405048 8.0018158 79.025307
37.370541 7.7212276 84.703239
39.289047 11.749924 76.538513
30.291801 -8.8257427 74.885773
32.038727 -7.2015762 74.720436
39.44989 5.7190876 76.749947
38.959812 9.0660725 80.216637
39.396683 10.704081 78.310005
36.467003 8.8198986 82.79528
34.175755 -4.4634457 76.467514
27.931915 -10.263969 76.913826
26.032801 -11.816473 80.559196
24.813406 -12.995731 83.806549
32.299828 -6.9373817 79.096085
28.452375 -10.904758 79.507256
30.943298 -9.1503296 82.725029
27.697744 -12.518402 83.431755
28.13904 -12.947479 85.619759
24.219597 -15.361933 89.168533
26.520956 -12.589945 82.095215
25.096897 -15.3304 88.235924
26.423489 -10.176392 78.274567
31.005707 -7.4074745 69.622238
32.306004 -7.2530651 69.674011
34.055038 -5.7123632 70.047028
33.239037 -5.618454 64.018318
37.146576 -4.5644207 63.336231
37.174633 -2.8418169 67.711609
32.287529 -7.1298618 68.13427
35.157925 -6.0114899 64.331245
38.981483 -4.6379786 58.129875
35.495731 -6.8923798 54.871716
40.07695 -5.4462833 52.463711
37.038521 -8.240509 50.880695
38.367332 -8.6917152 46.379044
35.087242 -10.998995 44.398491
35.437878 -11.758871 41.925934
32.001698 -14.083153 38.521164
32.052284 -14.737144 36.74987
33.153687 -14.177105 35.668068
32.697598 -13.741837 32.757412
27.444118 -17.17651 33.374249
28.797834 -16.741959 32.398605
30.406057 -14.127672 30.517239
25.163414 -16.542038 29.210464
27.912348 -13.703537 28.978249
24.887018 -18.006262 30.255955
18.257532 -18.539724 28.867994
23.051985 -15.604679 28.057314
16.651148 -16.966734 27.568884
13.131322 -11.96299 25.136969
14.111647 -17.633427 28.339783
12.008444 -14.537058 26.101213
9.9563446 -14.928064 26.74382
8.4014482 -11.958317 24.443569
9.2468586 -8.6989937 22.749466
6.0815158 -8.1107311 21.610867
9.8828392 -3.5359221 20.423512
19.319616 0.071850777 24.462936
24.51403 2.0779266 27.092743
18.603598 0.49049187 30.369341
27.675478 2.7713408 30.519112
29.645676 2.459878 29.740097
28.372742 0.75673676 28.444921
26.348837 1.2774839 31.35368
30.178942 -2.2731895 28.48613
32.510933 2.603405 31.527222
30.714956 1.6825037 32.305305
34.334301 2.7704668 32.948975
38.585037 2.4364281 32.731426
35.407555 -0.022557259 30.507099
33.826839 2.0168247 30.898436
38.918396 3.6505175 33.779816
38.825371 4.1492243 34.766586
36.790234 3.0990496 35.88982
41.55014 6.0577602 38.965794
42.833321 3.7440224 35.747898
46.628647 4.262599 41.745476
39.36837 4.1107821 40.854843
43.823513 1.556921 36.946796
42.279491 6.8074951 41.624012
38.035439 2.1541538 42.822399
44.554703 6.6383743 38.836475
46.301079 5.9915161 40.47361
45.689087 1.3601999 42.576584
45.914337 8.8938475 42.829613
47.530342 9.411809 44.470772
42.634327 7.4521132 46.004307
40.910225 5.5577374 46.995152
45.27713 9.8558903 46.394028
48.591465 8.5528116 46.447544
34.741516 -8.7891579 47.69865
34.449474 -10.366796 45.268291
33.344479 -9.8861656 43.842319
32.322536 -12.405993 41.039482
30.910229 -12.292021 39.543411
28.581806 -13.752708 36.778847
27.323208 -11.761238 35.883965
28.285282 -15.819654 35.423782
24.140659 -11.95871 33.730713
24.752018 -15.213181 33.913242
23.360512 -18.390724 31.411903
23.418797 -17.377562 32.432495
20.46431 -15.603527 31.948008
17.126076 -17.955671 30.107096
19.96512 -13.398804 32.062286
13.386913 -15.127279 29.777763
12.679817 -12.457884 29.933369
11.92059 -16.304218 28.488628
9.6794586 -12.574305 28.571247
8.8812084 -14.209774 27.326965
7.1455088 -12.195639 26.68173
12.131348 2.0562267 28.084635
13.399117 5.4428701 27.427393
7.9458032 1.3776789 26.307945
6.4284897 -9.6670189 26.744551
6.0785728 -11.494221 24.944546
10.753963 5.8707809 26.201805
11.480721 10.265205 24.442324
4.9588733 -6.8432388 25.687874
3.2490954 -7.0768776 23.677723
4.9194803 -1.9053431 25.103333
8.173975 7.8495331 24.046192
4.9974132 4.2838326 23.249634
2.6758595 -0.62808895 22.755318
35.16481 -6.0578613 49.838886
36.041332 -8.4980755 50.508839
35.244301 -6.9350777 52.030468
35.24276 -5.1971226 55.390942
36.137444 -2.79811 52.79496
47.518497 11.113779 47.476135
48.812107 11.484329 49.269745
44.425743 9.9347277 50.033077
46.593029 11.652897 50.141159
47.44669 4.4675035 47.350113
48.599091 13.487321 53.742691
48.804745 8.5853548 51.194363
49.273903 12.084011 53.873131
45.441071 14.706608 63.539825
48.991322 11.434933 55.667549
48.369381 13.527727 59.107796
44.707451 11.988459 56.903091
48.222755 14.378448 58.154297
47.095364 14.169931 57.826805
48.083096 9.8105392 57.56337
43.272285 13.597612 65.473907
46.637291 14.831697 63.484306
46.957047 13.589102 63.502155
47.311459 12.084282 62.010056
42.845619 13.656149 71.041328
45.350071 14.107973 66.895859
43.056305 14.186413 68.899483
42.60891 10.662191 71.975655
19.82626 8.6629028 19.085461
19.559196 8.7258072 23.539068
32.335449 -10.063005 60.533344
44.123844 -22.055168 62.505783
33.431667 -27.472149 75.663109
36.089813 -10.969366 60.430786
33.352699 -8.2162018 63.606346
30.975405 -0.25802898 60.644135
32.955639 3.4012794 56.13982
34.370853 -2.3871269 57.901939
33.942776 1.7415447 55.605198
33.822792 8.3795509 51.175228
34.111305 11.697379 47.794514
35.67696 14.163919 42.541122
36.278118 12.392045 43.802849
38.359882 14.340022 37.221786
34.780869 15.298502 41.333832
35.534134 15.666197 37.556351
32.131207 16.053602 40.769989
39.457653 13.688086 34.44474
38.306992 14.73902 34.023689
40.262028 12.830472 30.058481
36.018009 15.160243 33.886906
37.846138 13.754333 29.814629
39.041489 12.378086 27.129597
35.158566 14.107991 30.936453
34.249702 9.9669409 21.651958
38.673508 9.559412 22.310722
34.217144 8.615778 18.565996
33.075436 7.0485606 15.037264
29.509005 8.7833309 17.615004
29.701002 7.7556124 14.234934
24.15719 8.7566795 16.434811
18.821838 8.7248154 28.042768
19.025429 4.0701008 29.261135
19.509308 9.7247715 33.018387
19.99341 6.9189472 35.122963
18.984955 9.9982109 35.978642
18.705631 8.92593 37.805031
18.594557 9.6858006 37.660156
19.914503 13.35966 43.405724
21.146057 8.3966141 39.383827
19.240322 9.2677212 40.634384
18.359264 10.386187 42.067078
18.276958 11.899207 43.832031
20.012115 9.0173731 43.279324
17.630592 10.456635 46.085892
17.513901 12.551587 48.432129
18.219204 9.3564577 46.820297
18.904919 13.611055 48.609203
15.817796 10.946392 52.169075
17.980768 7.9354048 50.405521
16.331459 8.364851 52.09774
17.093241 12.083686 53.596951
17.25573 5.4382691 54.666779
14.998589 9.8885469 56.020386
14.886073 5.6205606 57.037369
15.527699 9.5535765 52.589569
15.71686 9.3096409 58.43491
18.966255 3.4757509 55.483147
14.480818 8.8196754 55.783207
19.188231 -0.36769867 59.17577
18.256891 10.48747 57.460808
13.861401 7.694952 59.255344
13.06786 4.4931898 63.161552
14.552588 3.0934048 59.765808
15.331072 0.28729248 61.394932
13.385538 4.6955299 60.156731
12.91576 4.8061781 61.685356
14.384491 6.1344662 62.279243
16.392677 7.3640747 61.232552
19.03051 7.5453157 60.800903
32.763027 3.4204712 51.729702
34.35891 5.1873484 52.222469
35.422459 8.6147051 48.108536
34.740406 7.4067135 47.621719
38.102554 12.034698 38.159912
35.874046 9.8200817 42.154034
36.802353 11.068143 43.218143
37.20787 10.939744 37.6479
35.035042 9.8021364 39.358322
39.984791 11.030327 25.73225
39.09481 11.972421 34.24942
40.075356 10.734151 27.960382
37.646259 10.493676 33.147774
36.138279 8.9634438 31.083128
38.074326 7.6596975 24.239958
35.168037 5.6825404 23.1301
39.069973 8.5044041 22.550989
36.956413 6.4130311 19.988825
32.812737 4.0122948 17.772549
36.869286 7.1882176 18.660387
19.463581 2.1831326 24.329082
34.83815 5.3795328 16.896946
33.890316 5.8882871 15.048198
21.917246 1.5577364 20.19788
29.106892 2.7536659 16.849773
18.026482 0.93079948 16.879589
24.424536 1.6292648 17.176239
15.910354 1.5687675 22.197479
26.89447 2.4233789 13.267174
14.049339 1.043107 18.296303
20.928745 1.2510948 14.14566
30.660961 3.9316664 13.110183
33.976032 3.9342031 52.168583
29.211615 -1.4831247 56.224392
33.816257 0.62960815 55.176636
32.15387 -0.064479828 54.957592
39.151596 -14.21851 61.833271
35.654427 -14.606594 61.472881
37.433548 -14.244148 61.254456
30.49015 -13.230091 62.317471
41.582764 -22.447655 62.58997
35.3787 -18.03043 62.599617
33.524426 -22.570778 64.94355
22.864674 -18.541977 72.959427
30.254562 -18.792292 71.026718
23.495928 -23.715828 71.338043
22.925209 -21.901184 73.748428
34.655304 -18.065109 68.717789
37.695068 -24.633919 64.426041
42.007923 -26.323147 64.042328
50.659462 -30.775864 65.600197
45.697815 -25.214226 63.148438
42.812885 -29.651661 65.818825
50.422829 -28.557796 64.630981
46.529255 -29.40004 64.843307
50.321857 -33.153282 67.191055
54.784237 -32.785385 67.456558
52.611977 -35.563057 69.334503
48.628071 -35.727043 69.962685
40.656528 -38.234177 77.308746
35.273994 -33.38652 79.964424
34.949753 -34.669659 75.833405
33.599899 -29.484535 77.140739
33.533085 -32.735214 78.782433
33.027077 -33.28598 77.962204
33.18259 -33.647415 76.850525
29.848949 -29.444595 76.306709
31.06739 -28.568924 76.355026
28.580769 -29.530663 73.913788
28.509998 -29.376053 75.149414
27.519894 -27.665607 71.914261
27.926594 -25.093651 74.695404
22.381483 -22.896194 73.543121
42.784786 -20.240374 65.259171
38.337646 -18.099537 66.651596
24.951763 -22.250423 73.83551
27.574329 -20.899202 72.867523
25.59708 -25.649002 74.493149
23.919376 -25.138676 72.98307
43.031658 -21.785179 66.85331
46.499138 -23.073269 65.022316
48.25816 -25.409767 63.65712
39.592216 -21.69046 68.927551
46.498058 -24.935982 68.132248
51.484837 -27.578979 65.994049
52.123615 -28.454651 65.651222
49.476849 -26.289433 67.297073
53.12875 -29.163315 68.465897
40.835403 -17.000687 63.41256
41.184631 -17.507248 62.084145
35.888351 -10.08684 62.562904
34.402084 -13.837318 66.22049
31.057175 -8.5653839 65.331238
38.124504 -15.632957 64.778259
17.276869 -15.657022 72.700005
20.051235 -20.124733 71.339531
18.112625 -18.062675 72.654388
16.171204 -11.265896 72.069
15.027033 -12.388845 71.922897
16.654814 -15.883432 71.677879
17.494081 -2.2744942 68.309814
15.568066 -6.7990551 70.757584
13.211576 -6.9163475 70.627869
14.121264 -10.636787 70.469101
14.464375 -1.529685 68.412613
12.292677 -3.447298 68.029922
13.548637 -3.2596006 65.892166
15.418207 -4.4769955 64.970184
12.898079 -2.3861523 68.695969
12.201347 0.33408451 65.556366
15.203266 3.6590223 64.838707
12.967106 1.5616837 66.059006
32.140671 -5.1199532 62.727844
33.98513 -3.3825788 62.774445
35.083694 -1.9853706 60.609589
4.2734685 15.792563 15.568586
2.7788448 4.8736544 12.536484
5.8521156 17.420465 14.784746
5.2118549 2.9538274 15.204328
9.3067427 1.0319023 12.358006
11.921484 3.1096373 7.0796442
14.75321 5.5699258 6.3587632
16.895834 13.511153 8.0658388
15.101805 16.800203 10.17415
16.201187 16.185919 13.952483
12.85675 18.322922 11.371639
10.603098 18.684738 13.188628
8.3093901 18.333401 14.337435
2.4844718 13.680735 15.279341
1.8013973 11.16325 15.26394
1.5625229 8.1527395 14.348594
10.281535 19.130171 13.021073
21.263689 24.927914 9.1911268
16.653835 14.451255 8.0054731
24.436741 18.609243 5.3083301
16.734451 10.47675 6.5830193
16.035181 8.0616331 6.1161146
13.099613 3.8825898 6.2261763
4.5825214 3.1595507 10.507762
2.5920949 4.4598761 12.017599
1.1558094 8.5318642 14.196017
9.0562897 2.3640847 7.8509421
6.7714953 2.361917 9.0658445
17.675619 14.542738 12.597284
14.37933 17.194359 15.2721
12.062931 17.543139 16.625761
9.1101351 16.910542 17.977318
6.4393868 15.083694 18.76383
4.4531999 12.582624 18.952045
12.665009 1.4935493 10.731591
15.639701 3.4737687 9.83636
17.332901 5.5771012 9.6659069
18.634918 8.7906799 10.089183
18.640394 12.167958 11.259127
3.9462714 4.8804073 16.546825
3.3549981 7.1746845 17.658228
3.470469 9.6286354 18.449036
7.0647326 1.6179438 13.754484
-8.0966911 -0.86583233 20.261448
-6.5384789 5.0850801 22.06859
-5.9338636 9.0491638 22.655979
-7.6706123 6.121912 21.968931
-6.9839687 9.8609667 22.081003
-2.6570196 16.107529 23.220772
-2.5971155 13.881181 23.071724
-1.7825136 19.306709 22.542833
1.9868021 21.537918 23.118851
-5.1689739 -6.1303978 17.186251
11.788143 -7.3054676 6.1836557
27.572783 0.020254135 0.65480423
26.099033 -1.1755724 2.6016283
25.507061 -2.1109333 0.84399414
22.647655 -4.0104456 1.3774395
22.013626 -4.4113626 3.181798
14.991653 -6.1273003 6.7279272
14.146181 -6.920866 6.0507045
9.3851414 -6.7531166 9.4364147
4.1365995 -6.948864 11.861986
3.2551327 -7.3600922 10.554489
29.250624 2.9677734 1.7566319
28.658463 3.7158003 2.9698677
11.811216 30.497133 21.124571
13.866704 31.72933 18.462597
16.049103 29.119598 18.429447
15.343288 30.522678 18.597265
19.314539 28.215654 14.326007
19.085236 27.844229 15.766175
22.106457 24.516266 12.664865
21.283688 23.751274 13.752107
24.531158 19.300476 10.256067
25.275093 18.855743 8.1511021
28.460764 12.155106 4.1025486
29.845568 6.9550791 3.210413
9.2004671 31.165756 21.803654
0.70914555 22.482796 22.54454
1.8944168 25.290129 23.134087
3.0905361 24.718433 23.719131
-7.7182274 -4.6065445 17.668001
-9.4218025 -2.6131353 15.953629
-8.8690701 -1.572876 19.094238
-8.577919 5.0516467 21.160931
-9.4511719 6.6558065 19.188326
-10.308226 2.2072425 18.099308
-9.1097851 1.5244217 20.218393
-8.6417732 9.2152891 19.646553
-6.8917656 13.22798 20.108986
-4.3325176 15.37039 22.386948
-3.4664402 19.178158 20.352882
-5.9939976 -6.6137466 15.888813
-7.2556248 -5.836585 13.681491
3.5108109 27.732666 23.308294
1.1632328 27.36425 20.732498
-0.4450779 23.526394 20.255371
10.966357 32.005104 20.4053
16.810007 30.364866 16.604904
12.064233 32.782097 16.813686
16.851347 30.089624 13.331528
19.289185 27.669971 11.194046
22.930643 21.95911 7.2731047
22.022942 24.738251 11.357596
7.6174984 32.432495 19.05843
4.1990523 30.74481 20.291145
6.6006889 30.678944 22.27219
9.6010447 1.3963432 18.006382
4.0436058 9.2640171 20.370975
6.561017 15.112445 19.838039
1.3535366 3.1772137 20.316372
-3.0019913 -3.9176006 17.563423
1.1731892 -4.8346863 19.94059
1.2262402 -5.1173973 19.259705
-2.438446 -7.9074135 15.16253
-1.8947239 -5.9663639 16.327347
3.1005936 -6.9221802 20.865427
0.90051556 -5.3069735 17.362038
1.0255318 -7.6776314 13.721169
0.51499462 -6.2112446 15.4465
2.8736424 -5.2640381 14.539585
2.7650266 -4.958724 17.482807
3.9726467 -5.789917 19.49448
5.9160705 -3.5781231 18.581303
5.7495213 -2.3341999 16.357609
5.6041994 -3.0581942 13.654695
7.7855024 -1.875227 18.483305
-0.73462296 -4.0056467 18.209169
0.5292511 -1.5813761 20.103165
-0.89513588 -0.30901527 19.121311
-2.7886057 0.22281742 18.982466
0.72422314 4.9907179 19.89773
-0.3905201 7.0494971 19.950672
5.0877466 15.365998 19.935936
6.7232447 13.093778 20.293348
28.80588 11.145095 5.1501856
19.749166 8.6999378 14.807516
8.6008635 -1.4886866 11.867754
27.683855 4.6908259 4.2706184
28.18907 7.2890954 5.5383048
28.679123 6.0870996 10.315067
21.998125 8.6431704 14.203255
26.272226 8.0865154 13.061109
28.199448 6.9794483 11.040663
26.581543 12.235076 7.0493612
27.330624 8.2484064 7.1692305
27.809128 6.9586506 8.6509895
25.588337 8.209053 10.715069
24.657389 10.366117 8.8329134
23.441147 12.106281 9.0651016
23.305893 9.2571554 11.040012
27.620253 4.9469252 8.8936129
26.904474 5.1465425 6.5714536
24.82638 2.7649412 5.3663592
20.940868 1.2074327 7.1366382
24.500973 3.2016358 8.3608704
17.201302 1.2112894 10.783969
20.320896 1.8051844 9.5188494
18.941811 -0.12003136 7.0572295
13.465312 -0.26664639 10.283315
14.391953 -1.3614626 8.8744497
12.611328 0.84086037 13.015061
8.2539692 0.98192215 14.871008
8.2156849 -0.18981838 13.011242
24.234131 0.90336323 4.3721952
20.384241 -0.89463329 5.794713
12.068049 -3.8500862 9.1932478
22.932846 -3.1430693 3.6488924
4.1771269 -5.9073029 12.682006
21.401405 21.988438 13.200699
25.929523 0.34214401 -1.8301077
19.499344 -5.5848961 2.87115
19.052044 -4.4178963 0.17619991
22.432079 -2.7095165 -1.028966
15.879692 -6.539465 4.1075425
7.7304153 -7.6378345 8.7015705
14.779167 -5.8163557 1.9640903
10.846258 -6.4823151 3.8254676
28.901039 2.7614579 0.38380051
28.695759 6.4610257 -1.1769238
29.78462 5.8269196 1.0768814
10.236296 13.264281 22.164684
9.3203325 15.797456 23.470411
19.36116 10.076889 12.739232
20.840942 13.620556 10.596204
5.6855946 28.155622 23.564812
8.5508499 21.484133 25.677763
8.7367516 14.489967 20.590031
5.6680102 21.101414 22.722696
8.6517267 19.523331 25.72551
5.6147113 18.187355 21.340212
7.8037844 19.255766 23.41283
5.3526697 24.966953 23.483189
7.2676706 23.750889 24.049959
9.3012724 23.186142 25.980423
7.7183723 26.942062 22.774666
10.628132 23.862335 24.082872
9.5190916 24.876396 23.096922
10.605856 26.057014 21.298618
10.746305 28.092201 21.034782
13.165404 25.082325 19.120129
13.237549 22.245358 20.904444
13.385679 23.204754 19.557217
16.684761 20.957226 15.682913
15.590346 23.990229 17.044155
15.236669 19.718346 18.982756
13.967549 28.846113 19.537817
17.110062 18.09218 15.293247
17.168409 16.335035 16.345057
18.701279 16.009888 13.145144
18.597248 12.849257 13.874584
19.71365 11.654493 11.378709
3.2133446 20.642849 22.420334
3.3601651 15.653244 20.600052
-0.33020115 9.5735722 20.48242
-6.6320839 -0.5223093 20.250694
-3.8319798 1.5739365 19.564625
-4.3582926 -5.3223953 17.411448
-4.3435936 8.3159599 22.150925
39.697777 12.26774 72.600533
36.865654 4.2348747 66.204834
35.532341 5.1617317 69.008621
37.049824 0.20855045 55.856094
37.573853 0.37846661 52.140194
39.797104 2.5923319 50.237877
39.136395 3.0156803 48.599567
40.878418 4.5155907 50.863853
41.555397 6.6979008 50.810852
41.984001 5.2851534 52.727726
42.670868 9.3027 55.546333
41.880386 6.8722124 53.215557
43.177116 6.6579876 56.871525
42.341034 8.1643696 57.435902
43.15274 8.039917 62.831539
42.334885 8.6988068 62.435509
41.90683 9.6685467 62.080425
42.018097 10.844849 62.27655
40.934265 9.4553776 66.556801
41.124977 11.707443 66.373978
39.681652 9.903965 68.815773
37.83569 9.7622089 71.297287
36.142212 7.6502361 71.438812
35.185593 -2.1860113 36.228481
33.094154 -8.0966263 42.699451
34.04192 -7.4945488 40.651825
31.707376 -8.8299999 40.39814
32.014824 -7.6560116 36.934586
30.331057 -9.4370136 38.582413
30.666885 -7.8174534 37.027397
28.742035 -7.507637 36.01886
30.073013 -6.3367004 35.339016
30.014709 -4.6692238 34.860325
34.386612 -6.6189842 45.702541
35.845959 -5.3181057 45.498207
35.532562 -4.1580219 48.186504
36.447617 -2.0705118 48.247944
37.80521 1.0733376 46.147255
38.261024 -1.0791655 46.103336
38.025558 0.36058903 43.91761
36.747963 1.5895653 39.369919
38.469643 -0.66263199 42.292938
35.992615 -0.031428337 38.360081
37.341087 -1.2657509 38.725101
33.954189 0.50967598 35.775776
31.381058 -2.3609972 35.209698
33.848015 -1.2047777 36.344864
32.274254 -4.0090199 34.303909
27.05159 -7.0935249 31.6775
44.444633 -1.2581921 43.233738
41.86924 -2.2571812 43.690685
33.478081 -8.9554367 30.158468
33.423813 -6.4587135 32.614464
34.746101 -4.7202845 32.477554
34.147865 -3.3609037 29.69488
39.819206 -1.5971851 33.005665
38.478848 -0.56676483 31.861988
35.109623 -4.0743771 30.810402
38.284698 -2.9483433 34.789948
41.070038 -2.1213493 37.816643
41.72578 -1.4263639 35.045444
41.855202 -1.9577417 36.930943
43.598068 -0.97138596 38.300335
42.643326 -2.0542126 40.62344
43.544899 -2.6047192 45.831474
40.138821 -3.2045279 45.732361
41.837299 -4.620615 47.490376
38.043396 -4.4164829 46.08802
39.224937 -5.1753187 45.970062
40.103741 -6.7636929 47.389362
38.35886 -7.5681095 44.757259
37.473923 -9.6816292 44.298618
36.116096 -7.0331097 42.564262
37.019302 -8.556839 41.574986
36.164268 -11.694036 38.68634
36.277252 -10.580954 36.647469
35.472397 -11.507919 34.273071
35.063927 -8.6761971 35.818405
35.450905 -9.5688477 34.115791
33.863251 -6.1340313 30.46966
34.307552 -8.0456047 33.054081
33.744808 -7.4050026 30.432735
34.855515 -10.205427 31.927109
20.863583 -9.4891396 27.931549
26.177223 -11.965599 27.941532
31.38924 -7.3548317 29.482992
29.311449 -8.9020805 29.144012
26.616024 -9.6086082 28.541082
31.590717 -9.4786549 29.279758
30.357086 -5.3088064 29.571482
32.556068 -5.2369785 29.136299
26.256855 -0.8371563 27.439301
27.595482 -3.7265749 29.068573
26.817068 -2.043293 27.830706
24.63946 -2.9627552 29.13829
21.388025 -2.5609846 28.024448
23.57687 -2.3141356 27.604618
17.993093 -2.9484148 26.407793
22.185087 -1.7500095 26.397091
22.384426 -0.77010727 25.997478
17.41013 -2.7289925 24.703974
15.547425 -2.4912119 22.989506
14.952549 -3.9334316 25.430063
11.143782 -4.6674385 26.452368
13.847967 -4.7674646 23.915529
12.085274 -5.4626122 22.357119
12.477346 -6.2877293 25.450203
11.734955 -7.1269379 22.916063
14.000626 -7.76017 26.138784
13.377355 -9.2551918 24.335266
16.393559 -8.8324718 26.350523
15.563086 -10.516457 25.232721
19.146572 -9.9849052 26.605865
18.372963 -11.376055 26.095739
23.067068 -10.20689 27.575069
26.858231 -10.7498 28.05521
44.914158 6.7692776 58.977753
43.648819 5.3621387 54.761417
40.530014 1.2627211 51.242348
42.464725 3.0992098 51.256504
39.02224 0.74486351 54.465145
38.046898 1.7671204 60.032459
39.427853 4.7013474 66.95108
41.523354 -2.900795 55.022835
42.301308 8.2835274 70.676155
39.715511 1.7035856 69.246841
40.713402 3.1107464 68.392517
40.538475 4.3056335 67.973236
39.586258 7.1289692 69.807571
40.373043 8.2654228 69.364082
40.779591 7.0920067 70.500961
43.553089 9.2247372 68.680878
41.853016 8.5677185 66.725861
43.351944 8.2781582 65.990997
45.310368 8.5454197 63.897011
46.611984 7.1853542 58.679153
46.063995 4.407073 52.891453
47.217018 5.4128628 53.350922
46.001312 1.9128265 49.046822
44.976238 0.62004471 48.434883
44.396187 -1.0554237 48.073845
43.338352 -0.18553925 49.824329
42.767372 -1.3750525 52.349056
42.015541 -0.2794857 52.78149
42.760136 -2.5585785 51.583595
41.686493 -0.70156956 57.539085
40.857834 0.68104935 57.831417
40.792145 1.9271564 63.631058
39.816288 2.6016197 62.911133
41.042099 -0.65122509 61.351692
33.694614 -5.2413616 82.793175
34.462196 -1.6352892 80.9935
35.2006 -2.4355431 79.861198
33.511127 -4.0892611 84.044815
36.427277 -0.18255901 78.448128
32.180244 1.3996429 81.227798
37.462418 1.4417229 77.377953
30.52997 -0.80819893 91.838028
32.067032 2.8869171 74.942123
33.568733 3.1981344 79.897408
25.104486 -7.4491234 86.737541
28.694233 -3.9589157 89.248383
33.300972 6.4439049 80.229607
33.382942 4.4406242 82.434586
33.007076 5.5390663 84.984589
32.807213 4.0185432 85.219246
32.406841 2.1546431 87.521461
31.243742 1.535656 90.202179
31.614592 2.4974136 90.736496
29.292383 -3.1084213 93.752945
28.886852 -3.2122478 96.131393
27.823044 -4.5440283 94.501083
26.539713 -5.5144901 92.227676
28.029127 -4.8458214 92.143097
27.758968 -4.0750103 89.729645
27.153894 -2.9789124 86.260017
29.750372 -2.0531626 85.787384
29.15135 -0.51892948 83.69558
30.65778 -0.1668911 83.369476
28.643539 -0.42799377 82.111053
31.655851 3.534687 78.084717
28.706829 -1.2138786 79.133682
31.023058 2.1905823 80.338058
33.974583 3.9791203 80.187523
25.249039 -0.50052643 31.819817
13.732578 -7.8678074 28.405918
25.474657 -1.8581581 31.873739
16.104313 -1.7923632 28.800032
17.124784 -1.0124598 29.737104
15.540464 0.37790108 29.70591
12.786634 -1.9780312 28.464546
14.349272 -9.9952259 30.539063
10.614284 -2.9339886 27.799145
9.0719109 -2.1118202 27.75386
7.9377527 -4.1271734 27.48348
8.4935427 -7.0380402 28.110638
10.469609 -6.1530952 27.474346
9.6050234 -8.6560307 28.817785
11.265852 -7.7210999 28.835058
16.278625 -8.9225998 30.291615
19.373381 -8.7165775 29.625217
20.792747 -9.4470844 31.688095
20.145391 -10.478083 32.105633
25.139631 -8.9178543 33.891754
22.89834 -8.5109024 30.682804
25.994366 -7.385994 32.620316
27.780083 -5.6566582 34.621025
27.750565 -5.3577042 31.878689
28.276188 -4.0714703 34.371582
28.891874 -1.1342583 33.370407
27.447559 -4.2743015 31.309345
27.221849 -2.8988028 32.843964
22.264774 -0.91573906 31.071049
21.569641 -2.0082827 29.987471
25.452827 -3.0684519 30.775595
46.039204 -19.42194 50.185825
30.624722 -12.606525 48.735424
50.616684 -11.399654 56.290726
43.989765 -11.477617 55.433285
39.037666 -12.010323 54.313213
38.306648 -10.554079 54.352509
34.38018 -10.990053 52.489632
31.717278 -11.224342 50.793045
31.269405 -14.912312 49.380997
31.280125 -14.937332 47.153645
31.384829 -16.734516 50.012634
33.726776 -16.837612 48.718502
38.220009 -19.089848 47.68655
37.412281 -18.2425 48.813797
39.390919 -18.828299 50.81987
42.77655 -18.82609 50.322567
42.569592 -19.364729 52.432037
43.920269 -18.728432 52.027824
49.073563 -17.420946 53.067505
52.692856 -16.382046 53.82069
17.260311 -1.5435858 38.270393
14.142459 5.0602012 42.849121
11.853267 9.8913822 44.257992
13.098581 20.097292 33.189034
15.088556 17.919468 31.023737
14.230677 -0.4367733 40.946415
16.310282 -1.044138 40.089355
16.426529 0.78006363 37.174194
14.88249 1.1636448 42.256916
14.951737 2.5630989 43.747765
12.56916 4.3936038 41.054478
13.410084 8.3333063 41.05315
13.373413 9.6141052 41.598282
13.162543 13.858802 35.770691
13.814126 15.194194 36.14653
12.22184 18.473915 37.694904
13.525595 14.257697 38.70422
14.119673 17.757294 34.194698
16.179976 16.104885 29.983181
17.415798 12.893063 29.899792
17.996201 8.6195469 31.373379
17.961414 5.9866695 32.65136
17.584967 0.60750198 35.511063
17.21748 6.8583279 33.066872
15.651557 3.9965067 35.105274
17.219385 7.9425154 32.660549
18.984516 -2.7110233 50.371803
20.401579 -10.923161 44.60659
22.55637 -11.765247 42.172016
22.178099 -4.8100653 51.799335
19.948019 -6.043396 49.766708
18.432413 -3.1947708 48.74633
17.304871 -4.0481825 47.650063
17.043669 -1.2238569 47.21524
16.190134 -2.5587597 45.092236
16.531025 -0.65456963 45.007023
16.627174 -2.7491035 42.644611
16.864864 -1.2216301 41.748905
17.066639 -5.7066059 42.378754
18.412666 -5.616066 40.971149
22.242432 -5.823699 50.756813
26.171814 -8.0668583 50.97776
28.614248 -8.9917374 51.319809
27.545567 -10.010769 49.979973
28.208067 -11.033199 48.659481
25.649275 -11.947275 48.316849
25.888153 -12.138184 45.74604
24.880543 -12.607697 43.948223
22.448452 -12.155558 46.155235
23.402729 -11.447666 44.464821
20.89106 -9.9152832 42.723022
18.584957 -8.6409149 43.126587
19.997614 -9.0600529 40.569592
14.669804 -0.57856655 39.304325
16.093067 7.8985596 33.004784
15.553763 14.378941 31.153051
14.152346 16.203194 33.432014
12.348036 7.5008717 39.814632
12.861197 11.481659 37.662361
13.257118 0.96106339 41.715549
10.286177 -3.9718285 41.923923
16.359541 12.135128 31.445816
19.220675 -5.5946674 54.190109
12.888201 -5.5544491 45.863266
12.270215 -6.0400925 42.594048
14.086459 -7.8236389 42.896904
12.820124 -8.2683277 41.181152
14.606747 -12.326458 41.303158
15.535951 -10.941338 43.675606
14.584896 -11.815887 42.597996
18.241266 -13.764999 45.605694
18.450226 -16.538616 45.588432
20.607719 -15.012777 47.64978
17.558004 -14.931311 45.390148
21.309994 -18.522327 46.505936
22.423037 -14.812233 49.248215
22.240793 -16.815624 49.39204
24.047243 -16.370865 51.007504
24.496704 -12.968777 50.277901
23.877083 -14.333069 51.341324
25.241318 -13.197487 53.970016
24.507881 -10.953781 51.199944
24.338108 -12.267401 52.994892
24.261282 -10.632122 54.899033
21.468224 -8.0134964 54.620312
22.784813 -10.089109 52.497635
23.252829 -8.0971107 50.836704
19.265991 -7.0462112 50.270531
16.192034 -5.4733295 52.87645
20.045591 -8.0810966 51.613766
19.9044 -8.0453262 53.016552
14.504837 -5.8652163 47.698719
11.825592 -4.8993015 49.913548
13.081738 -6.2795696 48.518417
13.339406 -5.108573 43.785927
10.568745 -5.3826332 47.121666
11.244004 -5.5243626 44.473297
9.9252825 -4.6285954 45.073879
7.1308479 5.6718121 44.279739
8.6316795 12.587042 36.877308
9.9066525 12.876917 29.988548
11.265801 8.9257545 30.112965
12.937994 -2.5993309 36.03265
12.710077 4.7635508 30.634413
11.301322 -5.6307774 40.779312
11.517806 -3.4620895 40.319355
10.089478 -1.1603813 42.394703
9.2421808 -2.3733349 43.522942
14.172508 1.1751986 36.680733
12.628076 -1.7449751 37.540558
13.404861 -0.37329483 33.964882
13.125995 1.1579313 34.856304
12.809259 2.9711566 32.496735
13.722246 3.9714336 34.439781
13.34277 8.1474266 32.527557
12.370403 7.4408646 31.996384
12.310641 11.339113 31.830307
11.112764 11.15443 31.078236
15.017185 16.280197 31.594374
11.95784 13.325583 32.224525
9.9941568 14.076714 31.871181
11.809668 14.005688 33.222836
8.8296576 15.791576 33.295715
9.6771975 13.912869 34.109394
11.287992 13.195136 34.90712
10.493268 11.369563 36.573746
9.81639 7.9797282 38.907112
8.7295866 3.2204766 41.71769
8.3171558 9.4649973 39.340244
8.1045628 2.7370739 42.832104
9.9015465 4.0615273 40.924126
20.873581 -8.7046967 67.300369
17.706608 -15.126163 69.864456
17.968307 -3.9559212 62.78471
30.123375 -24.234482 67.322174
28.334671 -15.217642 63.925488
26.178032 -19.176512 66.658791
27.626007 -11.309952 62.74036
26.342167 -3.8809147 60.415009
27.157072 -5.8962135 60.206818
28.605492 -7.577013 60.347252
26.81402 -3.0760612 57.980873
24.769499 -0.80052948 56.844788
22.786963 0.12379646 59.143997
20.879433 -0.26899529 58.337311
21.189632 -1.4661837 61.652554
19.442551 -2.7047052 61.500381
18.989491 -6.6801338 64.672852
20.06109 -5.8465319 64.825455
17.747305 -9.4013672 66.43132
19.557869 -10.269157 66.58226
20.811136 -13.138332 68.008774
19.33136 -14.083569 68.149399
22.218128 -17.319777 68.921211
21.210548 -18.688904 69.377319
23.854397 -20.890991 68.872192
33.076935 7.8819623 31.682674
31.297739 5.1066475 23.212723
24.433529 7.6157832 32.008156
22.777206 6.571558 34.409683
33.877796 9.363162 37.239128
24.552185 8.0494852 38.243771
23.498901 7.3874698 36.32473
23.799385 6.6876078 33.182426
24.814342 8.7527122 36.104153
28.735062 8.9264488 37.928665
34.052292 8.7853451 33.476898
30.129856 9.4362135 35.509701
31.773102 8.637928 34.829182
30.488028 10.019372 32.44273
31.45302 8.3415928 31.050146
32.303448 6.8186979 27.967047
33.444061 7.6862135 30.730036
32.973579 4.8026667 23.081182
31.269707 3.5527987 19.946264
26.778049 2.3483391 20.055901
24.649309 2.4711313 22.912209
23.512993 3.4333334 26.769972
22.686598 4.3452482 29.457249
24.135212 4.7757387 28.504341
26.132679 3.6673279 28.785534
27.029461 8.2470751 39.666325
21.375351 5.1601276 51.857464
30.009869 8.5067825 39.089127
32.51812 5.1810198 49.312672
32.320602 6.5032721 47.111553
30.358555 8.2552834 46.223694
31.03956 8.3329506 42.26498
32.19825 7.8626852 44.118095
29.448977 9.1853743 43.163879
28.091764 8.9791851 41.297813
26.217524 9.2448502 41.828827
23.878656 8.3524666 42.346817
30.333187 5.6584539 50.104225
30.872437 2.9996696 51.866203
28.778143 3.002563 53.167923
28.246639 0.75335312 54.400219
27.272738 2.0349684 54.337135
24.332851 1.3914928 54.951183
25.623072 2.7309952 54.49979
24.342106 4.5832319 53.734684
23.395727 7.064373 51.492706
23.285421 8.6430492 50.027588
20.738199 7.2531624 48.907883
23.657269 9.6829367 47.167648
21.847839 8.2567139 45.140877
22.571926 8.2119608 47.543514
24.578304 9.6459398 44.213749
24.657366 5.4550366 27.822403
25.465881 3.8248901 24.035276
26.850613 3.6355991 21.208641
28.826477 2.8334751 19.63028
30.119743 4.6351905 21.373615
31.04413 7.0030265 25.841633
28.832577 10.636746 36.639774
27.372715 10.221565 37.692371
25.88623 10.13813 37.462311
27.841059 15.86448 41.601791
26.274015 13.275747 43.064327
21.910559 14.079135 41.877426
23.323936 14.690768 42.947937
24.784588 14.60623 42.596813
24.977823 12.636796 44.300453
21.098928 14.538901 46.474033
23.493191 13.342769 47.767731
23.108208 12.168836 51.252895
21.187433 14.271306 49.543964
21.647339 12.999469 53.286304
23.416626 10.53801 54.254623
22.9543 10.319196 56.707016
24.948587 7.778923 56.218811
25.186176 7.1272202 58.975662
26.373726 6.7209339 57.649498
26.681086 5.3952284 55.766468
29.494678 5.2093906 57.892273
28.173462 5.0882616 54.786163
29.294863 5.7937164 53.124809
31.37302 5.5037346 56.145794
30.134518 6.1653261 54.943516
29.150503 13.479246 44.648663
30.10379 7.5381565 50.593212
31.092283 8.4727631 51.547832
32.360153 7.9944172 52.511292
30.138784 10.718761 47.566555
32.727699 12.902802 47.754021
31.948257 14.430087 46.017986
30.689762 12.81073 47.294731
29.356472 14.713143 44.389538
27.701168 13.951432 43.301559
30.451212 15.754272 43.814957
33.397335 15.690908 36.259567
24.868488 7.9899316 26.702461
29.318516 9.1875782 19.384426
21.034462 11.213907 35.064598
26.499239 15.256725 39.824318
27.734009 14.921257 39.125565
29.122639 14.369053 37.180611
29.654648 15.797865 38.703186
30.196499 13.035859 33.831001
25.219112 12.75093 37.938816
25.135824 14.897045 40.054611
23.08392 13.292973 37.856239
23.679035 10.896802 34.080956
24.49432 9.9305687 34.392941
22.0907 10.712996 32.293625
24.289824 8.8926258 29.884201
22.225628 9.7910919 27.54174
24.883247 9.0288563 24.017378
23.008596 9.7958488 28.603745
23.708208 9.4609947 23.253635
26.740807 9.2105818 19.786531
26.28458 7.5777698 23.058296
27.637316 8.4597807 21.019424
28.223675 7.1425381 21.524437
31.598053 10.018753 21.967514
29.347214 7.5670438 22.061214
30.383085 8.2375393 24.081915
30.485262 9.2029362 23.255993
31.499851 11.816493 27.906136
32.440834 11.853668 26.577747
31.912319 14.323274 32.799644
30.855129 10.724522 28.444571
31.031082 13.607185 32.372242
52.239868 -14.735142 55.234371
34.223892 -18.360462 50.253468
30.602287 -15.493168 50.578392
32.543507 -13.202648 51.193909
34.466583 -12.906166 52.812641
48.642189 -11.974501 56.033203
52.738819 -12.934546 55.796829
51.487572 -13.396078 61.729141
46.23568 -14.352921 56.605553
49.91246 -14.957371 56.42662
42.703213 -13.533957 55.951294
41.326675 -14.011597 58.753796
30.756821 -12.702391 56.447678
36.158813 -21.349422 51.625668
36.601334 -22.836342 51.07238
52.946983 -19.358311 56.121849
28.359596 -18.895681 50.682434
47.92614 -15.376984 59.15123
46.503845 -14.401089 59.722198
46.007797 -15.222515 57.9161
51.163692 -17.213417 58.164192
50.928162 -18.797329 56.640541
50.315022 -16.553709 57.051338
50.135658 -16.431173 55.704189
49.125603 -18.485188 55.826378
48.195908 -17.868893 54.72686
47.379135 -20.665039 54.677673
46.552956 -19.679287 54.595551
40.424301 -22.350601 52.404911
37.660557 -19.107811 50.995777
40.363876 -21.005039 52.71196
31.018749 -21.32864 50.396671
31.509016 -20.408255 50.716816
27.115189 -19.351784 50.309895
27.929321 -17.426613 51.552261
30.294718 -15.616749 52.459488
27.165028 -16.783283 52.421211
29.621586 -15.106953 54.615147
33.212662 -14.853512 53.911552
32.065712 -15.16037 54.698063
34.810261 -14.285568 56.901848
39.89283 -14.569483 56.539898
38.343658 -14.051134 55.279247
38.960575 -14.528202 57.41827
53.408737 -7.351696 68.103661
57.369232 -4.9360838 71.855339
55.408379 -5.3810139 71.425369
53.791664 -10.254683 65.069748
24.726227 -20.419827 68.088074
22.138683 -14.476902 69.275589
20.754929 -3.5305882 65.078957
21.979721 0.15556145 61.540764
23.777782 1.1223688 59.896027
24.921509 -1.1192913 59.187714
27.137585 -10.127146 63.263523
26.6796 -16.509703 65.777267
16.598471 1.5366726 66.271355
18.365484 -7.4709473 70.430626
30.316645 -14.931213 68.987701
26.643021 -12.222378 66.535492
26.705845 -13.969629 69.049873
25.443127 -16.142101 68.652344
26.831097 -16.403391 71.058266
24.832914 -16.716858 70.512077
24.54224 -17.378664 72.146667
23.880898 -16.954216 69.687424
21.561716 -14.751568 72.047653
23.039557 -15.37822 70.97377
21.433113 -10.890291 68.968979
19.739136 -5.186902 69.021561
20.708269 -6.1504974 68.129898
20.940536 -9.5623493 70.026962
19.837152 -0.85914421 66.815094
20.640606 -1.0762672 65.914566
19.464649 3.859664 63.916386
21.476898 3.0982189 63.252903
22.311052 6.1172409 61.140827
23.177553 4.8039932 61.407173
24.910732 2.7126117 61.026482
25.78159 4.2083454 60.949287
27.684742 1.6054564 61.66468
25.968441 -0.47696304 61.46122
26.897381 -5.7185192 63.414307
27.35401 -4.9738255 64.276627
26.726505 0.64413071 61.988667
28.599277 -1.9183617 63.217533
28.434769 -9.9973507 67.259216
27.417425 -9.1289787 66.323502
29.244604 -10.747908 67.456711
45.078186 -25.452263 69.874748
40.993267 -27.169044 72.094101
40.820843 -25.038643 71.641052
34.770466 -21.377604 70.936295
61.827751 -2.2405968 75.616714
55.964878 -6.4622974 69.040421
54.610966 -8.4040241 66.823395
59.713814 -3.0668049 68.72049
55.584602 -0.94602871 65.867012
60.516762 -9.3187027 61.66077
59.638355 -8.793499 63.882545
60.476604 -8.5973473 63.094822
63.214195 -8.5257225 64.41806
62.787712 -6.9847908 67.25116
66.416595 -5.8832188 69.62249
64.501839 -6.4229088 67.88063
67.596207 -1.8804893 74.65934
64.651443 -5.006238 70.480507
65.68483 -3.2029572 73.036232
66.016464 -0.93978214 75.444397
64.265701 0.096385956 74.792282
63.521366 1.7144976 73.959366
61.946693 -0.27528 71.502853
61.98999 -0.91995811 72.266418
60.436089 0.13124657 69.513199
58.146225 -5.3429012 65.74881
58.751389 -1.7944584 66.593765
58.053589 -4.6961622 64.626312
57.512558 -8.2026958 61.815166
56.954018 -8.2532272 63.600334
56.360168 -5.1613541 62.485218
57.570267 -8.5672607 60.495209
37.324837 -24.365486 71.373016
44.225262 -33.341904 68.441826
30.423515 -28.245777 70.221458
33.646595 -31.590706 72.51181
32.970661 -28.904259 71.716507
31.843769 -31.495338 73.054565
34.98946 -31.167015 72.754364
37.949944 -33.262207 73.81427
38.157326 -34.761879 73.957336
37.980774 -35.748032 74.720856
42.355774 -37.260841 74.732872
42.210922 -35.957047 74.449631
44.954922 -38.801765 75.399239
45.752785 -37.260765 73.535797
45.424889 -35.909691 72.335472
46.671024 -36.626564 71.616333
43.775417 -34.176403 71.093758
39.190025 -30.158035 67.341507
40.438721 -31.36451 69.95369
42.66935 -33.143112 69.166237
37.528164 -29.473495 68.797729
37.316597 -27.430103 66.078506
35.892673 -27.848801 69.51873
33.641666 -27.11969 68.761826
33.357216 -26.084991 70.044174
31.424782 -26.681171 69.135788
31.979095 -26.172066 67.673279
32.138359 -26.647011 70.629753
29.449802 -26.864658 69.508858
34.771709 -0.11135769 87.387604
36.602539 1.9641647 85.092262
37.398613 2.9990025 85.083176
35.556725 2.5117722 83.582001
38.008507 3.9173336 80.44339
36.791836 3.2765388 79.722412
38.01215 2.6114998 77.581505
62.230873 -6.53825 73.063477
55.299408 -10.673275 63.587769
61.271824 -10.880785 69.229004
61.510284 -7.9962006 69.883438
61.656021 -12.199677 67.136955
59.05336 -10.193722 66.26857
59.019859 -12.222528 65.756798
56.792084 -11.090254 64.294632
55.15427 -12.626278 63.679237
33.496815 -22.155479 71.479614
37.8899 -29.861893 75.248093
34.555607 -28.295166 73.727859
34.759949 -27.829735 74.723991
31.415352 -24.905167 74.24939
32.446915 -25.423317 72.726395
31.354767 -22.511955 72.754333
31.997757 -21.86622 72.170959
47.9869 -37.316692 75.284157
54.257179 -30.534893 70.795288
44.812759 -34.554321 75.024841
43.948605 -29.485146 73.40773
50.037437 -28.45536 70.982307
45.130619 -27.179764 72.267166
36.442116 -32.728973 79.966255
41.650475 -32.291458 75.718285
38.008698 -29.573059 77.110367
48.733353 -30.520374 71.864441
52.088703 -33.005402 71.973068
45.761299 -34.149643 74.322296
43.203979 -37.378086 77.529106
39.418926 -34.229912 78.175392
57.580559 4.6668491 81.933289
58.536613 -4.1584606 73.977051
56.523716 -3.3126755 74.536865
59.610008 -0.27114868 76.816307
65.705658 -7.6967812 73.230392
65.095093 -11.348616 71.667358
61.551163 -9.4978657 71.610336
56.200142 1.3373766 78.194054
64.017517 -3.5713339 75.095413
60.380875 2.9835434 80.045982
63.708687 -1.9826632 76.13765
59.247158 6.5658836 84.635559
62.68 4.2358227 82.021667
65.318283 1.1413441 79.298164
69.357277 -8.9699707 73.945717
65.533829 1.1454124 75.628616
67.403099 -1.8514366 77.434769
60.082733 8.1880169 83.942848
60.95726 7.9870415 82.462502
61.505592 7.5935307 83.78508
63.678032 6.3943157 81.442558
66.681778 1.5093727 78.910301
66.882118 1.8040905 78.057274
69.223869 -4.0418282 74.737617
68.96785 -3.395586 75.804184
68.536751 -4.9312429 75.763496
70.102478 -7.7662582 73.275215
69.256996 -11.598076 72.924614
33.443443 -2.5628281 90.311821
32.59491 -5.8041468 87.572639
30.908478 -4.7674417 92.757362
33.332428 -6.4079037 85.768082
36.439781 -0.50152588 88.054878
37.54977 2.1642151 91.017937
35.222153 0.50433064 92.146423
32.806847 -1.6368465 93.587799
30.557095 -5.8946056 91.745911
30.67791 -10.637165 86.646751
30.315323 -8.8749809 88.835762
27.798237 -14.918175 89.980019
34.856899 3.0509624 95.987892
37.251678 3.4946709 95.282196
32.072891 0.65360832 96.304901
33.151196 -0.26984119 96.32605
29.341064 -3.9667587 96.747902
26.483906 -7.6534157 96.262108
25.081577 -10.653938 95.796661
23.991077 -14.348478 95.093803
25.352303 -12.364578 96.09568
24.75882 -17.628418 94.609299
25.650494 -17.449394 93.62133
28.464981 -10.344315 92.019638
30.000586 -4.7116594 96.360771
28.133215 -8.4253826 96.055969
26.789799 -12.882296 95.193298
26.204136 -17.43055 93.886581
51.467064 -36.553871 73.822319
39.649258 -37.250732 79.954681
46.226685 -38.438889 74.2621
37.497219 -37.562912 80.389702
55.649845 -34.665283 72.27002
39.059502 -38.127155 78.934753
57.804268 -33.106255 71.536453
57.696121 -33.399647 69.898804
57.815994 -35.101379 70.947021
57.6409 -35.032215 70.056786
55.693932 -36.712498 70.696503
50.856304 -38.204823 72.633316
52.145733 -37.607918 73.108406
48.661072 -38.564217 74.176308
46.541565 -38.38044 75.818474
41.856686 -38.634136 77.952652
36.826477 -36.223869 81.780685
-0.89010143 -7.4626007 9.729805
-3.7190666 -7.9334564 13.982243
-4.393856 -7.3124313 11.646267
2.0124931 -6.6468601 8.4686642
0.076162338 -8.4875145 12.562583
29.846893 9.3631668 2.8828697
28.067999 11.610408 0.94547176
25.751293 14.850629 3.3035164
27.094257 13.880281 5.9573708
12.212764 8.7633047 13.49688
11.037865 10.706633 14.796893
13.012608 7.9984403 18.018139
