# .PCD v0.7 - Point Cloud Data file format
VERSION 0.7
FIELDS x y z
SIZE 4 4 4
TYPE F F F
COUNT 1 1 1
WIDTH 1528
HEIGHT 1
VIEWPOINT 0 0 0 1 0 0 0
POINTS 1528
DATA ascii
5.5125899 -15.945459 13.423796
6.7109499 -7.251627 10.174883
7.0344501 -9.5318718 13.10146
8.1056404 -11.618565 15.81122
2.9636402 -7.857687 -5.5189953
4.0647302 -8.7203484 -9.1330395
2.6606798 -8.0020561 -8.5896912
0.26508999 -9.5855751 -13.949558
2.6751099 -8.6169014 -10.229118
3.8077402 -10.650936 -9.0883656
1.9650297 -12.090698 -11.979023
0.11915016 -9.3348141 -10.634769
-4.3907003 -12.160841 -13.483669
1.5519304 -10.578665 -12.803379
-2.7185001 -10.546053 -14.48991
0.96074009 -12.004753 -15.154158
0.28732014 -12.239861 -19.959944
-1.6584997 -9.9591751 -16.932198
-2.8922997 -10.622663 -22.111576
-4.0562 -11.223526 -19.466867
-0.90400028 -10.593378 -19.62854
-5.6866999 -13.921806 -20.053679
0.68585968 -12.134666 -27.705242
-1.2409 -10.809601 -25.057175
-4.3291998 -14.107838 -25.819489
-2.5480003 -11.620956 -27.775597
-3.7924004 -12.157665 -25.440857
1.80793 -13.874437 -26.362896
-0.83710003 -11.71603 -30.57336
-2.0271997 -13.398912 -30.83292
3.78017 -17.235474 -27.14122
3.8784299 -14.880796 -31.616867
0.39122009 -13.171772 -34.6964
-2.1431999 -15.641565 -31.078144
6.6779799 -19.193821 -31.781818
0.76603031 -12.114975 -32.708267
-1.4287004 -18.149149 -31.586525
0.82746029 -29.13921 -18.369907
1.4949398 -28.045834 -17.915756
-1.0843 -27.886875 -14.485022
-1.2983999 -26.320782 -11.38586
-2.6906004 -26.733582 -9.7747173
-1.0902996 -24.662075 -8.9933815
-4.7960997 -26.214729 -5.5810556
-2.2104998 -25.464714 -6.1640491
-0.44709969 -22.741196 -6.0793228
-2.6211004 -25.372086 -2.0052271
-3.7140999 -25.968269 -3.2946043
-4.1245003 -25.531193 1.8951035
0.29269981 -22.038391 -2.5121737
-1.0306997 -23.949505 -1.1730089
-2.5518999 -25.360699 3.6451235
-0.85919952 -24.424095 2.4363613
0.25487995 -24.141052 8.5809641
1.3924599 -23.824932 8.3672667
4.0439701 -21.668682 7.2183924
3.62182 -22.063942 11.417273
4.6477399 -21.698471 10.227815
7.3365202 -19.06053 12.97261
5.9039998 -19.254719 13.755695
7.8667898 -17.581123 14.471407
14.0471 -5.2029142 4.1903172
12.92116 -10.754469 13.85811
15.40236 -0.88420773 3.9928632
14.27876 -7.1179199 8.235013
10.586105 -14.418791 14.83889
9.4571266 -14.220787 16.214493
15.89469 -1.7291479 7.0589805
14.08707 -8.3003082 12.511328
12.11312 -10.612663 16.717018
4.31251 -29.644825 -21.782822
4.0323 -30.992725 -22.328331
7.1545 -28.660759 -25.365555
12.4793 -32.858505 -28.954983
15.34701 -33.879181 -31.028946
15.74047 -39.032494 -28.471542
15.51497 -36.408085 -29.574574
18.68956 -44.624172 -28.211624
22.746799 -44.740078 -29.916409
21.7509 -37.986702 -33.773643
24.6199 -37.364574 -37.645336
21.370201 -46.329449 -28.431103
19.795219 -43.556068 -36.383236
17.55324 -38.508121 -37.928463
25.0651 -42.704636 -33.44593
26.2008 -35.701885 -42.129234
21.0418 -27.663048 -46.617657
22.17 -31.580894 -46.625679
24.391399 -51.835163 -28.255589
25.2075 -48.27359 -30.035999
28.688801 -50.307308 -32.709473
26.837299 -52.495808 -29.650314
28.3874 -57.33165 -29.78183
30.1964 -55.219337 -32.450714
28.712099 -61.189987 -30.063789
31.2087 -61.729073 -32.415634
32.453499 -58.639198 -35.215286
33.1731 -51.305466 -49.746151
30.8638 -47.00338 -48.93235
29.3729 -46.230038 -48.427845
31.415001 -44.873528 -45.644104
27.821501 -42.483353 -47.394257
28.9874 -42.427086 -47.624832
30.323601 -43.859051 -47.52129
31.084999 -44.630592 -46.820385
23.7367 -38.921883 -44.962585
25.8866 -38.425365 -46.753922
25.305099 -34.686932 -46.770737
23.6028 -35.058846 -46.330769
27.139999 -37.542389 -46.837776
27.510099 -36.691669 -45.167068
19.531929 -46.88834 -28.942577
20.602001 -34.759254 -44.184185
24.719101 -32.516338 -46.173603
18.867561 -44.737583 -32.920986
19.680069 -47.186977 -30.3465
21.3211 -47.671505 -35.079998
21.990501 -51.167934 -31.611481
22.4641 -52.120228 -29.512806
23.1406 -51.704609 -28.272404
24.243301 -56.241402 -31.548313
22.9307 -52.206261 -33.992195
26.038099 -56.857468 -28.74469
25.7146 -57.879303 -29.213623
28.127701 -62.974892 -30.435585
25.166 -57.766754 -29.905956
14.86235 -37.478622 -35.17926
15.20111 -39.863445 -32.556332
15.60448 -41.041412 -28.122093
14.78537 -40.77319 -28.657528
15.79479 -41.908146 -29.857578
18.277229 -25.737362 -46.799622
23.5214 -30.798244 -44.418655
18.758961 -24.975521 -45.762733
14.86661 -22.823414 -46.382084
16.37491 -22.88092 -46.334396
13.26531 -22.760818 -45.558723
11.8191 -23.299915 -44.311699
6.9023499 -19.112171 -42.271828
10.877968 -20.079037 -44.976357
18.800491 -25.376095 -44.481197
12.33529 -20.347782 -41.197395
14.381701 -21.024496 -44.590126
11.3965 -18.791784 -44.873978
7.8712397 -17.609241 -43.225346
6.71277 -15.996029 -41.955242
11.22273 -18.546444 -43.259048
7.65096 -17.508892 -36.508629
3.8032598 -15.533434 -39.705307
3.4208598 -14.111235 -38.423958
7.9608097 -16.223324 -41.803692
2.28686 -19.003094 -36.993656
0.17825031 -15.273996 -35.165146
3.5992398 -13.664864 -35.131954
6.3323097 -15.668491 -37.448013
3.1213899 -16.717323 -38.937065
4.4956298 -14.181398 -38.519253
13.26393 -37.563747 -26.377888
9.9417944 -30.781441 -27.485638
12.078279 -33.957512 -23.204113
8.5096502 -36.975937 -22.438313
5.4640398 -33.960842 -23.780426
8.4302597 -35.808525 -30.977352
6.7518201 -39.120998 -26.809875
9.7004538 -33.515133 -22.313126
12.36563 -31.801327 -27.115257
0.48180962 -1.2501011 -23.640381
25.7833 -15.120968 -18.307518
4.90624 2.0408411 -3.3316669
13.76735 -38.236168 -20.920872
10.694542 -40.886097 -21.852804
7.1603298 -44.773335 -22.298679
5.9706001 -42.180737 -24.290077
12.47655 -42.858643 -20.198357
6.7902098 -55.702621 -19.275105
3.8281102 -42.366852 -26.169907
3.6526599 -50.496979 -21.917742
-1.9615002 -48.267159 -26.563507
12.96136 -55.118393 -16.978458
8.6232395 -60.625542 -18.854622
19.230179 -54.630753 -15.846605
0.82616997 -49.407932 -23.91864
16.468651 -51.305752 -21.461201
6.9748001 -48.309639 -26.745461
12.93462 -58.282578 -17.274654
11.39594 -51.18 -24.262173
-5.8204002 -51.587044 -27.98904
-4.3479004 -53.058022 -26.015556
-3.7489004 -56.625435 -24.887669
-9.4095993 -55.524933 -29.834133
-11.7561 -60.287613 -31.430111
-11.658001 -57.531967 -32.026039
-9.5981998 -62.469574 -29.397903
-14.9174 -62.8731 -35.987312
6.78618 -68.25103 -24.208717
6.2379198 -68.455109 -23.457554
5.51091 -67.609787 -22.704514
7.1610498 -66.765724 -25.074799
2.9411602 -68.24015 -23.471817
10.100545 -61.780113 -22.720516
9.3704834 -63.959641 -22.548431
8.9981604 -64.221161 -20.594234
6.6588802 -63.847153 -20.483007
17.38295 -55.477989 -18.886759
13.68807 -58.495529 -20.461521
10.180509 -63.39994 -20.77873
16.00238 -57.343559 -16.778742
-0.34759998 -47.855083 -29.013405
1.9047298 -48.488754 -28.520996
13.36772 -55.648628 -21.938911
13.44102 -59.878838 -19.58086
15.10427 -58.684517 -18.058891
10.470585 -61.824303 -19.018908
4.4260201 -51.325909 -27.67828
-3.5797997 -48.927246 -29.405724
-6.9484997 -51.547356 -30.450981
-9.4591999 -54.019669 -31.454426
0.96113014 -52.705669 -29.302982
-4.1885004 -51.229954 -30.722687
-2.2413998 -55.184837 -31.174904
-6.7005005 -54.26976 -32.461777
-7.1620998 -56.248299 -33.480854
-12.594801 -58.189598 -34.189774
-7.3341007 -52.813911 -31.652252
-11.566799 -57.463928 -34.42857
-5.2124996 -49.992989 -28.828545
2.4347901 -43.494495 -27.150745
3.5864501 -43.794353 -27.699436
5.6452699 -44.9053 -27.38467
6.7658997 -39.169899 -25.69075
10.737283 -39.475197 -26.680698
10.252039 -44.119347 -26.125275
4.0775299 -42.390633 -27.281441
8.11726 -39.636181 -27.065868
13.7791 -34.868153 -26.650368
10.779628 -30.561714 -26.097031
16.00161 -29.482372 -26.762764
12.64623 -26.640549 -27.222271
14.88471 -22.493729 -27.387409
11.66058 -19.397343 -27.237381
12.34004 -16.897846 -27.561012
9.3940067 -12.439785 -27.062363
9.6622133 -10.583118 -27.282791
11.16045 -9.920845 -27.165695
11.82417 -7.2661209 -25.990406
5.66676 -5.9333506 -26.284531
7.2904797 -5.3697224 -26.422779
10.373423 -4.6917467 -24.691818
5.2472401 -1.8860655 -23.757721
8.9102602 -2.9992418 -22.752346
4.0499101 -2.3552408 -25.046005
-1.3782997 0.14408398 -21.813507
4.2241201 -0.77709675 -21.662502
-1.6469002 1.1088476 -19.417774
-1.6576996 2.3398895 -12.950527
-4.3156996 0.9950428 -18.824144
-4.0440998 2.4313297 -14.714947
-6.1401005 2.2740002 -14.115803
-5.4445 3.7229156 -10.381496
-2.7706003 4.1393456 -7.7576218
-4.8443003 5.5097117 -5.415884
0.76671982 4.5739379 -3.3112326
9.1678143 -1.8195591 -5.9438229
13.68211 -5.7252588 -7.4567051
7.0201502 -7.36516 -6.3992195
15.65751 -9.6421814 -9.1803894
17.40889 -9.1211586 -10.296974
15.94927 -7.170208 -10.808674
13.62226 -9.7412415 -9.9125347
16.100941 -6.5263481 -14.273777
19.367851 -11.284052 -12.002399
17.21034 -11.439445 -12.004051
20.5651 -12.950588 -13.080925
24.066601 -13.302368 -15.498238
20.9324 -9.9457264 -15.479156
20.399399 -10.71423 -13.042725
24.585899 -14.720795 -14.863689
24.442101 -15.787767 -14.595411
21.9235 -16.187634 -14.650772
26.368099 -20.745914 -15.233786
27.355301 -17.200361 -17.185518
29.033501 -23.565022 -19.890903
23.098499 -21.554018 -16.114721
26.857401 -17.780239 -19.757889
26.541201 -23.583881 -15.509754
20.518 -22.56456 -17.454948
29.2027 -21.277132 -16.265327
29.9063 -22.87431 -18.026701
26.693399 -23.273186 -21.997129
30.192699 -25.940453 -15.87249
31.308201 -27.891495 -16.595148
25.846199 -27.940701 -16.023117
23.2498 -27.996708 -16.916721
29.042101 -29.480789 -15.449713
31.2386 -29.632221 -18.249384
11.39384 -23.132675 -25.869858
11.15124 -20.312599 -26.554844
10.852432 -18.959862 -25.30336
9.6798239 -15.378248 -26.326515
8.97752 -13.795536 -25.209545
7.1666403 -10.383205 -24.685421
7.2610302 -9.9836788 -22.198994
6.3853102 -8.4125042 -25.99012
5.1173601 -7.4118443 -20.303097
4.1182799 -6.6428223 -23.370522
2.24999 -3.0765362 -24.813042
2.45503 -4.3622713 -24.19957
0.90009022 -4.0135241 -21.105793
-2.4342003 -1.0244265 -20.991108
1.4354 -4.743784 -19.031374
-4.2234001 -1.0339499 -16.645042
-3.6669998 -1.9182663 -14.084129
-5.6117001 0.77412319 -16.619316
-5.8523998 -0.14044952 -12.371098
-6.8959007 1.6675167 -13.080013
-7.2672005 1.9005995 -10.37936
2.9302602 -4.719142 -1.3166189
5.7138901 -5.3786345 0.99098492
-0.38640022 -2.1904316 0.61760426
-6.7551994 1.1493673 -7.9124813
-7.3435001 3.4682703 -8.9012718
4.0327301 -3.956872 2.9491234
7.1354198 -3.8217754 6.5946665
-6.4176998 1.4683867 -4.5906754
-7.3764992 3.6887112 -3.5092402
-4.0620003 0.45103931 -0.33136272
3.37567 -2.1685925 6.3533564
-0.67329979 0.2045145 5.1644621
-4.6938 2.5899801 2.3526902
12.35037 -26.06868 -24.231354
11.7979 -26.055695 -26.851734
11.38109 -27.851761 -25.439648
11.17525 -31.547009 -24.654751
13.76874 -30.021214 -22.595486
31.181601 -31.241581 -15.764523
31.914101 -33.238167 -16.475067
27.2922 -32.776756 -15.669292
29.861401 -33.761433 -15.368408
28.1731 -28.999153 -21.252186
31.322701 -38.025208 -15.581169
30.0418 -34.115173 -19.273926
31.223801 -37.805981 -17.125126
26.333 -47.084164 -14.887062
30.167801 -39.233826 -17.878267
29.574301 -43.019966 -16.494518
26.438499 -39.89875 -15.462753
30.112101 -42.375919 -15.519657
29.162901 -41.827896 -15.050156
28.115999 -40.34901 -19.14481
23.4375 -48.202862 -15.0839
27.4151 -47.258163 -15.385525
27.1217 -46.929489 -16.590719
27.1824 -45.110664 -17.732925
21.471699 -53.361961 -15.92119
25.003601 -50.018341 -16.006386
22.515499 -51.560219 -15.161396
19.65345 -53.246918 -18.485079
15.029961 0.39902687 2.0369835
13.52732 -3.7446079 1.3425207
5.0287499 -34.356716 -28.246361
9.0146627 -34.222519 -44.701248
-6.2994003 -43.141453 -46.34861
7.82056 -34.556808 -30.90963
5.8159499 -37.97625 -27.836384
8.2517605 -37.366505 -19.38335
12.886869 -34.625633 -16.450077
10.965259 -34.653248 -22.359409
13.131371 -33.751476 -18.236429
17.309771 -31.700489 -11.752863
20.0343 -29.638626 -8.4595242
24.003399 -25.753387 -6.1607285
23.3452 -26.463528 -8.1991978
27.9062 -21.252028 -6.3347263
24.1105 -24.845619 -4.5138226
26.0187 -21.546906 -3.8435593
22.3785 -24.146088 -2.4115305
29.354 -18.618343 -6.8912354
28.978201 -18.379684 -5.3395939
30.9335 -14.368603 -7.1494713
27.275499 -18.029512 -3.7859669
29.3808 -14.05838 -5.0897617
30.558701 -11.295618 -6.3194046
26.9424 -14.801794 -3.6378202
27.0371 -4.6603603 -4.7860861
30.3948 -5.8352642 -7.5275364
27.3074 -1.3395357 -5.2850056
26.674299 2.6366839 -5.3071918
23.687599 0.22922611 -2.5399942
24.378899 3.6873202 -2.8257084
19.50449 2.1742625 0.41870499
11.58436 -7.841589 0.82612991
9.3086329 -7.5326176 -3.4068184
11.15519 -12.919931 0.32057762
9.6867819 -14.071342 -2.6884556
9.9676867 -15.693832 0.23038864
8.7150002 -17.017509 -0.8841362
9.0049753 -17.106359 -0.16389275
10.084787 -23.853458 1.085784
10.074289 -18.705505 -2.8919859
8.4904299 -19.855522 -1.4347935
7.8291302 -21.413982 -0.33310699
7.9217997 -23.532944 0.62213516
8.2541103 -22.369659 -2.5649595
6.0677199 -25.081547 -0.69805241
6.2223201 -27.92384 0.64535046
5.8551602 -25.510151 -2.0645552
7.8202801 -28.642799 0.78093529
2.9744601 -30.644424 -0.56626987
3.9647899 -28.374214 -3.840414
2.2695498 -29.836754 -2.9712744
4.1431799 -32.539944 -0.55467319
0.98227978 -31.452648 -6.3992443
0.67901993 -33.782467 -1.7936058
-1.6308002 -33.358936 -5.5014353
1.9808397 -30.549652 -1.6638317
0.31750965 -35.968315 -3.1249084
1.3053503 -31.858273 -9.0778465
-0.16849995 -33.140198 -2.3732843
-1.3157997 -34.124153 -13.133984
3.2758698 -35.827084 -3.2516861
-2.2142 -35.933449 -3.6837378
-5.4668999 -38.445095 -6.7252808
-3.8470001 -35.055199 -7.9820156
-4.9277 -35.807663 -11.047997
-4.2271004 -35.748646 -6.1229076
-5.0220003 -37.140366 -6.0928535
-3.3599005 -38.346706 -5.8554316
-0.80589962 -38.071281 -5.6516075
1.6284304 -38.1357 -6.7683907
14.02565 -30.477245 -15.45978
16.021679 -31.748276 -14.901331
19.66448 -29.156097 -11.768759
18.688999 -28.210556 -12.330732
26.3787 -21.356306 -8.3137875
22.332401 -24.040771 -9.8120728
23.3645 -25.577286 -9.4576187
25.2819 -20.390051 -8.667244
22.435699 -21.28985 -8.8415051
31.159201 -9.7069855 -7.6515121
28.334499 -17.83366 -8.0987968
30.449499 -11.710737 -8.3875828
26.7707 -16.107733 -8.3714123
25.415901 -13.455551 -8.4653606
28.4704 -6.9422493 -9.189209
25.4548 -4.8233156 -9.1282177
30.1852 -5.7861919 -8.6596222
28.2131 -2.3960457 -8.8125572
24.287201 1.0848951 -8.2505608
28.8771 -1.3865747 -7.8568745
10.276736 -2.3881254 -4.2282534
26.867399 1.1538601 -7.9746208
26.837799 2.8686004 -6.6963882
13.27781 1.2925882 -5.1896763
20.864601 2.9248004 -7.2163925
10.685018 5.2007818 -3.0576344
16.31189 3.7056398 -5.8169508
7.6266298 0.35371017 -2.4945059
19.89908 6.7246904 -5.6455526
6.9633503 4.4589858 -1.2039127
14.07985 7.2041874 -3.7370148
23.8015 5.8058009 -6.2880497
15.151529 -31.239819 -15.740486
7.50843 -32.568966 -18.623735
12.65084 -32.977402 -19.014877
11.00023 -32.293152 -18.697765
8.5345001 -35.311749 -35.472389
5.5141401 -34.307091 -33.930065
7.2425699 -34.494915 -34.497154
1.5259504 -34.731075 -30.297924
6.6689701 -33.781029 -43.741535
3.4134998 -34.229233 -36.871063
-0.87769985 -34.689079 -40.175797
-10.415199 -41.808167 -32.932133
-3.7237997 -41.070969 -36.550167
-11.7307 -38.744816 -37.254341
-12.104 -41.48732 -35.924702
0.99394989 -39.827591 -37.743221
1.86759 -34.198036 -43.93623
4.8616099 -33.97316 -47.484005
9.7074003 -35.360519 -55.95137
8.7360296 -34.063957 -48.27438
3.5254502 -34.701454 -51.029022
10.787916 -35.122551 -53.785484
7.06113 -34.44743 -52.532612
7.8884301 -36.039841 -58.079002
11.74221 -37.099525 -60.114716
8.1108303 -37.634575 -61.691948
4.49051 -37.549992 -59.908936
-5.5170002 -42.382645 -59.36937
-8.6613998 -45.570232 -53.086365
-8.3003998 -41.24826 -53.171337
-7.4943008 -43.909657 -48.408573
-9.4918003 -44.400986 -51.414425
-9.9258003 -43.379997 -51.45179
-9.6310005 -42.249584 -51.612728
-10.3978 -42.558655 -46.284584
-8.9902992 -43.071892 -46.188343
-10.805401 -40.095993 -45.230587
-11.1579 -41.289757 -45.310448
-10.2771 -38.653927 -42.731922
-9.5939999 -42.136086 -41.345169
-12.9496 -40.894306 -36.435715
7.8923798 -37.166298 -43.045242
4.6921501 -38.457272 -39.251694
-10.575899 -41.773067 -37.273678
-7.4717999 -41.705528 -37.299244
-11.750299 -41.407841 -40.57317
-12.494499 -39.896763 -38.986259
6.9396901 -38.204391 -44.778267
9.824585 -36.62196 -47.269943
10.660111 -34.875931 -49.852657
3.47122 -39.639206 -43.345715
8.0755196 -38.938015 -49.442047
11.72431 -36.873852 -53.783813
11.97069 -36.374184 -54.774765
10.22669 -38.190079 -51.935165
11.67573 -38.937641 -56.441063
8.2432804 -36.166092 -38.973129
8.6999397 -34.816975 -39.311638
7.4218798 -36.800129 -30.492573
3.4109502 -38.796978 -33.58741
3.2160301 -39.121197 -27.292221
6.1691198 -37.456413 -36.710884
-13.7598 -41.613384 -27.603951
-13.025801 -39.352085 -32.488232
-14.121401 -40.935822 -30.032505
-12.535999 -42.247498 -23.244724
-13.9632 -41.575729 -23.566147
-14.086901 -40.488663 -27.270851
-6.2794991 -41.796719 -15.669777
-10.6546 -42.347534 -18.945118
-12.658199 -41.822227 -17.807898
-13.5147 -40.632263 -21.349764
-8.5323009 -41.658237 -13.513359
-11.1143 -40.352627 -13.924
-9.3432999 -38.608437 -13.987518
-8.0417995 -37.649982 -15.780516
-10.322001 -41.407177 -13.480881
-8.7681007 -39.227463 -10.228725
-4.5307999 -40.080681 -8.8506622
-7.7178001 -40.207066 -9.6964836
6.441 -37.950592 -24.454643
8.76437 -38.833645 -23.959835
10.953658 -37.424221 -22.927273
6.1357603 3.8412123 16.670315
0.85937977 10.381555 8.9221621
8.42904 3.8109932 17.374981
1.2686996 8.1183519 5.540885
4.6961098 10.754275 2.3995128
9.3833752 14.623243 3.8402047
13.08966 14.074465 4.58429
17.9641 9.6193562 9.7765799
17.30899 6.8808904 13.025118
16.853489 3.3715 11.197962
15.74693 5.6261063 15.211075
13.47466 4.1624274 16.309139
11.04417 3.5566611 16.964924
3.7621598 5.0616374 15.882547
2.0595398 5.9828501 14.134115
0.77422047 7.8333788 11.924683
13.45241 4.2275295 16.879362
26.448099 4.2569299 16.844324
18.199741 9.4145346 10.697731
27.426701 9.4037409 10.710593
16.899799 11.996147 7.6200705
15.36183 13.309593 6.0550528
10.975059 14.992326 4.0503783
2.2066102 12.54328 6.9679289
0.66802979 11.027471 8.7755089
0.64593029 7.918808 12.480268
6.40415 14.584822 4.5350647
4.1186199 13.804823 5.4647064
17.75725 4.9320021 9.3382282
15.38186 2.1001749 12.713068
13.18659 1.0837288 13.924421
10.014064 0.48033905 14.643373
6.70889 0.74126434 14.332556
3.8540902 1.6696043 13.226202
8.2146597 11.605986 1.3842831
11.87712 11.350674 1.6887531
14.3008 10.577785 2.6098456
16.71888 8.9574528 4.5408831
17.897289 6.7885084 7.1258078
0.67220974 6.4471149 7.5325875
0.87773037 4.7701545 9.5311108
1.8454504 3.2322788 11.36388
2.65763 9.6107635 3.7622981
-13.1619 6.674264 8.1779547
-9.7038994 2.8493943 11.988435
-7.5855007 0.94545174 14.871478
-10.1646 2.7890778 13.454994
-7.9386997 1.3884602 16.202394
-1.8154001 -2.3371096 18.971228
-2.7209997 -1.4990978 17.111105
0.55817986 -2.8564425 21.328245
4.5727801 -4.691184 21.142422
-12.1537 10.768766 2.889986
4.85606 18.793777 -4.6099491
23.089401 19.178873 -5.496666
20.737801 17.967709 -6.125246
20.3333 20.001064 -6.2535477
16.91044 20.551128 -6.4779816
15.66634 19.089767 -6.8455105
7.9294901 17.411617 -5.3783569
7.0580101 18.428886 -5.4726238
2.1224399 15.949962 -3.5611439
-3.1063995 14.560444 -1.5123911
-3.6518002 16.051195 -1.1438274
25.5063 16.950052 -4.1153603
24.986801 15.669672 -3.4276876
17.47303 -7.2037086 23.976955
20.541599 -5.4257965 24.479301
21.2213 -4.9045506 21.186741
21.206501 -5.3978224 22.687216
24.7743 -1.2875471 19.570599
23.9918 -2.4806614 19.092274
25.956299 1.007906 15.378531
24.5996 0.36236095 14.946221
26.366501 4.5419312 10.257166
27.411699 6.5362291 9.9218597
28.278 11.957558 3.4956174
27.372999 14.229946 -1.3799438
15.3707 -7.6451664 25.740349
4.08709 -4.2557039 22.701103
6.1754503 -5.8841944 24.319843
6.7567701 -6.4356899 23.112478
-13.762199 10.230346 5.3750896
-13.802299 11.464919 8.2541771
-13.7892 8.1109018 8.215683
-11.1742 4.0262618 13.187381
-10.6126 5.4969125 15.36657
-13.014601 8.0633354 12.308125
-12.930901 6.1121192 10.702268
-8.9143009 4.12854 16.997334
-5.7707005 2.1477704 19.357922
-3.3162003 -1.0621624 19.381151
-0.27890015 -0.5053997 22.519848
-12.6868 12.264259 3.1673646
-12.7556 14.277833 4.9019384
8.5856104 -7.0753326 25.495171
7.1937699 -4.1838875 26.903685
4.2525902 -2.2670202 24.619272
17.64801 -6.8790569 25.812466
22.9576 -3.7125444 22.198177
19.9764 -3.9379511 26.610731
23.8284 -0.57006359 22.59691
25.4259 1.8190489 19.749676
27.084 6.7353716 13.890633
26.3687 2.172924 15.866242
15.40822 -5.2341967 28.155403
11.40367 -5.3184834 28.255949
12.82044 -7.5240078 26.575129
3.4524798 5.31001 1.4315577
1.6020699 1.4615602 10.383772
6.5095797 -0.29144764 14.080906
-3.3859997 3.8667278 6.6928406
-9.4414997 9.3751841 3.5506172
-7.0261993 6.7938824 0.170187
-6.9088001 7.5123119 0.042058945
-10.0539 12.801592 0.40654564
-9.0646992 11.010379 1.5170183
-6.6079998 6.2927995 -2.7456093
-6.7126007 9.3980541 0.42762756
-6.6044998 13.537512 -0.89327335
-6.8826008 11.537074 0.25067234
-4.2005997 11.717031 0.011083603
-5.0179005 8.8842316 -0.26247597
-4.9616003 7.0792222 -1.9756107
-2.0602999 6.9275341 -0.94494343
-0.99040031 8.6375914 0.62059689
-0.64589977 11.418293 0.62719059
0.31105042 6.1867914 -0.4630394
-7.7565994 8.4464283 2.1852489
-6.1562996 5.7075424 3.1848617
-6.4993 6.4428711 5.1731935
-7.8178997 6.6982551 6.616601
-2.9799995 3.7795234 8.6131678
-3.0117998 3.2488184 10.893818
5.3512702 -0.23437405 15.029305
5.6064601 -0.10061455 12.221712
27.808599 11.24523 2.2671947
16.23551 4.4001484 2.956655
3.11204 12.124124 0.75445366
24.2208 14.294777 -2.3715677
25.442501 12.204367 -0.71298218
23.9161 8.0429068 -2.9163332
18.28533 4.6333675 1.8749819
21.9776 5.21346 -0.55667114
23.699299 7.1551914 -2.069088
25.864 9.4685802 3.941905
24.6707 10.507599 0.20486069
24.061001 9.4574594 -1.4117775
22.143101 7.4750233 0.36232948
22.8778 8.6942453 3.0148401
22.564701 8.1130123 5.0459633
20.5921 7.193017 2.3443823
22.927 9.8996334 -3.0427608
23.093201 12.119316 -2.0477743
20.6229 14.327047 -2.730629
16.125019 13.771299 -2.3883877
19.66659 11.438238 -2.7934074
11.90131 10.940861 -1.1899338
15.1719 11.44976 -2.0439644
13.86487 14.578749 -2.4550695
8.23104 12.460407 -0.40720367
8.9344501 13.981972 -1.5172672
7.2068801 9.6862917 0.41357422
3.04846 8.5837326 2.3992534
3.0350699 10.701609 1.8096848
19.578411 15.940938 -3.7837162
15.10453 15.781358 -3.5915298
5.76192 14.836781 -2.465826
16.874859 18.106586 -6.3509922
-2.8448 13.456024 -0.82627964
24.068901 1.4202919 13.523321
22.575401 21.656212 -3.8912716
13.10824 20.144707 -6.4733372
14.044769 22.363651 -4.7343912
18.01812 22.421566 -4.8034115
9.2620277 19.855177 -5.6581173
0.54388046 17.176035 -3.3047543
9.2862072 21.801134 -4.0640373
5.1220102 20.884066 -2.9711237
25.521 18.353981 -3.8357058
27.4667 18.669178 -0.33146381
27.4403 16.593529 -1.8671474
8.0996103 -2.4516449 10.189632
8.0814104 -4.3357849 12.515696
17.132679 5.9570208 4.7160807
20.601299 6.6041708 7.3409195
10.53595 -7.7881489 24.681261
9.3387861 -8.0887108 17.22073
7.8459797 -1.1353703 12.295235
7.5999203 -4.7547178 18.9673
8.5293398 -7.5255623 15.522244
6.6514797 -2.5268517 16.83589
8.3713999 -5.1456242 16.193089
8.8468504 -6.6460629 22.205841
9.7508974 -7.0874367 20.095116
10.647817 -9.0297527 18.196667
11.93828 -6.9796028 22.781532
12.62763 -7.6765785 18.456968
12.43599 -6.9043541 20.068592
14.410601 -5.7670383 20.853603
15.52048 -6.1892986 22.533241
16.77178 -3.8179874 19.158566
15.035561 -4.5958691 16.398527
15.986361 -3.664011 17.39101
18.89719 0.16069317 14.59025
18.936569 -1.9065342 17.414227
16.1513 -2.3061695 13.643975
19.016689 -5.5302668 21.806673
18.083691 1.369976 12.057057
17.03549 0.93594551 10.351139
19.121239 3.7934904 9.9281282
17.400181 4.1325021 7.1976495
18.5375 6.6729336 6.1225147
5.4108 -3.9441509 19.904219
3.8274698 -0.67799187 16.023958
-1.9832001 1.9395103 12.86487
-11.768299 6.3471794 7.7152529
-8.2623997 5.8865252 8.1646881
-11.1726 10.175072 3.1038914
-6.4244995 1.4034834 13.543352
17.734249 -53.888863 -15.774446
13.61106 -44.912338 -19.758678
12.08009 -47.621796 -18.85704
14.9918 -33.982147 -21.16087
16.59964 -30.642464 -20.550323
20.028 -29.913273 -19.465193
20.140701 -28.412865 -18.447403
21.620899 -31.278542 -18.538519
23.187901 -32.028252 -17.053246
22.3533 -33.438457 -18.83334
23.9111 -37.45892 -16.390774
22.8356 -34.383224 -17.551834
22.762199 -37.936096 -19.121937
22.5676 -38.81282 -17.547068
21.6152 -43.94577 -19.138615
21.336899 -43.657635 -18.090099
21.5152 -43.567299 -16.990208
22.079899 -44.142086 -16.104046
19.28644 -47.534653 -17.557625
20.5124 -48.109467 -15.738777
17.76849 -49.595058 -16.988602
15.41938 -51.583542 -16.652157
13.00006 -50.780811 -17.574581
18.09635 -14.574106 -18.307396
11.77984 -18.421093 -23.453789
13.45039 -16.845007 -23.031017
10.95458 -15.819824 -22.897598
12.75658 -13.001717 -21.387604
10.052557 -13.714493 -22.337654
11.51917 -12.827429 -20.849033
10.329308 -11.683195 -19.402264
12.17784 -11.626829 -18.972691
13.01781 -11.700294 -17.455431
12.65403 -21.900684 -23.479424
14.529881 -22.35033 -23.10162
13.99834 -25.184647 -22.50576
15.69016 -26.04829 -21.244545
18.86368 -25.29459 -18.899244
18.29459 -24.639988 -20.921766
19.383141 -23.016987 -19.164875
20.1898 -18.955791 -16.58028
19.77467 -21.241266 -19.924662
19.120289 -17.378365 -17.345665
19.597111 -17.53709 -19.140831
18.400341 -14.81628 -15.334692
15.10526 -12.973635 -16.298695
17.373951 -14.786829 -16.824707
15.38453 -11.741451 -17.953375
10.361075 -7.4916134 -17.327139
24.2745 -22.861534 -23.675209
21.5182 -22.570469 -23.278294
15.39431 -6.4789295 -21.878506
15.74986 -9.5613403 -20.253452
17.686769 -10.191849 -19.453346
18.608021 -7.9285507 -17.458891
23.2164 -12.468279 -19.554085
22.883099 -11.51775 -17.77877
18.77236 -8.894619 -18.769661
20.791401 -13.468578 -20.248913
22.626499 -16.995661 -21.588699
24.304401 -14.726959 -20.794853
23.622299 -16.341524 -21.679241
25.134899 -18.207087 -22.021961
23.1618 -19.886856 -22.897247
22.148899 -24.722855 -24.853424
19.033749 -23.909412 -23.586498
19.316029 -25.367588 -25.989578
16.61661 -23.530594 -23.593639
17.30765 -23.362831 -24.810234
16.92001 -24.321896 -26.869259
15.85756 -21.332941 -26.12294
14.29591 -20.094229 -27.34248
14.8477 -19.103085 -24.089867
15.21571 -17.833904 -25.62933
13.93187 -14.001701 -27.23661
15.12477 -12.466391 -25.960472
14.72515 -9.8257599 -25.850079
15.19913 -12.107891 -23.582748
15.62395 -10.291912 -24.188732
16.895279 -7.7270622 -19.782131
15.65423 -9.6054058 -22.119301
16.23534 -7.2699509 -20.775253
15.4771 -7.9499016 -23.98024
5.1603899 -2.2635708 -15.40802
8.53016 -2.3122969 -20.204895
14.5481 -6.0311165 -19.335899
12.19888 -4.8987637 -19.494165
9.7832966 -3.6907806 -18.581064
13.82392 -5.1970568 -21.172318
14.56986 -6.6038628 -17.115341
16.58569 -6.5618858 -18.097553
13.74236 -5.3936291 -10.854004
13.09698 -6.2069092 -14.277052
13.55879 -5.4633293 -12.226318
10.924603 -6.0550041 -12.136011
8.6872301 -4.6350956 -9.9107246
10.768604 -4.6615543 -10.74464
6.1217003 -2.471652 -8.170948
10.201206 -3.4950323 -9.3196106
10.926666 -3.4639091 -8.5243893
6.2276402 -0.85723209 -7.3503304
5.2648101 0.96045113 -5.8554764
3.3996201 -0.77088356 -7.2388573
-0.44439983 -0.90089798 -6.0999184
2.5367098 1.0826607 -7.0677242
1.1935701 3.0354857 -6.4341564
0.24726009 0.34407234 -7.9383202
-0.013400078 3.0964775 -7.7550011
0.66983986 -0.068742752 -10.086254
0.0010299683 2.1903543 -10.656693
2.1459098 -0.29816055 -12.251751
1.0163498 1.4119587 -13.009745
3.87713 -0.59890938 -14.677614
2.74895 0.44091988 -15.340904
6.80235 -2.0448332 -17.067451
9.6176414 -2.9111853 -19.561798
23.6609 -40.211613 -20.338596
23.196899 -35.623985 -20.02718
19.75503 -30.543953 -21.150936
22.208599 -31.442223 -20.613249
17.305161 -33.158745 -21.449242
15.3091 -38.538803 -21.200228
15.76438 -46.157291 -20.832298
17.61544 -32.910263 -25.887646
18.70649 -51.227337 -20.055401
13.98793 -47.395901 -23.938728
15.712561 -47.199638 -23.106331
16.22444 -47.160244 -21.935614
16.151001 -49.625389 -19.453594
17.45545 -49.69442 -18.820435
16.93836 -50.447811 -20.234543
20.770599 -49.85535 -19.515882
19.613689 -47.553471 -18.80389
20.964199 -47.007374 -19.669083
23.351 -45.438736 -20.035374
25.368301 -40.328854 -20.80327
25.354599 -33.94725 -21.692978
26.6448 -34.876209 -21.536127
25.3085 -29.548721 -22.980293
24.042099 -28.405819 -23.412182
22.905899 -27.445129 -24.441807
21.8906 -29.194248 -23.520039
20.134399 -31.088379 -24.721386
19.865089 -31.724186 -23.506584
19.82115 -29.995022 -25.553947
18.00322 -35.988258 -24.634537
17.83905 -36.572357 -23.112812
16.64319 -42.382431 -23.189861
16.333469 -41.771744 -21.982956
16.364361 -39.469692 -25.018589
1.81633 -56.919685 -29.336552
4.6112099 -56.50267 -26.362244
5.2069602 -55.304138 -27.184647
1.8119802 -58.428062 -28.528847
7.6683397 -54.889862 -25.652504
3.9794798 -57.331749 -22.70348
9.585187 -54.566559 -24.615078
-1.5150995 -66.296005 -25.806183
6.3943701 -51.908455 -20.155806
6.3490801 -56.875473 -21.650291
-7.5816994 -58.569862 -27.554295
-3.7203999 -62.586533 -26.980785
7.4833803 -58.17659 -18.868645
6.0065498 -59.614517 -21.021111
5.4351401 -62.290184 -20.417213
4.5148001 -61.995041 -21.630825
2.6649499 -63.493179 -23.438667
0.61948013 -65.622467 -23.890709
1.2077904 -66.485703 -23.384048
-4.1540003 -67.162895 -27.471786
-5.2400999 -69.291191 -27.822479
-6.2581997 -67.177444 -28.064899
-7.1107998 -64.542976 -27.765308
-5.5285997 -64.908264 -27.954594
-4.7030001 -62.854172 -26.693253
-3.7044001 -59.863632 -24.778763
-0.95860004 -60.120018 -25.244534
-0.1619997 -58.558319 -23.24081
1.3631601 -58.599693 -23.655273
-0.085300446 -57.026306 -22.589729
5.4170499 -54.989525 -20.027712
0.4879303 -54.001701 -22.687401
3.6188002 -56.571068 -21.272545
6.9573298 -57.458298 -21.264061
11.75886 -9.4406738 -10.92523
-0.26930046 -2.1131182 -10.488592
11.323771 -9.0945129 -12.185328
4.3454599 -4.7826605 -6.7111607
5.28234 -6.0658398 -6.7696972
4.57868 -6.2322388 -4.789464
1.5601997 -3.8935966 -5.0968819
-1.3295002 -3.5276012 -13.004887
-0.50759983 -2.6292686 -4.6481028
-1.4268999 -2.6083422 -3.1610336
-3.21 -1.5381403 -4.2080708
-4.2320004 -1.2855635 -7.0483322
-1.9801998 -1.2793732 -7.1972809
-4.2278004 -1.605382 -9.1101398
-2.4111996 -2.1772699 -9.1852951
0.85317993 -3.9374828 -13.050335
3.7531099 -3.8613272 -14.334332
4.0183401 -5.7791939 -16.082233
2.8865399 -5.7411137 -16.693745
7.2789602 -8.684845 -18.308693
6.5106401 -5.464344 -16.181627
9.0610313 -8.11586 -17.215902
10.758408 -10.814774 -17.085556
11.67161 -8.3405037 -16.276424
11.96216 -11.162746 -15.967049
14.09439 -11.256195 -13.631775
12.06931 -8.1053791 -15.103275
12.0467 -9.9428787 -14.143541
9.2730637 -8.1439857 -9.5916958
8.51332 -6.6750011 -9.9321022
11.0837 -7.6792355 -12.966715
15.42519 -23.835781 -41.040016
5.9008598 -22.247833 -27.150261
21.102001 -32.808575 -37.902653
15.72501 -30.950649 -34.396446
11.63438 -28.963127 -32.077374
11.65986 -29.349178 -30.494057
8.6960697 -26.857315 -28.473141
6.8406 -24.781727 -26.965328
5.2202301 -22.218719 -29.534565
5.8709402 -20.129326 -29.118828
4.3141499 -22.247986 -31.2407
6.6238699 -21.369312 -32.271835
9.7073107 -20.387207 -36.253613
9.0756769 -21.585205 -35.355305
9.8945894 -23.582985 -37.258133
12.89893 -23.645428 -38.895161
11.864 -25.41481 -39.657436
13.40826 -25.44928 -39.739098
18.04022 -27.639297 -41.498547
21.340801 -29.237259 -42.6381
2.6568499 -13.898706 -8.9766083
1.6488895 -19.795631 -2.7712851
1.4734402 -22.29327 2.1578779
10.35261 -15.38023 12.23773
11.68886 -12.972309 9.827796
-0.18760014 -16.281935 -7.0287533
1.5461102 -15.610853 -8.4330692
3.3179898 -13.482634 -6.3908863
0.69715023 -18.117899 -6.2870922
0.94707966 -19.967976 -5.4500494
0.54767036 -17.660423 -2.1641865
3.0271401 -19.042793 0.69408131
3.4116001 -19.954189 1.6741371
6.8481398 -15.820923 6.4834023
7.88765 -16.698444 7.1894197
7.5627604 -18.941662 10.437778
6.4738102 -18.747807 6.0478344
9.868763 -15.73558 9.560194
12.10014 -11.59197 7.9590597
11.72523 -10.684984 4.6595373
9.8639259 -10.794556 0.50083447
8.2775297 -11.147152 -1.9334021
4.70576 -12.052597 -6.7993755
7.9192901 -11.697163 -0.90625763
4.7148499 -12.449877 -2.8967886
8.5269098 -11.662205 0.078699112
0.040570259 -25.113503 -13.238464
-0.76150036 -17.330841 -19.678326
1.3926697 -15.121471 -21.004078
1.3749199 -26.278084 -16.913521
-0.46539974 -23.637886 -16.395319
-0.16619968 -23.353558 -13.036369
-1.1798 -21.881458 -12.95266
-0.0044002533 -22.332237 -10.374027
-0.70199966 -19.789425 -10.629173
0.4658699 -20.368275 -9.1972427
0.2988596 -17.50779 -10.526546
1.44802 -17.192789 -9.1953201
-0.58049965 -16.387102 -13.168783
1.0088596 -15.308901 -13.504587
1.2795897 -24.990772 -17.585964
3.5239401 -25.095573 -21.519478
5.0697999 -25.501442 -23.613152
4.1029 -23.758041 -23.649593
4.5899701 -22.301044 -24.581196
2.1202002 -21.291765 -23.963188
2.9896598 -18.863911 -23.734879
2.4553399 -16.876431 -23.252911
-0.04129982 -18.70583 -22.065273
1.5775604 -17.498478 -21.628403
0.65639973 -15.96591 -18.714085
-0.83600044 -16.389713 -16.54657
0.91761971 -14.084854 -17.113983
0.60070038 -14.76943 -7.0465603
7.4556198 -11.794901 0.55171967
10.453557 -12.039816 6.6070881
9.4219589 -14.533199 8.397172
2.1199398 -17.454517 0.78992844
4.9717202 -16.787306 4.2776833
-0.60700035 -17.294249 -5.5146027
-5.3909998 -15.458246 -8.1500912
10.040146 -11.725515 4.2618833
-2.1744003 -27.804333 -16.525402
-5.0602999 -19.044134 -11.588943
-4.8416996 -15.736036 -11.028334
-4.1984997 -15.73477 -13.509827
-4.9640999 -13.791677 -12.890638
-5.3143997 -12.893383 -17.220268
-4.6035004 -15.697227 -17.011539
-5.4830999 -14.263317 -17.039762
-4.1540003 -17.025419 -21.140812
-5.2181997 -16.15983 -23.560555
-3.3162003 -18.908604 -23.802963
-5.1913004 -16.346643 -21.72121
-3.9643002 -16.832142 -26.866749
-2.1625004 -20.749775 -24.884472
-3.2581997 -20.218885 -26.49229
-2.0073004 -22.152256 -27.36871
0.11380005 -22.621647 -24.613869
-1.3336 -23.085964 -25.646118
-0.44270039 -26.117802 -25.919884
0.75788975 -24.126453 -23.120144
-0.50150013 -25.361034 -24.486164
-0.39009953 -27.649895 -23.459278
-1.4898005 -27.78727 -19.783978
-0.6885004 -25.346928 -21.771433
1.0879898 -24.499809 -20.018644
-1.6391001 -23.684074 -16.982632
-4.2910995 -26.14304 -14.608948
-1.8395996 -24.732559 -18.513489
-2.3539 -26.033905 -18.689613
-4.3733997 -20.913465 -13.042467
-6.8502007 -22.875088 -11.300539
-6.0009003 -21.326876 -12.820787
-3.8703003 -17.313314 -11.035856
-7.3097 -19.91474 -10.504873
-6.0270996 -17.49789 -10.444067
-6.9139004 -18.139212 -9.1385345
-4.4138002 -20.237005 1.0539494
2.1284299 -15.746428 7.5271873
5.3540201 -9.5943604 8.482317
4.6902499 -8.6658173 4.4609146
-0.80949974 -10.797575 -7.1956234
3.8871698 -8.0547314 0.14079666
-4.9436998 -14.018211 -9.8290749
-3.6521997 -14.311333 -8.0380573
-4.4323997 -16.761919 -5.7950773
-6.0230007 -17.299549 -6.5969772
1.7376299 -12.796026 -4.8061829
-1.1294003 -12.431273 -6.6225147
1.1903801 -9.6442089 -5.1660709
1.3813801 -10.92141 -3.9213514
2.6200199 -9.2419338 -1.7764015
3.2702699 -11.519285 -1.7954521
5.3859401 -10.999741 2.2657709
4.4036198 -10.126984 2.2802839
6.1525602 -11.201937 5.5988946
5.2790298 -10.253441 6.208756
10.725157 -12.973625 8.3823881
6.63135 -12.147388 7.3603783
5.4148502 -11.750202 9.0655098
6.5190897 -13.27425 7.8061333
4.7845502 -13.446571 10.812269
4.4176602 -13.742046 8.6470842
5.2210498 -14.510544 7.0627384
3.2418799 -15.36507 5.6154585
0.46422958 -16.364086 2.6692133
-3.4143 -17.310173 -1.3048153
-0.26109982 -17.008165 4.5928545
-4.4856005 -18.101444 -1.6088848
-1.8148003 -17.017809 -1.046505
-6.0189991 -39.333836 -22.572956
-12.327499 -39.197147 -26.818382
-5.0148001 -36.168552 -16.220379
-5.1927004 -35.8554 -40.291618
-1.6573 -35.26754 -31.170452
-6.0566998 -36.229382 -33.91177
-0.15310001 -35.291458 -27.308636
2.7813001 -35.279221 -19.985029
2.6250601 -34.570496 -22.04467
3.0515599 -34.392757 -24.219353
4.25453 -33.332077 -19.071976
3.8838501 -32.674999 -15.897129
1.9516802 -34.81073 -14.564245
0.40172958 -33.634552 -13.753096
-0.84589958 -36.402679 -15.570015
-2.8320999 -35.594669 -15.677309
-5.9298 -37.227074 -19.393946
-4.6956997 -37.801613 -19.278168
-8.7157993 -37.813053 -21.37767
-7.6215992 -37.960026 -23.061451
-8.2705002 -38.576836 -26.383541
-9.9852009 -38.177513 -26.441254
-9.2283001 -38.319496 -30.778198
-10.827299 -38.153919 -31.494823
-9.4367008 -37.392693 -34.590149
22.170601 -13.195999 -7.9162331
21.9053 -4.1152058 -7.6391468
14.66036 -12.070763 -3.7670908
12.08946 -13.726978 -4.2656441
21.882999 -18.988235 -8.1934471
13.12745 -18.058926 -4.7036381
12.50366 -15.889753 -4.3349037
13.36407 -12.775162 -4.4497385
14.291719 -16.322281 -3.8262815
17.144131 -18.693983 -6.0555916
22.8736 -15.313063 -8.0186596
19.25938 -16.810814 -5.8656206
20.487301 -16.176229 -7.2404461
20.722599 -14.183634 -4.9537153
21.191799 -12.497892 -6.5734596
22.1294 -9.262537 -7.6695099
22.671799 -12.299938 -8.0789967
23.2218 -4.1563015 -8.7269363
22.1413 -0.56182671 -8.2737999
17.777149 0.41758156 -6.9960365
15.19831 -1.9615421 -6.3679695
13.54053 -5.6986151 -5.7471352
12.464849 -8.3732376 -5.095005
14.16018 -7.8443508 -5.2898626
15.26589 -8.0657043 -7.2963333
14.89009 -19.837673 -6.092432
5.1579399 -29.377872 -8.1881218
17.691471 -19.844223 -7.2906246
15.3181 -28.738457 -13.384274
16.390419 -27.069607 -11.741917
15.78148 -26.491032 -9.0958042
17.551559 -22.919361 -8.5946465
17.775129 -24.683235 -9.9498272
16.32839 -23.783588 -7.2449951
15.63726 -21.761608 -6.3501854
14.019 -22.05106 -5.2718611
11.49232 -21.887794 -4.9194469
13.45634 -29.290573 -12.021389
12.20094 -30.176907 -14.867943
10.053023 -31.069355 -14.04908
8.2330799 -31.423923 -15.898964
8.0051403 -31.620911 -14.316484
5.05481 -31.5331 -13.466843
6.8776798 -31.737656 -12.92095
6.8526201 -31.411739 -10.565063
7.8253098 -29.95665 -7.5626106
8.8706598 -29.071239 -5.8970022
6.4247503 -27.185715 -5.5279741
10.489853 -26.785038 -4.6518497
8.9162302 -24.154442 -4.5117579
8.8029995 -26.499931 -5.3976746
12.116489 -24.153992 -4.5690823
15.10586 -7.5038319 -4.8552771
16.16629 -3.569418 -5.8796186
18.0786 -1.0811214 -6.1872578
19.848721 0.34262085 -7.5577736
21.2384 -2.0619783 -7.0631618
21.772301 -7.1374168 -6.4473877
18.372341 -18.047585 -4.4217224
16.64517 -18.672823 -4.2280979
15.4205 -18.199818 -3.4891958
18.42873 -24.196297 -0.53275108
15.51479 -24.497097 -2.1803713
12.54062 -22.963524 0.96547985
13.69444 -24.379131 0.53830528
14.992229 -24.251156 -0.21222687
13.77147 -25.248291 -2.2940207
10.714663 -27.282349 0.85348892
11.81909 -28.484489 -1.6308584
9.9453411 -31.310757 -3.1053028
9.7693024 -30.082153 -0.024758339
8.4893103 -33.249279 -2.0656204
8.5933599 -33.647511 -5.2211514
7.3860102 -35.799561 -5.6533871
8.0715199 -34.845543 -8.7010803
7.1712599 -37.253601 -9.9144192
8.3798599 -36.068924 -10.599895
8.5958805 -33.934113 -11.490795
10.264044 -36.30098 -13.511951
10.004987 -33.151917 -12.318441
11.75529 -31.996979 -11.975145
12.49355 -35.053493 -13.883507
12.09776 -33.946728 -12.456806
17.569611 -26.491146 -3.8012323
13.96356 -30.309906 -10.431202
14.93778 -31.653713 -10.347633
15.51066 -32.599964 -11.588993
16.308701 -28.496078 -7.1926098
19.41972 -29.768749 -6.7348766
19.956631 -28.509502 -4.7149849
17.792919 -28.992802 -5.6746674
18.37355 -26.67321 -2.8252182
16.95326 -25.155899 -2.3957272
19.93354 -26.637257 -2.4036865
24.6064 -20.009457 -2.468853
16.750759 -7.2953224 -2.6247234
23.189701 -1.5245094 -2.455925
12.51143 -15.544477 0.37505722
17.544281 -22.131874 0.0012722015
18.640629 -21.563843 -0.77384853
20.1348 -19.785337 -1.561533
20.7792 -21.746435 -0.94377136
21.424301 -16.395823 -2.560955
15.89116 -19.37248 -1.0597591
16.16448 -22.020721 0.35496807
14.35663 -19.135349 0.50506496
14.88945 -14.935223 -1.0517254
15.05219 -15.046625 -2.3388681
13.99022 -12.958031 -0.035238266
15.73509 -10.468004 -2.2055855
15.082991 -8.2417297 0.068998337
18.016869 -5.1167831 -1.2318182
15.434669 -9.3583088 -0.53967762
17.44305 -4.3570671 -0.11632538
20.9065 -1.5067701 -1.193593
18.82909 -3.9764547 -2.972271
20.9646 -2.5605841 -2.525342
20.7199 -2.7052755 -4.0263987
24.729801 -4.5593328 -3.4445705
21.7015 -3.5171099 -4.3551207
22.284599 -5.7813463 -4.7280169
23.046501 -5.3317919 -3.8104191
23.713501 -10.669735 -3.0719166
24.913799 -9.5856209 -3.2601242
23.753 -16.107635 -2.1618586
22.521099 -10.725746 -3.7596884
22.812901 -15.343075 -2.2226658
21.283699 -31.012581 -41.311096
5.9095998 -22.397987 -34.103222
4.04531 -23.050056 -29.914875
6.5320001 -24.656136 -29.120792
7.8137903 -26.563564 -30.181526
19.25279 -32.077679 -37.318161
22.3486 -32.188816 -40.175354
19.34631 -37.395477 -41.09613
15.98571 -31.482193 -38.182636
18.87001 -31.694786 -40.538834
13.56378 -30.581032 -35.555992
11.36594 -32.835953 -35.804642
3.7086201 -29.45071 -28.828999
5.7981601 -23.031982 -37.864388
5.66607 -22.110565 -39.223225
19.544121 -30.482536 -45.710442
0.59385014 -21.71644 -31.625565
16.20639 -33.80043 -40.410622
15.27684 -34.423412 -38.979145
15.018681 -32.395889 -39.051926
18.40357 -32.797157 -43.409676
17.940071 -30.831867 -44.308887
18.30975 -31.834084 -42.202366
18.60828 -30.585232 -41.740585
16.797489 -29.889187 -42.961521
16.611879 -28.912182 -41.751526
14.68117 -27.849953 -43.65731
14.450621 -27.958042 -42.393906
8.7203102 -24.106155 -41.044186
8.25702 -23.389359 -36.638374
9.1835976 -24.811779 -39.950603
1.82938 -21.089336 -34.965069
2.5626798 -21.757706 -34.511726
-0.55210018 -21.029346 -31.293793
0.63547039 -22.930119 -30.350758
3.1788101 -24.722176 -30.233616
0.024589539 -23.82843 -29.593822
2.2077298 -26.795589 -29.890377
5.5587702 -26.776962 -31.382122
4.2223501 -27.236485 -31.205826
6.2857103 -30.002804 -32.321404
10.554141 -30.364914 -35.095119
9.8489189 -29.109657 -33.616993
9.5283546 -31.054459 -34.756554
21.813801 -45.57814 -38.300518
25.141701 -50.471275 -39.06086
23.412899 -49.622547 -38.340664
21.722599 -41.877193 -40.318748
-8.2593994 -36.944832 -34.488525
-8.1224995 -39.542545 -28.434017
-3.1443005 -38.883099 -17.750807
0.58205032 -36.936768 -14.59919
3.0159798 -35.985764 -14.388245
3.18222 -34.788486 -16.706383
-0.1875 -36.080849 -26.174194
-4.1773005 -36.33099 -31.767456
-4.7263002 -40.962788 -11.623222
-8.4993992 -42.263397 -20.87694
-1.3396997 -40.401413 -32.953342
-2.5050001 -38.397717 -28.319347
-3.9736996 -40.203449 -30.309628
-5.8985996 -38.944355 -31.396637
-5.5496998 -41.327374 -32.804733
-7.2168999 -40.405937 -31.932537
-8.2385998 -41.679001 -32.660419
-7.8852997 -39.411076 -31.478432
-9.5454006 -41.957966 -28.917507
-8.2646999 -40.984329 -29.986042
-7.0174007 -40.286476 -25.016277
-5.9012003 -41.885632 -19.395088
-5.2545996 -40.896114 -20.520061
-7.1469002 -41.621555 -23.864677
-3.2280998 -41.213455 -15.393795
-2.3835001 -40.427231 -15.808685
-0.57359982 -39.945004 -10.687092
0.97731972 -39.395493 -12.223921
3.6563201 -38.509995 -9.7119427
3.71982 -38.476334 -11.306061
4.3550301 -37.724976 -13.866274
5.78442 -38.263912 -13.048981
6.0120802 -38.401455 -16.341106
3.6879001 -37.281925 -17.158653
1.5454702 -37.586357 -22.399715
2.0125499 -38.700684 -22.18343
4.6766 -38.24966 -16.716316
4.7462502 -38.875542 -20.061039
-0.20559978 -40.060905 -27.524715
-0.39999962 -39.303612 -26.091774
0.082960129 -40.132969 -28.606247
6.13447 -40.182552 -49.490314
1.2651196 -41.076614 -49.267864
2.2091498 -41.303501 -47.310589
-1.0467997 -40.867039 -41.008583
29.0128 -55.53997 -39.845036
24.0961 -47.134808 -39.055706
22.731201 -44.233242 -39.542068
28.879 -48.49868 -38.081062
27.182699 -45.861816 -33.624619
28.818399 -40.033108 -42.312023
27.6616 -42.141312 -41.863689
28.688101 -41.597416 -41.973751
30.643 -43.283733 -43.581612
30.1446 -46.356987 -42.638451
33.007099 -49.489719 -44.051807
31.659201 -47.391094 -43.173973
34.323898 -55.656738 -42.314827
31.659599 -50.296364 -42.583939
32.592499 -53.420792 -42.115906
33.182899 -56.44426 -40.87442
32.361702 -55.891418 -38.981255
32.7043 -55.511147 -37.082813
31.2017 -52.335968 -37.44846
30.724899 -52.851833 -38.160549
30.692499 -50.369362 -35.938786
27.4048 -44.751755 -38.587158
29.261499 -46.764507 -36.102577
27.9461 -43.893192 -37.776783
26.738701 -40.064888 -39.868992
25.7213 -41.631462 -39.978882
26.935499 -41.479317 -36.87109
27.010599 -38.723469 -39.940998
-0.36069965 -40.722866 -44.901073
2.2913799 -36.200935 -55.355858
-7.5907001 -37.338104 -44.370537
-7.0438995 -38.918049 -49.272301
-6.1748009 -38.923302 -46.524391
-8.6818008 -39.175438 -48.375156
-5.7912998 -39.488575 -49.655869
-4.5441999 -40.274292 -53.135101
-5.0846004 -39.963509 -54.522141
-5.9003 -40.336517 -55.406509
-2.8906002 -40.547501 -58.917427
-2.3443003 -40.674648 -57.698212
-1.5841999 -41.085186 -61.670296
0.32750988 -39.956585 -60.423164
1.0093699 -39.212589 -58.888489
1.9499998 -38.505989 -59.983864
0.75957012 -38.345768 -56.34819
-0.20610046 -35.400757 -49.894756
-0.45969963 -37.654442 -52.061523
0.85507011 -36.699532 -54.535141
-1.7282 -36.721741 -48.759331
-0.19200039 -34.795456 -46.404778
-2.5902996 -37.658176 -46.706482
-3.9408998 -36.831848 -44.792164
-4.0922003 -38.315907 -44.03677
-5.7247 -36.976067 -43.362484
-4.5994997 -35.856411 -42.931568
-5.5450001 -38.495182 -43.996746
-7.5834007 -36.959305 -42.576141
3.68255 -63.015434 -26.517876
6.8327703 -61.813614 -25.268848
7.9720898 -62.258049 -24.811531
6.6387 -60.412552 -23.975075
10.25933 -58.305664 -23.436749
9.1559849 -57.238281 -23.204262
10.51486 -55.214447 -23.960876
28.1714 -51.848236 -43.133575
23.2416 -40.592705 -41.147903
26.5357 -46.731995 -45.506161
27.840599 -48.298401 -43.349869
26.880899 -44.415829 -46.389317
25.8396 -43.836536 -43.206249
25.050201 -42.707573 -44.78149
24.107 -41.353474 -42.402466
22.2152 -40.034649 -42.722298
-2.6303997 -40.929626 -41.112278
-3.4881001 -42.687164 -50.549698
-5.1531 -41.244713 -47.228493
-5.0635996 -42.356133 -47.142475
-6.434 -42.321781 -42.889771
-5.3495998 -40.893177 -43.549522
-4.9721003 -41.675114 -40.563614
-3.9684 -41.43491 -40.238632
1.67556 -41.921585 -61.963516
11.32937 -40.855637 -58.627838
0.31307983 -42.063522 -57.976463
2.33429 -42.028576 -52.979279
8.6468801 -41.03516 -54.762917
4.7016201 -41.878883 -51.434563
-7.3806992 -45.962799 -53.137196
-1.5430002 -42.939526 -54.6017
-3.8039999 -44.539158 -50.739159
6.36022 -41.000603 -55.992981
8.0443697 -40.834129 -59.811546
1.5013504 -41.682762 -57.985924
-3.0469999 -43.257362 -60.005699
-5.0172997 -44.273861 -55.562729
26.6786 -62.983025 -33.15152
25.8543 -52.884502 -39.431847
24.371101 -53.363789 -37.803692
27.6738 -56.943016 -37.300499
30.535 -52.176659 -45.917404
28.837799 -49.458614 -48.343006
26.6945 -49.442329 -44.967506
25.1143 -58.212425 -34.480865
30.416201 -54.970024 -41.97654
28.839399 -61.118431 -35.61961
30.563499 -56.401878 -40.69841
28.146 -66.373489 -32.957607
30.763201 -63.722145 -36.146126
32.398598 -60.60157 -39.543373
32.835602 -53.009041 -48.996593
33.658001 -57.204491 -38.922184
33.360397 -58.231621 -42.742382
29.782801 -66.371475 -31.894485
30.864599 -65.059174 -32.21727
30.763 -66.256294 -33.089798
32.744698 -64.022202 -34.741077
33.8284 -60.568031 -39.858864
34.379898 -59.895126 -39.546268
34.704102 -55.295959 -44.970402
34.465599 -56.459099 -44.51112
33.424 -55.865662 -45.564041
34.201698 -52.88068 -48.240868
31.870001 -51.202763 -50.936859
0.60332966 -64.764053 -28.463577
-0.7656002 -61.039551 -30.190804
-3.2432003 -65.955727 -29.488834
0.11470985 -59.274643 -30.71524
4.7196298 -63.774994 -27.832211
5.9851198 -67.566551 -26.764214
2.9443002 -67.731934 -27.1796
-0.47840023 -68.02327 -28.013973
-3.7495003 -64.59668 -30.048885
-4.2826996 -58.338501 -33.058655
-4.4390001 -60.889664 -31.835693
-9.6128998 -59.646507 -35.816971
2.6536598 -72.077583 -25.628288
5.0810499 -71.931328 -26.346779
-0.86569977 -71.17852 -26.264149
-0.37650013 -71.072456 -27.592823
-5.3762999 -69.698532 -28.807976
-9.3010998 -67.627312 -30.323475
-11.695801 -66.019676 -32.016762
-14.069401 -64.017845 -34.402454
-12.3232 -65.797501 -33.643417
-14.752399 -62.64122 -37.438995
-13.629801 -61.91291 -37.551033
-7.5939007 -63.112198 -32.744926
-5.0407 -69.202248 -29.691589
-8.1952991 -67.445694 -31.773602
-11.0779 -65.012619 -34.634335
-13.2318 -62.253136 -37.872093
5.3840098 -41.338535 -62.822502
-6.7010994 -45.013191 -58.556465
