# .PCD v0.7 - Point Cloud Data file format
VERSION 0.7
FIELDS x y z
SIZE 4 4 4
TYPE F F F
COUNT 1 1 1
WIDTH 1576
HEIGHT 1
VIEWPOINT 0 0 0 1 0 0 0
POINTS 1576
DATA ascii
56.236702 -10.257187 43.432652
51.81953 -7.3908062 51.368759
52.576321 -11.141586 49.49588
50.406796 -12.61972 48.387585
47.838497 -13.287439 47.871925
45.339596 -12.536213 48.221943
43.783825 -10.607597 48.73967
39.082714 -11.539873 47.952045
25.835636 -7.4684734 47.538826
25.626526 -11.745455 45.419548
24.492416 -7.8412323 47.411667
21.418219 -7.1588402 46.919861
18.221899 -5.4306011 45.847
18.311432 -2.9437675 47.47023
18.634781 -7.3729668 43.82513
15.901566 -0.48033237 46.713963
16.412867 -3.5199337 43.910664
14.5119 2.4868994 45.585098
14.668533 5.1291323 46.476135
13.550332 8.0160332 43.831734
14.337167 2.9701662 43.488068
13.607318 11.273819 42.974838
13.583673 8.3235722 38.612312
12.944038 11.372439 38.837929
11.632259 17.745758 32.627419
12.35806 13.983659 36.145668
12.801666 10.921666 27.313816
11.691866 13.653866 29.588116
11.171427 16.693827 31.413586
21.21574 -2.848999 27.842558
24.677067 -4.5855789 27.988789
23.156528 -5.2521 27.826818
25.694345 -10.460613 29.672195
24.46957 -6.3245201 28.264769
25.047482 -4.3901863 29.891371
26.222645 -7.4649334 31.620337
23.255821 -8.198246 29.757702
23.035275 -12.780746 33.681152
26.062782 -8.5998077 30.270163
24.359537 -12.675074 31.524427
27.699032 -10.451187 31.613472
30.606327 -14.343414 31.663866
26.562449 -13.840599 30.419197
29.478634 -18.303066 31.028032
27.07217 -17.05764 32.197662
29.097404 -15.182507 30.541794
27.186337 -18.102772 35.227226
36.137638 -19.71096 30.795778
32.649399 -19.305199 30.411098
32.089565 -21.345533 34.475666
33.877563 -22.006832 31.385464
31.610399 -21.0509 32.496201
36.483418 -17.68848 32.166088
36.959663 -22.878033 30.674564
36.842636 -23.568165 32.630531
39.326843 -16.355854 34.601475
41.755119 -19.94278 31.989388
41.029713 -24.796085 31.293591
37.597801 -23.434898 34.755398
45.012817 -17.449081 35.09354
39.606682 -23.28791 30.339455
39.165131 -22.892864 36.830631
34.888577 -9.9040337 47.486706
34.698864 -9.3191528 46.274605
30.586065 -8.5790329 47.266964
27.859655 -6.7462139 46.122086
25.95207 -6.434845 47.106251
25.870539 -5.1602802 44.691418
21.526665 -4.888134 47.665367
23.426765 -3.7169323 46.051163
23.737082 -2.951561 42.912338
20.281467 -0.9917345 46.442764
20.611298 -2.5518999 47.261097
16.659033 0.86113262 47.413834
21.582466 0.0059661865 42.298767
20.350899 0.42549896 44.644897
16.4601 3.1486998 46.873299
18.137568 3.2386656 45.330063
14.594252 8.3869534 45.197769
15.405071 8.9356728 44.504112
17.319244 9.4970474 41.500675
14.28348 12.328079 42.357658
15.672525 12.086425 41.574684
14.80598 15.41198 38.426361
13.372999 15.058298 39.150597
13.695959 16.59586 36.983269
21.177809 11.11908 22.45248
15.461306 18.338606 28.836346
20.936138 11.13154 17.92828
19.133862 14.537393 24.506231
14.320103 18.127502 33.136898
12.568018 18.337816 33.440289
19.417992 13.828893 18.809702
16.432112 17.714512 26.032042
12.925446 19.847946 29.207424
39.695824 -9.9673271 46.519463
40.281639 -10.316181 47.834015
43.748905 -10.84042 44.353477
50.997841 -9.1657867 46.226212
54.630539 -8.580761 46.058529
54.67152 -5.5720072 50.977619
54.497555 -6.9764805 48.497246
58.117393 -2.4491692 55.267773
62.022434 -0.96016884 53.884132
61.994431 -5.5899687 47.556232
66.370422 -6.591856 45.697445
60.560081 -0.52587318 55.957821
64.126221 -7.8211117 53.22456
62.191929 -11.310183 49.103779
65.378342 -2.3258848 50.909611
69.997894 -9.0764999 43.240395
67.245094 -17.1619 37.041
69.164093 -15.737099 40.343994
64.086266 2.568964 60.136265
64.79213 1.2055264 56.372822
69.544182 1.9404259 56.902821
66.866516 3.3028526 59.826847
69.423363 5.0783653 63.841263
71.828384 3.9837303 61.035034
70.976395 5.7585964 67.333694
74.408966 5.8113651 66.81456
76.237495 4.0765057 63.267502
84.48053 -7.2480755 54.945621
81.109177 -8.9426556 51.741646
79.540985 -9.7047691 51.553734
78.596542 -6.5601883 49.827713
76.689232 -10.638567 48.636829
77.607498 -10.0382 48.176399
78.851974 -8.8243523 49.084442
79.108955 -7.6750164 49.612888
71.24733 -12.215668 46.853233
73.758461 -12.167034 45.523064
72.274094 -13.214302 42.2043
70.948593 -13.965801 43.1572
74.389664 -11.545135 44.269066
73.241661 -10.234533 43.483963
59.850025 -2.0253954 57.053474
67.391266 -14.462032 44.052464
70.831635 -13.54797 40.410034
61.490284 -5.7249537 54.927982
60.997421 -2.8927078 57.16922
65.472183 -5.146368 56.688332
64.582886 -1.5800676 60.03413
63.745678 0.42203331 60.943127
63.225197 1.7002983 60.429199
67.545502 0.84619904 64.053497
67.145584 -2.4993744 60.50032
67.007324 4.1819305 64.264229
67.415268 3.8032646 65.293259
71.370163 5.4085655 69.174362
67.489632 2.916132 65.31353
58.212715 -11.289333 49.259712
57.351749 -8.7489834 51.602203
54.937393 -5.0614347 52.938484
54.677979 -6.0421257 52.9156
56.508049 -6.0426159 53.546497
64.95565 -19.470348 36.138924
68.3237 -13.3717 39.339798
64.341866 -18.529425 35.348007
61.53257 -21.946026 34.573265
62.522537 -20.89596 34.128429
59.883404 -22.427494 35.115894
58.226265 -22.394234 36.206764
52.312031 -24.918465 34.080082
57.09861 -24.061287 33.440742
63.611893 -17.503307 35.815701
55.565491 -20.303604 33.517899
59.450565 -21.281734 33.192566
56.992699 -23.8643 32.067299
53.164524 -25.224075 32.267181
51.04541 -25.354984 31.24254
55.699718 -22.851879 32.027489
48.394539 -20.518959 32.798279
47.429939 -25.74366 31.96278
45.877136 -25.31596 30.859776
51.841171 -24.373726 31.052464
45.593102 -24.187893 35.949844
41.831463 -24.913834 33.300514
43.612427 -22.887772 30.651585
47.612305 -22.397793 31.432095
46.800922 -25.436272 33.365135
46.679619 -24.65638 30.559589
51.153313 -5.9595737 50.595692
47.685616 -10.151945 45.241959
47.123409 -5.0736675 47.864651
45.115376 -6.3748608 51.952087
43.109028 -9.9003868 50.025169
50.556011 -12.820408 50.180431
47.568954 -10.344473 54.193504
44.797733 -6.0895634 48.31498
49.350536 -8.0909214 45.422348
29.995205 -18.785093 20.974794
47.327656 4.3507862 26.006985
18.080692 -1.6824064 18.077854
47.956345 -1.5514002 51.507847
47.330666 -3.8166475 54.944412
46.431751 -5.8228483 59.73682
46.231926 -8.5086594 57.534737
47.971962 -1.0876341 56.339012
47.357075 -1.9849291 70.373665
46.144333 -11.267553 58.269234
45.529472 -6.8939285 66.31311
44.302818 -14.390841 65.708458
49.727367 3.6929722 67.956604
49.750854 0.39445972 74.420914
52.987984 8.608284 65.502007
44.690678 -10.417421 66.068008
54.000996 2.1210976 62.838249
50.397377 -8.5578613 62.754639
50.850079 4.0083771 70.913055
52.497425 -3.3130741 64.180885
43.689228 -17.421967 69.995728
43.757328 -14.754868 71.04863
44.442833 -12.920067 74.292229
43.725563 -20.470432 74.739059
44.664494 -22.367001 79.863297
44.320564 -23.210835 77.193466
45.36013 -19.077267 81.360329
46.43993 -27.330566 82.970932
54.448116 -3.3911829 81.755333
53.62941 -3.1767902 82.191483
52.379169 -3.2619276 81.701759
54.850029 -4.0263681 80.164185
51.377602 -5.4221954 83.087341
53.721756 -1.2233372 74.695213
53.763451 -1.2078457 76.999771
52.25634 0.0059366226 77.530075
50.50988 -1.537714 77.967697
54.086727 5.3195324 66.663681
53.59491 2.2372112 70.600037
52.927307 0.51820278 76.349495
52.277752 6.2504501 69.049271
46.932018 -15.162346 64.582146
48.284672 -13.194082 64.466995
53.547775 0.45957947 67.91156
53.238014 2.9505119 72.053993
52.951977 4.9558773 70.502907
51.450119 1.7145214 74.917534
50.230247 -10.410955 66.360527
45.363342 -17.415886 66.634308
44.609055 -19.965712 70.132179
44.354362 -21.938822 73.208679
49.440418 -13.659781 68.677887
46.540779 -18.377655 68.891747
49.320465 -16.722534 71.920067
46.956528 -20.786665 72.441223
47.932224 -21.490553 74.369644
45.370697 -25.2901 77.945595
45.548954 -20.874313 71.351585
46.004227 -24.903553 76.901749
44.196079 -17.90136 68.226936
46.220497 -12.712219 59.712189
47.452393 -12.290298 59.564842
48.939003 -10.497169 59.947861
46.827496 -9.5153008 54.326694
50.242584 -7.5325127 53.208302
50.915932 -6.6490898 57.777573
47.077816 -11.902975 58.117096
48.80703 -9.5305462 54.201187
50.884037 -6.2804794 47.86982
47.229401 -8.6247559 44.870415
50.846046 -5.8129807 42.061306
48.080959 -8.8751602 40.472908
48.456955 -8.2206936 35.818394
45.287064 -10.797573 33.997246
45.220425 -11.012074 31.396584
41.593868 -13.386627 28.232464
41.373039 -13.689157 26.381126
42.095467 -12.720133 25.269316
40.947247 -11.885353 22.651278
36.648373 -16.434326 23.427813
37.658318 -15.549679 22.34584
38.32888 -12.356918 20.82366
33.440926 -15.583073 19.973988
35.525372 -12.219425 19.881111
33.662807 -17.233994 20.707895
27.092499 -18.942198 20.435501
30.997246 -14.938251 19.445625
24.989067 -17.551533 19.815767
20.194168 -13.083433 19.194567
22.837633 -18.880665 20.861034
19.782768 -15.969334 19.759167
18.022333 -16.905067 20.654833
15.502768 -13.985031 19.368965
15.367523 -10.372345 18.302153
11.977384 -10.294464 17.898733
14.556143 -4.8659468 17.080235
23.852478 -0.066530228 20.068455
29.054409 2.5225997 22.107689
24.37604 -0.86808014 25.955471
32.711231 3.2682528 24.986443
34.487972 3.5361328 23.821543
33.286503 1.8542328 22.433662
31.884457 1.3978004 25.697739
35.566444 -0.66821289 21.493645
37.601395 3.9803061 25.059856
36.210251 2.5676794 25.924839
39.631149 4.2851925 26.137392
43.7229 4.9279919 25.101994
40.625366 2.2710662 22.995667
38.831635 3.8151321 24.095333
44.055622 5.9798536 26.313251
44.092575 6.2632513 27.385353
42.569901 4.6132994 28.595898
47.282902 7.9430933 31.347694
48.224751 6.5722933 27.528191
53.080391 6.8320131 32.724312
45.945168 5.2646627 33.124161
49.823891 4.4759197 28.02742
48.428299 8.3499002 33.932796
45.440937 2.7477245 34.823326
50.035549 9.1769962 30.816998
52.182629 8.6457338 31.937832
52.874207 3.694479 33.057175
51.809261 10.929365 34.899162
53.625492 11.487013 36.300411
49.607548 8.2688999 38.214298
48.50433 5.8998384 39.058937
51.802547 11.081901 38.642597
55.226387 10.542812 37.822609
45.281303 -9.3371277 37.706833
44.752048 -10.48382 35.082741
43.295986 -10.010012 34.014656
42.152248 -12.153751 30.957523
40.451012 -12.086287 29.79689
37.873795 -13.504505 27.238653
36.117886 -11.708214 27.036257
37.660973 -15.312527 25.540962
32.629837 -12.20826 25.491079
33.833553 -15.231247 24.849773
32.517357 -18.140139 22.004471
32.615654 -17.336044 23.194122
29.359892 -16.190205 23.639103
26.172533 -18.847565 21.952534
28.514601 -14.202999 24.317001
22.010399 -16.887999 22.914999
20.892134 -14.507366 23.770535
20.5313 -18.108 21.6817
17.7367 -15.030298 22.969999
16.989899 -16.552999 21.561501
14.826366 -14.883032 21.688267
17.389223 -0.36822701 25.251211
17.862362 3.2746534 25.132362
13.105758 -1.615015 24.140684
13.70336 -12.623219 22.42588
13.299966 -14.133831 20.362766
14.981013 3.3272333 24.518303
14.516336 8.0151653 23.656746
11.562097 -10.045292 22.286705
9.5251541 -10.285006 20.609793
10.52131 -5.2108202 22.80698
11.684803 5.0474329 23.337463
9.0950737 1.0752535 22.360554
7.6305037 -4.0566063 21.229193
45.668789 -7.0031471 40.280182
47.088634 -9.2733746 40.236824
46.377487 -8.216507 42.178699
46.798893 -7.1447849 45.782467
46.667309 -4.1871405 43.654121
53.966125 12.584938 39.557339
55.532242 12.903917 41.13002
51.763145 10.326899 42.303497
53.562073 12.428352 42.396652
55.048592 6.2126055 38.003105
55.945698 13.986698 45.896698
56.458076 9.7785378 42.347836
56.870651 12.763491 45.596889
54.829929 12.732233 56.125332
57.104965 11.760765 47.228065
56.88533 13.023932 51.095631
53.163963 11.140863 49.294163
56.386265 13.977663 50.391563
55.269928 13.590332 50.231831
56.93383 9.6678314 48.855331
53.365829 10.852932 58.125031
55.943794 13.1224 55.887093
56.474964 11.996164 55.577164
56.757397 10.893597 53.754799
54.157227 9.8288326 63.557026
55.578926 11.542633 59.232327
53.799397 10.763498 61.579296
54.664333 6.7380295 63.844383
21.645052 9.2431145 16.686455
22.346529 8.4554796 21.02206
45.990318 -13.359644 50.175106
59.86087 -22.654724 47.368309
53.421955 -32.513813 60.714485
49.732182 -13.394547 49.213593
47.307701 -11.910807 53.34594
42.97002 -4.2644281 52.65591
43.241619 0.47749233 48.777622
46.009964 -5.0828209 48.958515
44.367126 -0.8059206 47.728306
42.110809 6.3248129 44.94194
41.063728 10.171632 42.367828
40.985996 13.811399 37.584599
42.15176 12.017772 38.303474
42.372501 15.507592 32.041592
39.662029 14.919534 36.831631
39.49794 16.106318 33.15242
36.862297 15.167798 36.924698
42.937569 15.613253 29.03965
41.555164 16.446266 29.068266
42.907402 15.743085 24.500484
39.253746 16.376804 29.434605
40.371731 16.147434 24.895931
41.17894 15.562812 21.807411
37.97356 15.703172 26.526272
35.815697 13.177599 16.875299
40.277252 13.632093 16.634293
35.352692 12.421013 13.625213
33.767113 11.294271 10.099874
30.597218 11.726159 13.583959
30.228382 11.381033 10.082132
25.208529 10.74552 13.394629
22.618855 7.4953127 25.475254
23.904911 2.8559427 25.59581
24.183865 7.7221465 30.346455
25.60404 4.7611809 31.670097
24.27615 7.3454704 33.340183
24.595604 5.9315925 34.909393
24.322702 6.6624427 34.955368
26.188023 9.4567232 41.035137
27.375288 5.674499 35.876709
25.663754 5.8741522 37.604523
24.931452 6.501853 39.379223
24.968098 7.6230993 41.417
27.024372 5.3326735 39.951759
25.093945 5.6981459 43.381027
25.120846 7.2673454 46.109425
26.013805 4.6400061 43.742142
26.306551 8.5554523 46.263168
24.590672 4.6948729 49.647709
26.817024 2.588326 46.916336
25.526031 2.3415327 48.926479
25.923782 5.8106871 51.039406
27.49115 -0.72194767 50.591568
24.829945 2.8182468 53.259323
25.700199 -1.4830008 53.326797
24.650759 3.2203598 49.799721
26.147337 1.9906397 55.323425
29.658598 -2.3782005 50.644749
24.470966 1.7217655 52.890965
31.35673 -6.6737671 53.313328
28.16441 3.8465118 54.194241
24.831366 -0.10833359 56.088665
25.487465 -4.046833 59.281967
26.421963 -4.4650335 55.454865
28.021296 -7.2779007 56.269894
25.102734 -3.2505674 56.385632
24.964796 -3.5177002 57.960197
26.268099 -2.0286016 58.558701
27.749733 -0.22586727 57.465431
30.155453 0.5985527 56.622719
42.093849 1.2361994 44.583149
43.419399 3.1918516 45.157471
42.937244 7.4424667 41.765984
42.390953 6.220993 41.156891
42.738506 13.07258 32.486076
41.861378 9.7537403 36.233036
42.76252 10.964859 37.361259
41.962597 11.917806 31.915106
40.451035 10.049831 33.694633
42.019344 14.722309 20.005709
42.851116 13.922264 28.543266
42.64357 14.062557 22.063759
41.483395 12.383206 27.421104
39.858246 10.9526 25.373997
40.458839 11.33622 18.178919
37.778603 9.0030851 17.198986
40.897175 12.663145 16.565044
38.682076 10.650446 14.025745
34.648605 7.8377862 12.111186
38.171936 11.611126 12.934826
23.58707 2.0149312 20.373795
36.159588 9.7460194 11.209021
34.757401 10.355999 9.7134008
25.15419 2.6812401 15.83743
31.114223 5.9871531 11.608954
20.809093 1.8215456 13.206226
26.890575 3.8313265 12.508137
19.821896 1.0302668 18.824436
28.269873 5.8242135 8.4909325
17.280167 0.81276703 15.295816
22.94305 3.2453003 10.13715
31.583263 8.119173 8.0003729
43.262455 1.9153442 44.901016
40.532837 -5.0401144 48.460155
44.349674 -1.8246689 47.097492
42.829567 -2.8136806 47.031086
53.55228 -16.095661 49.309738
50.186134 -17.165094 49.499664
51.781918 -16.391399 49.053329
45.169106 -17.117313 51.525734
57.50988 -23.59922 47.814411
50.773899 -20.711105 49.88509
50.309433 -25.888069 51.47583
41.107693 -25.762184 61.936615
47.824371 -24.051842 58.716461
42.278454 -30.303108 59.142792
41.93325 -29.113098 61.952301
51.416855 -21.986916 55.878036
54.565723 -26.869072 49.790531
58.921303 -27.483994 48.289795
68.353699 -30.151699 47.281799
62.071686 -25.458313 47.018654
60.670765 -30.818634 49.127914
67.522308 -27.90239 46.876091
63.98085 -29.595547 47.587219
68.797455 -32.789146 48.351322
73.072937 -31.51226 47.89473
71.889252 -34.983948 49.478119
68.23127 -36.119526 50.751961
62.623165 -41.563133 58.671066
57.175034 -38.552467 63.229332
56.192627 -39.121864 59.042728
54.261829 -34.670769 61.665031
55.131432 -38.096466 62.545334
54.564999 -38.589699 61.727997
54.536499 -38.705601 60.554798
50.473145 -35.300594 61.538506
51.497799 -34.203606 61.559288
48.750595 -35.234699 59.447998
48.92408 -35.320862 60.680138
46.966545 -33.320797 58.122795
47.505814 -31.257034 61.279564
41.543198 -30.149994 61.635208
58.852821 -21.692581 50.643341
54.507713 -20.852333 53.234314
43.959217 -29.022835 61.600464
46.026085 -26.983665 60.500233
45.324455 -32.261009 61.377785
43.295143 -31.868385 60.337009
59.71059 -23.404305 51.793503
62.868755 -23.561443 49.140869
64.674438 -25.179161 47.010231
56.843922 -24.4296 54.414982
63.874714 -25.901089 51.720695
68.664566 -26.973625 48.208961
69.358391 -27.614307 47.576103
66.792091 -26.403908 50.096302
71.06118 -28.575012 49.945152
56.005447 -18.679745 49.921566
56.14146 -18.854347 48.474411
49.846172 -12.969492 51.487728
49.88063 -17.541267 54.445881
45.541683 -13.051313 55.332653
53.458084 -18.199034 52.010746
35.176414 -24.162933 63.306362
38.335651 -27.60611 60.536491
36.395321 -26.28194 62.590961
33.199097 -20.076992 63.852203
32.268307 -21.377813 63.670586
34.397144 -24.334293 62.386402
32.056164 -10.492533 61.965763
31.542633 -15.688368 63.672333
29.273466 -16.290634 63.940262
30.771908 -19.635414 62.817085
29.038528 -10.455067 62.763828
27.210999 -12.700199 62.364494
27.918064 -11.867634 60.130764
29.727798 -12.465799 58.649395
27.748764 -11.668133 63.127266
25.914495 -8.6520004 60.829296
28.049862 -4.6803341 60.331459
26.5411 -7.3963013 61.442997
45.40411 -9.0469284 53.391373
46.876404 -6.9863739 53.486954
47.211987 -5.0223637 51.51828
4.6878633 13.326103 17.620651
4.530252 3.0587888 12.599942
5.743772 15.371044 16.942513
7.7863865 1.2723169 14.311307
11.43825 0.82341003 10.43499
12.43095 4.3226805 5.3571353
14.555624 7.4280033 4.6982737
15.575027 15.213348 7.6844501
13.728472 17.605904 10.741781
15.714649 16.585369 14.03957
11.564141 18.366558 12.620611
9.7322426 17.901237 14.842981
7.8430104 16.861235 16.27598
3.2824211 10.961254 17.200871
3.0699682 8.3991013 16.759518
3.1755013 5.6200051 15.268351
9.3081493 18.288519 14.836109
17.987188 26.921818 10.473721
15.162886 16.073708 7.8739686
21.308594 22.23621 4.8095088
15.635712 12.52883 5.6296816
15.291322 10.141484 4.7801218
13.238933 5.4722528 4.4971938
6.1240458 2.165843 9.9599457
4.3115072 2.713047 12.045017
2.6847 5.9224606 15.27653
9.9809942 2.8469281 6.4433947
8.0527678 2.1322718 8.0142183
17.126392 15.569403 12.119843
14.074286 16.922836 15.848666
12.08367 16.513529 17.634628
9.6558456 15.024216 19.317932
7.5876098 12.55025 20.14905
6.1658235 9.6842232 20.137823
14.225763 2.285614 8.3787737
16.534866 4.9921966 7.4227667
17.749853 7.4095836 7.4164739
18.521643 10.702164 8.2909737
18.182438 13.737345 10.147696
6.5220661 2.6079788 16.243458
5.7894502 4.4842501 17.914209
5.637094 6.7244034 19.186644
9.4862671 0.65041637 12.300477
-3.2093573 -6.1862335 20.694515
-2.3760891 -0.45607948 23.447361
-2.3710661 3.3759933 24.766354
-3.6682825 0.31042767 23.778088
-3.6480331 4.0286674 24.577366
-0.35498047 10.76334 26.26292
0.06496048 8.6659698 25.624859
-0.23054695 14.144403 26.153173
3.1168127 17.003822 26.522934
-0.13467312 -10.056732 16.078287
13.955287 -5.5437832 2.2548265
26.603092 5.9022527 -4.2575064
25.824259 4.0885706 -2.3877392
25.039579 3.3737602 -4.1732187
22.7481 0.83389091 -3.5673399
22.603241 -0.0088806152 -1.8102989
16.939453 -3.8125353 2.465364
16.12138 -4.6380291 1.7926702
12.258627 -6.1133728 5.9231868
7.7835474 -7.8733711 9.1395473
6.7259879 -8.2279415 7.9514871
27.93042 8.9008904 -2.8562794
27.493353 9.2748232 -1.4240475
10.523313 28.094023 24.815582
11.698453 30.196022 22.164152
14.248766 28.171915 21.177465
13.358986 29.335257 21.768986
16.650465 28.742565 16.463165
16.809593 28.080753 17.805292
19.624859 26.093967 13.56876
19.207397 24.987888 14.59178
22.353086 22.042646 9.6919661
22.688015 22.150995 7.4429264
26.053219 17.13092 1.5342798
28.110538 12.59948 -0.69895935
8.0466862 28.047306 26.075886
1.5979862 17.734596 26.403896
2.3659534 20.582373 27.370302
3.7426662 20.190136 27.595295
-2.7468958 -9.2342243 17.324352
-5.1085281 -7.3875389 16.414761
-4.0792265 -6.8258743 19.557396
-4.5250797 -0.77089977 22.930639
-6.0769196 0.92864037 21.541241
-6.3474388 -3.3343849 19.680151
-4.6150293 -4.1048594 21.352921
-5.6543236 3.4800463 22.394346
-4.5857668 7.6301336 23.400833
-2.0137863 9.8391933 25.599413
-2.3004332 14.043066 24.321966
-1.1230793 -10.470028 14.87418
-2.9520645 -9.6071053 13.148455
3.5220466 23.247486 27.782236
0.77378559 22.839977 25.646215
-0.19297695 18.891129 24.638535
9.2884731 29.485123 24.603163
14.361252 29.856274 19.562252
9.4229774 31.10676 21.130276
13.737566 30.181664 16.353266
16.0415 28.768799 13.342899
19.696381 24.775238 7.6912394
19.220909 26.52072 12.377159
5.7054152 29.405609 23.997395
2.99194 26.823399 25.41967
5.7397132 26.931332 26.880774
12.884987 0.23541737 15.883367
6.6700096 6.1582599 20.85033
7.9329634 12.413784 21.164753
5.1557879 -0.25941277 19.950747
1.6347771 -7.5283318 16.537388
6.3219481 -7.9217815 17.878925
6.2748713 -8.0608196 17.154501
2.3609543 -10.809296 13.265014
2.7919741 -9.034586 14.708874
8.7433205 -9.6700401 17.97056
5.582993 -7.977066 15.349653
5.3313141 -9.5794544 11.317214
4.9565969 -8.5891132 13.382767
6.8551006 -7.00597 12.30006
7.33705 -7.2585812 15.21064
9.0812168 -8.1504135 16.746407
10.355537 -5.4427528 16.006466
9.4912529 -3.8906765 14.172354
8.8921175 -4.1377831 11.446367
11.826456 -3.3842125 15.951336
3.9670973 -7.2340622 16.735867
5.1622548 -4.9682055 18.856993
3.355844 -3.8827553 18.444073
1.4139652 -3.7596378 18.762352
4.1390438 1.4185143 20.055113
2.715487 3.1425967 20.751566
6.4952536 12.319243 21.575184
8.5457668 10.430817 21.133785
26.791529 16.050789 2.2588406
20.633747 10.020636 12.602237
11.101147 -1.6624622 9.5412474
26.667999 9.7679005 0.20940113
26.967873 12.146783 1.9018135
28.690681 10.252513 6.1380935
22.670887 10.562626 11.611036
26.623383 11.160833 9.6356335
28.229889 10.87593 7.11374
24.876499 16.276159 4.7133203
26.328629 12.59149 3.8281403
27.339037 11.194886 4.8848462
25.434832 11.545752 7.5318732
23.749233 13.747373 6.3598137
22.323765 15.111776 7.1769867
23.128956 11.997497 8.4766064
27.567345 9.1799164 4.7135267
26.339712 9.6276426 2.6551132
24.505386 7.1034069 1.3488865
21.437492 4.4491735 3.3982735
24.767118 6.92063 4.37573
18.641132 2.9923639 7.5630636
21.254719 4.4654903 5.9247203
19.736973 2.7542343 3.387804
15.208553 0.84981441 7.423614
15.985594 0.25050449 5.6688433
14.786813 1.2424831 10.437953
10.983417 0.10067749 13.022807
10.74987 -0.70242977 10.98967
24.050827 5.3641472 0.094717026
20.984114 2.5485239 1.7516842
14.265873 -2.7002153 5.8455544
23.362179 1.3255701 -1.2490807
7.8161211 -7.0103073 10.14602
19.513075 23.419334 13.658127
24.428173 6.2944126 -6.2810268
20.330601 -1.6271601 -1.91784
19.107965 -0.12641239 -4.1712027
21.7869 2.4624214 -5.5557194
17.294779 -3.5501604 -0.2968483
10.667467 -7.1922035 5.3188868
15.643902 -2.715394 -2.001605
12.392207 -4.5403929 0.33759689
27.3328 8.8703003 -4.1568003
26.140039 12.653279 -4.8134584
27.787947 11.881826 -2.9813538
12.294477 11.026886 22.343897
11.250134 13.027343 24.310722
19.567127 11.624646 10.985506
19.892645 15.727888 9.4371681
5.5901861 24.081106 27.734735
9.9832306 17.92647 27.803043
10.295237 12.156326 21.365187
6.6412458 17.456047 25.394827
10.438212 16.057983 27.404373
6.8061528 14.892753 23.443373
9.1686535 16.026873 25.276852
5.81844 20.962681 27.021688
7.9954443 20.111624 26.961447
10.467457 19.669638 28.330742
7.5845661 23.498745 26.351786
11.208193 20.943882 26.421263
9.7493734 21.850752 25.892282
10.191792 23.539303 24.230392
9.908226 25.570015 24.395044
12.34734 23.547058 21.473459
13.307966 20.523375 22.556005
12.986866 21.715376 21.445406
15.709013 20.963142 16.652742
14.41682 23.394659 18.81325
15.256813 18.873741 19.807213
12.540553 27.259962 22.550962
16.540588 18.374929 15.579969
17.137083 16.514572 16.196842
17.969795 17.103546 12.782967
18.58923 13.91798 12.813879
19.32963 13.45682 9.9603996
4.3008204 16.535488 25.44022
4.9306731 12.101283 22.581503
2.4413939 5.4840031 21.800392
-1.8669024 -5.5359621 20.499166
0.29956055 -2.7930984 19.800119
0.54910088 -9.1447773 16.326441
-0.82457352 3.1078367 23.840027
51.721432 7.5348301 65.309784
49.036404 0.34310532 57.925842
48.202324 0.4453249 61.055035
47.675743 -1.6457882 47.084511
47.340099 -0.70962715 43.462029
48.667427 2.2363377 41.723537
47.601753 2.7894917 40.36039
49.500343 4.2065048 42.551003
49.751511 6.4577656 42.854862
50.830505 4.8550854 44.311287
51.390434 8.36063 47.768833
50.55571 6.2692719 45.143169
52.63372 5.6973534 48.375549
51.686863 6.861165 49.393265
53.66193 5.9613323 54.400928
52.673927 6.4860325 54.309231
52.013828 7.386631 54.255329
51.954666 8.505064 54.679764
52.092091 6.1764908 58.677849
51.83593 8.411932 58.95853
51.301758 5.9338589 61.165764
50.095055 4.9560509 63.844074
48.875034 2.5354395 63.820778
42.040829 -0.86846066 28.055689
42.489677 -8.1441803 33.351479
42.847054 -6.996933 31.349073
40.78804 -8.7416191 31.229099
40.121346 -6.9336319 28.105684
39.179668 -9.3016281 29.598412
38.876427 -7.3983135 28.398716
36.754585 -7.3408604 27.839531
37.67646 -5.8068457 27.205711
37.220604 -4.1341934 27.119396
44.121471 -6.9773865 36.32608
45.24696 -5.375061 36.15416
45.325291 -4.8066072 39.042351
45.846676 -2.6148376 39.393204
46.135044 1.0705681 37.820187
46.944756 -0.88843346 37.228874
45.98785 0.82987213 35.486031
43.554214 2.5380664 31.615164
46.242085 0.23256588 33.625298
42.89703 0.99701309 30.427221
44.489628 0.040959358 30.269848
40.282326 1.5312262 28.426086
38.198639 -1.6834602 27.714581
40.608315 -0.2383337 28.618114
39.15115 -2.9102402 26.328228
34.11412 -6.5411892 24.062634
52.28717 0.79405212 33.338951
50.091919 -0.8061409 34.01696
40.281971 -6.6606255 21.059763
40.321404 -4.7116938 23.969845
41.252411 -2.7311869 23.982143
39.831703 -1.0630741 21.713205
45.682533 1.2764263 24.268724
43.964478 2.1766458 23.632946
41.124043 -1.7364674 22.458073
44.837566 -0.67073441 25.959465
48.022755 0.19218636 28.550385
47.925945 1.4934063 25.925505
48.554634 0.67713165 27.596634
50.350426 1.7601452 28.816444
50.131546 0.10109901 30.979897
52.227615 -1.1548357 35.698868
49.043297 -2.4540005 36.077351
51.30714 -3.7554283 37.155342
47.324463 -4.1362066 36.52668
48.567421 -4.5865469 36.038799
50.001404 -6.1715946 36.899597
47.89669 -6.8564606 34.507778
47.322403 -8.9961929 33.764694
45.172081 -6.4419651 32.91713
46.09399 -7.5324669 31.475922
45.201279 -10.21722 28.17251
44.668713 -8.7626858 26.437742
43.544033 -9.4063663 24.099882
42.985954 -7.0514469 26.271626
43.145264 -7.5220337 24.374615
40.218952 -3.9240475 21.903973
41.546719 -6.1204796 23.88979
40.322659 -5.1631393 21.61302
42.210529 -7.8743668 22.241032
27.784792 -9.5224075 21.043602
33.326202 -10.744993 19.571945
37.846268 -5.459034 21.130167
36.052685 -7.3360138 20.836706
33.459763 -8.4936352 20.582367
38.372112 -7.4175873 20.437294
36.511971 -3.735527 21.843313
38.515125 -3.1109734 21.051235
31.319592 0.042433739 21.496971
33.471352 -2.7285471 22.194672
32.156361 -1.062747 21.510862
30.51387 -2.6509371 22.952057
27.079565 -2.7751732 22.547096
29.045284 -1.9875641 21.809631
23.538109 -3.5989199 21.513279
27.346684 -1.5347557 21.020237
27.277267 -0.48000336 20.814531
22.56897 -3.2129593 20.029099
20.365971 -3.0859203 18.765669
20.581793 -5.0324459 20.899834
17.278763 -6.7469254 22.396873
19.340033 -5.8046455 19.460644
17.432442 -6.5789471 18.126284
18.628054 -7.8341866 20.845953
17.513006 -8.3517132 18.362785
20.50106 -9.0381393 20.916321
19.77562 -10.28878 18.970591
23.034039 -9.584259 20.46183
22.292433 -11.182968 19.169882
25.936321 -10.136681 19.96789
25.329567 -11.549732 19.312817
29.949432 -9.6686668 20.154484
33.788925 -9.4500732 19.824785
54.739433 5.8085251 50.113224
52.857201 4.9304848 45.984684
49.825237 0.94148445 42.268356
51.35952 3.1225576 42.33836
49.171104 -0.4552002 45.516335
49.264938 -0.67368126 51.255219
51.575218 1.2159176 58.289139
52.339607 -3.509038 44.814823
54.508255 4.6185589 62.134167
52.882484 -2.0059147 59.789356
53.404808 -0.28669548 59.098545
52.933758 0.89645767 58.987118
51.918163 3.0737648 61.530861
52.375259 4.4143667 61.21291
53.220936 3.1749401 61.976677
55.108665 6.1481647 60.201862
53.168125 5.4944248 58.484032
54.49826 5.672966 57.449863
55.874962 6.7269669 55.15086
56.230232 6.6302261 49.61602
54.93782 4.8709469 43.553741
55.966064 6.0056648 44.009064
54.483582 3.145237 39.332138
53.595875 1.7899446 38.64534
53.257759 0.11967278 38.03717
52.469017 0.4139595 40.094158
52.681271 -1.2997484 42.359848
51.859436 -0.4885006 43.146606
52.717697 -2.3015013 41.36895
52.65358 -1.8090277 47.679451
51.676613 -0.71413326 48.40781
52.654366 -0.56106186 54.257046
51.441486 0.0016593933 53.885887
52.855663 -2.5771198 51.464016
51.282684 -12.384212 72.347954
50.98827 -8.4369278 71.269058
51.592571 -8.8435268 69.877213
51.174553 -11.540348 73.832474
52.062893 -6.1636086 68.793549
48.310753 -6.0620499 72.558975
52.535488 -4.1896095 67.936203
49.426865 -10.422033 82.554962
46.570747 -3.5443554 66.869675
49.034981 -3.7978144 71.427101
44.287666 -17.071735 77.176964
47.660332 -13.386166 79.709526
48.274586 -0.79971504 72.499603
49.188293 -3.0957003 74.165543
49.187523 -2.5754738 76.918678
49.316429 -4.1199684 76.848526
49.76363 -6.4043674 78.723679
49.340317 -7.7269821 81.36824
49.641922 -6.8179741 82.024536
49.063629 -13.238667 84.111931
49.210297 -13.8484 86.444092
48.070763 -15.068932 84.778259
46.516533 -15.876369 82.612732
47.809067 -14.895535 82.412857
46.887966 -13.786434 80.312065
45.357933 -12.250668 77.327728
47.582996 -10.7134 76.614998
46.28083 -9.0001678 75.047333
47.593304 -8.2766933 74.543747
45.432564 -8.7423344 73.636368
46.744934 -3.5694685 70.099785
44.984917 -8.9547806 70.596489
46.86623 -5.3968658 72.082329
49.349121 -3.0113821 71.80349
31.245649 -0.63068008 25.95336
20.756136 -9.6018734 23.116425
31.714722 -1.894207 25.669722
22.040699 -3.3245802 24.395859
23.085695 -2.5202131 25.283947
21.311687 -1.5249157 25.837502
18.816349 -4.1651001 24.621899
22.189461 -11.887926 24.591572
16.756121 -5.4372396 24.160561
15.120083 -4.975666 24.569532
14.330147 -7.1087933 24.072708
15.516319 -9.8929405 23.94276
17.117546 -8.5007935 23.174107
17.023939 -11.329479 24.072319
18.455929 -10.07386 23.99774
23.797167 -10.394773 24.245247
26.58597 -9.4055214 23.10157
28.526653 -10.163727 24.670834
28.179026 -11.368174 24.962086
33.084351 -9.1008797 26.130058
30.162827 -8.6287727 23.536186
33.3564 -7.2191391 25.091427
35.198891 -5.5256681 27.071224
34.520889 -4.7587662 24.509422
35.339626 -3.8520336 27.088707
35.19178 -0.72138786 26.657623
33.914043 -3.6838665 24.252422
33.787331 -2.6849613 26.06464
28.292101 -1.5456772 25.673656
27.582941 -2.5533466 24.519232
31.669508 -2.8658199 24.356277
58.551758 -17.525539 35.776867
42.232651 -14.080587 38.601551
62.850578 -9.9126606 42.569839
56.317364 -11.277214 42.905273
51.415157 -12.667259 42.592659
50.463795 -11.435579 43.076859
46.367214 -12.377893 41.890434
43.483807 -12.881214 40.683388
43.400829 -16.267906 38.60516
42.930958 -15.894539 36.460014
43.972233 -18.103767 38.794483
45.956745 -17.463654 37.114574
50.444275 -18.464725 34.837162
49.763981 -18.027115 36.246704
52.203423 -18.514675 37.693733
55.344349 -17.687746 36.616417
55.700199 -18.623901 38.5606
56.795769 -17.647625 38.07151
61.736176 -15.455921 38.439857
65.189568 -13.804935 38.746864
25.166542 -4.5139885 33.334557
21.998962 0.33385277 39.718964
19.251457 4.2228603 42.52832
16.228306 16.252605 33.903996
18.053438 14.97934 30.99898
22.644627 -4.585453 36.681145
24.561876 -4.5639334 35.357555
23.715658 -2.2707396 32.935867
23.2715 -3.1400003 38.171547
23.414112 -2.0461674 39.894653
20.21669 -0.3299408 38.130486
20.324757 3.6345606 38.837219
20.181 4.7591991 39.645599
17.957859 9.8209591 35.013218
18.428165 11.177765 35.548916
16.655073 13.704573 38.031013
18.873806 9.7625065 37.851196
17.842175 14.050475 34.179012
19.196426 13.659725 29.411886
20.934078 10.860699 28.41387
22.569717 6.6239171 28.79549
23.281349 3.8626595 29.455429
24.496283 -1.8893471 31.096592
22.503128 4.4637198 30.175827
21.951235 1.0147266 31.787374
22.224258 5.5767994 30.021389
29.661369 -7.4057007 44.389629
31.223661 -13.956825 36.818172
32.911491 -13.864439 33.916088
33.409431 -8.9787197 44.73666
31.045521 -10.287146 42.912952
28.863607 -7.7018204 42.822178
27.69425 -8.5718002 41.784302
26.848017 -5.8407335 42.027767
25.803661 -6.9311256 39.85107
25.774574 -5.0142126 40.123116
25.724365 -6.5846138 37.382927
25.486706 -4.9079733 36.813408
26.612871 -9.2804432 36.406357
27.582476 -8.6510334 34.836304
33.424137 -9.7527008 43.504108
37.641464 -11.089952 42.531204
40.224159 -11.50692 42.225079
39.087677 -12.479855 40.906944
39.617584 -13.082832 39.299595
37.249249 -14.4561 39.2257
36.953056 -14.131393 36.674343
35.678082 -14.482388 35.025375
33.743755 -14.969013 37.673386
34.166332 -13.782146 36.03569
31.104897 -12.548899 35.142799
28.753288 -11.89908 36.216419
29.627169 -11.540501 33.420479
22.73398 -4.3347607 34.996338
21.225916 5.2285061 30.541985
19.156036 11.659437 30.270279
17.983238 12.701239 33.103077
19.183592 2.824193 37.65575
18.501812 7.1383133 36.365089
21.629623 -3.5920467 37.896152
19.698376 -9.0099525 37.549847
20.391083 9.6292229 29.920177
31.230225 -10.799252 47.385143
23.333561 -10.66152 40.524979
22.115278 -10.682255 37.391144
24.240726 -12.052654 36.971645
22.730883 -12.450665 35.452732
25.191982 -15.978565 34.370033
26.354326 -14.867752 36.783646
25.362167 -15.722933 35.727768
29.871613 -17.331627 37.541973
30.560352 -19.945206 36.884892
32.80896 -18.376921 38.812679
29.375786 -18.561474 37.202526
33.856598 -21.389702 36.826702
34.863491 -18.072987 40.068512
35.075195 -20.060993 39.803005
37.081604 -19.527615 41.129883
36.750854 -16.035112 41.090084
36.629486 -17.667973 41.923824
38.30938 -16.747465 44.451927
36.604805 -14.262234 42.411472
37.065369 -15.878334 43.878567
37.115871 -14.66324 46.075562
33.910019 -12.708141 46.873158
35.079983 -14.037373 44.150723
34.814514 -11.72905 42.90696
30.678394 -11.487391 43.299305
28.016018 -11.108734 46.687866
31.902447 -12.549294 44.225105
32.065788 -12.794479 45.604317
25.339653 -10.933605 41.932289
23.078686 -10.982273 44.743423
24.225601 -11.786304 42.88129
23.23558 -9.7669601 38.548141
21.35067 -11.224445 42.181549
21.44772 -10.743839 39.489059
20.153809 -10.277519 40.494278
15.472033 -0.85836697 42.468731
14.075486 7.4182863 36.602257
13.749012 9.195713 29.827393
15.781376 5.6770463 28.846096
20.718395 -6.0707912 31.723709
18.019257 1.9039268 28.184856
20.717915 -10.178329 35.910271
20.440975 -7.968153 35.902245
19.113365 -6.4378319 38.648266
18.760735 -7.9864731 39.617527
21.374817 -2.2943735 32.947998
20.597479 -5.585659 33.411839
20.321796 -3.4659328 30.140585
19.976503 -2.2150469 31.378773
18.837536 -0.12513351 29.564747
19.959148 0.68894005 31.485371
18.438223 4.9536324 30.625893
17.514704 4.1581326 30.134811
16.729805 7.9161062 30.834145
15.44922 7.611619 30.284588
18.399837 13.289237 31.202679
16.124634 9.676033 31.707281
14.029799 10.0324 31.879848
16.078993 10.119493 32.839703
12.917899 11.1723 33.826748
14.241607 9.4092064 34.048645
16.088499 8.9293003 34.372448
16.012119 6.7086191 35.715836
16.471352 2.8939528 37.337921
16.88385 -2.4089003 39.192799
14.863199 3.9165001 38.342697
16.612152 -3.2065067 40.268089
17.686867 -1.2059336 38.406265
36.22065 -15.749899 58.998497
34.8778 -23.056999 60.624096
31.607464 -11.023233 56.212864
47.857708 -28.646721 54.00008
43.802658 -19.779121 53.018978
43.029564 -24.532825 55.16357
42.171558 -15.972523 52.857372
39.115776 -8.7090607 52.469536
40.210064 -10.429113 51.686722
41.928913 -11.752113 51.198925
38.896317 -7.4021797 50.224686
36.283226 -5.4614601 49.991985
34.71669 -5.4134274 52.751492
32.780006 -6.0623665 52.230099
34.011364 -7.7319336 55.096565
32.521088 -9.2737789 54.990913
33.481564 -13.750629 57.251274
34.395428 -12.744461 57.389038
33.154549 -16.944599 58.567295
35.079075 -17.410353 58.202244
37.101204 -20.144514 58.724884
35.879169 -21.398642 58.91666
39.391781 -24.013561 58.441341
38.766777 -25.627754 58.759941
41.584999 -27.0765 57.327103
37.242241 9.1422129 26.257111
34.184029 7.5936394 17.839439
29.064369 6.9484787 28.044619
28.182341 5.1599331 30.416172
38.9571 9.752594 31.77039
30.458 6.2845926 34.10284
29.146959 5.7603989 32.303741
28.875828 5.7113795 29.082209
30.119381 7.3960733 32.15575
34.248604 8.0922451 33.249313
38.408524 9.9032516 28.002752
34.970623 9.3140125 30.791132
36.541328 9.0260391 29.672838
34.543686 10.495619 27.910818
35.464478 9.3422394 26.038038
35.880035 8.6124268 22.596725
37.422058 9.2031717 25.235069
35.817787 7.6898189 17.349819
33.722042 6.6755128 14.371213
29.648453 4.5227933 15.011043
28.20496 3.6708994 18.15679
27.782995 3.6629667 22.270336
27.41275 3.8817973 25.194546
28.519447 4.7791619 24.11668
30.694374 4.1000261 23.791136
33.110138 6.7609057 35.071815
30.883259 0.40565872 47.104019
35.799076 7.7609854 34.045715
41.02066 3.3013716 42.689774
40.117676 4.9178858 40.899864
37.730598 6.3300533 40.776871
37.509163 7.2548923 36.873432
39.107849 6.7269526 38.344223
36.026909 7.5675526 38.203758
34.354839 7.4053383 36.608582
32.624367 7.1583662 37.508465
30.650507 5.7011251 38.226307
39.011116 3.1438465 43.940903
40.383602 0.39677238 44.957932
38.656212 -0.28697777 46.579395
38.81311 -2.7799616 47.367058
37.637325 -1.7505741 47.758083
35.063362 -3.1167135 48.728874
35.965923 -1.470293 48.358223
34.241478 0.16447926 48.254059
32.405304 2.7376065 46.809891
31.700672 4.4886723 45.766712
29.258766 2.7990656 44.841415
31.2509 6.0749006 43.182045
29.326218 4.6718202 41.247387
30.551867 4.3602653 43.415268
31.498795 6.7636919 40.175503
28.751759 5.6657028 23.517342
28.992937 4.9486995 19.384409
29.740582 5.5696335 16.384632
31.435875 5.5095854 14.344768
32.736881 7.2110333 16.180634
34.176235 8.8923264 20.820225
33.758438 9.9835987 32.367058
32.65992 9.0807991 33.545929
31.197943 8.718112 33.57061
32.959152 13.905352 38.442822
32.23246 10.820359 39.561268
27.643711 10.852612 39.370792
29.124693 11.557292 40.280651
30.465218 11.856218 39.666187
31.370646 9.7058458 40.838577
27.783241 10.302041 44.026581
30.57486 9.4454584 44.583366
31.171827 7.6168261 47.741287
28.583567 9.5199671 46.899162
30.064772 7.7355728 50.132763
32.410172 5.5862722 50.212807
32.538803 4.8407059 52.600994
34.797245 2.9230461 51.226025
35.740669 1.8602724 53.68811
36.664001 1.9639053 52.116241
36.784454 1.0923519 49.965973
39.980392 1.1490955 51.466846
38.057991 1.2962894 48.693604
38.647728 2.5120254 47.053635
41.351032 2.1500311 49.521481
39.783401 2.7288055 48.731144
35.301903 11.360506 40.615997
38.563938 4.8113394 44.859879
39.554619 5.7541189 45.804138
41.065971 5.399971 46.39991
37.374901 8.4084988 42.640697
39.513145 11.034745 42.836624
38.116451 12.638952 41.640923
37.473545 10.584445 42.737225
35.224365 12.635565 40.599213
33.534004 11.737306 39.682846
35.965424 13.974925 40.080086
37.16053 15.89514 32.292137
28.261133 8.3432522 22.956493
30.727659 11.758879 15.40398
25.828772 9.1203127 32.36388
31.392351 13.345351 36.842571
32.484951 13.415951 35.879921
33.492531 13.533031 33.646732
34.080997 14.750098 35.3246
34.03091 13.081172 29.951271
30.197905 10.996206 34.714745
30.197651 12.662653 37.227173
28.034451 11.066552 35.132122
28.209253 9.5657921 30.881742
29.23101 8.7604523 30.826361
26.32851 9.3608131 29.40799
28.237871 8.5194321 26.309341
25.587669 9.3481398 24.62265
27.506844 9.8198519 20.602783
26.569372 9.334693 25.504122
26.136234 10.114426 20.172176
28.336992 11.148812 16.252113
28.900539 8.9020977 19.118008
29.598858 10.404579 17.113079
30.50515 9.178299 17.207199
33.330124 12.594446 17.659746
31.62501 9.7349796 17.61548
32.939953 10.245493 19.517092
32.687103 11.340794 18.916294
34.209072 13.245253 23.76815
34.816616 13.721266 22.334366
35.225021 14.873058 28.937159
33.901093 11.961412 24.161713
34.413227 14.069839 28.527439
64.770264 -12.573534 40.542366
47.037933 -19.089367 38.168335
43.124073 -17.182928 39.746361
44.714909 -14.67132 40.49118
46.860271 -14.255463 41.76825
61.001389 -10.848307 42.547798
65.05217 -10.836535 41.385468
65.22377 -12.603916 47.200775
59.238003 -13.756193 43.006493
62.835236 -13.504658 42.051125
55.559959 -13.622667 43.18325
54.933212 -14.877653 46.013306
44.054379 -15.511726 45.95945
49.72374 -21.78056 38.491879
50.291809 -23.013287 37.558842
66.462013 -17.014389 40.262894
41.597664 -20.955032 39.503716
61.595989 -14.822807 44.9272
60.182014 -14.29686 45.939796
59.458652 -14.872847 44.11557
64.814346 -15.705956 43.006077
64.537712 -17.007189 41.240845
63.640663 -15.060034 42.232018
63.153679 -14.742512 40.997501
62.575123 -16.955374 40.847034
61.334282 -16.371113 40.090706
61.035576 -19.22382 39.580009
60.049911 -18.442886 39.86219
54.164841 -21.95166 38.26543
50.630478 -19.19062 38.108662
53.934998 -20.727802 38.863598
44.519249 -22.660946 38.22847
44.896217 -21.72768 38.64904
40.40313 -21.597466 39.267632
41.113377 -19.792919 40.734509
43.260056 -17.702093 41.579498
40.454765 -19.495859 41.844048
42.992565 -17.741579 43.878784
46.241238 -16.592236 42.621696
45.365944 -17.275793 43.513252
48.324459 -16.229906 45.331982
53.174294 -15.332407 44.021351
51.321194 -14.948355 43.198925
52.463303 -15.651403 45.038738
67.38253 -7.5151672 54.293331
71.571594 -5.0004063 57.717289
69.67495 -5.7778072 57.555588
67.604858 -9.6800213 50.681877
42.16761 -26.295521 56.522377
38.888405 -21.36512 59.414078
34.705765 -10.415634 58.013165
34.457733 -5.9836674 55.201981
35.654182 -4.3728142 53.514801
36.995407 -6.1498814 52.144398
41.606812 -15.036325 53.703468
42.846176 -21.70776 54.808739
30.077099 -6.667902 60.997299
34.275612 -15.666626 62.716171
46.75552 -19.970842 57.588455
42.215622 -17.735249 56.475754
43.132866 -19.84454 58.497757
42.219742 -22.133888 57.867504
44.121704 -22.509415 59.87368
42.140625 -23.148148 59.635651
42.334652 -24.136505 61.112095
41.089561 -23.436829 58.961369
38.986465 -22.245934 62.117264
40.282391 -22.335392 60.688103
37.508366 -18.021835 60.025269
34.882362 -12.925632 61.617065
35.789444 -13.481485 60.379711
37.030251 -17.042101 61.417
33.728798 -8.3591995 60.423496
34.342529 -8.2330666 59.369431
31.903664 -3.3970337 58.734062
33.825714 -3.5723896 57.574692
33.631348 -0.11865425 56.056427
34.753876 -1.2378197 55.872658
36.705482 -2.8005133 54.74485
37.259247 -1.1617546 54.841724
39.703186 -3.3728142 54.624504
38.380962 -5.7088337 54.280563
40.627144 -10.883953 54.849976
41.120941 -10.222794 55.758652
39.024464 -4.5614338 54.896263
41.5438 -6.8313999 55.186047
43.698154 -15.338215 57.336685
42.364113 -14.560133 56.807964
44.651524 -15.917427 57.219311
62.982613 -27.014587 53.532642
59.849281 -29.944721 56.01376
59.207363 -27.857132 56.073013
52.597576 -25.53466 57.266235
76.191139 -2.1103878 61.123112
69.881966 -6.2715359 54.932564
68.444519 -8.0365486 52.622353
72.808334 -2.1401701 54.699326
67.848167 -0.49694157 53.154358
73.151886 -6.7138824 46.420818
72.699028 -6.7949677 48.82333
73.297401 -6.2846127 47.961281
76.200119 -5.854948 48.761349
76.133873 -4.9712486 51.891453
79.937401 -3.5450211 53.763474
77.816376 -4.170661 52.313839
81.455513 -0.33992767 59.259468
78.274353 -3.239522 55.090878
79.502396 -1.7372007 57.752899
79.943237 0.08001709 60.497814
77.937202 0.8092804 60.407875
76.754585 2.3481178 60.092514
75.061676 0.53143883 57.581139
75.383713 -0.21332932 58.166073
73.106819 0.94585037 56.027851
71.060921 -4.1387463 51.629948
71.196228 -0.75117016 53.105633
70.613083 -3.339076 50.709728
70.104118 -6.3237457 47.344646
69.965393 -6.8103867 49.146111
68.604416 -3.7742472 48.853848
69.936989 -6.4269867 45.988213
55.674206 -27.924118 56.582275
63.251553 -34.518448 50.592072
49.488029 -32.945663 55.856831
53.6731 -35.861099 56.755699
52.374832 -33.288666 56.696732
52.04393 -36.258064 57.61713
54.939598 -35.205299 56.842499
58.383266 -36.760132 56.878868
58.879433 -38.179764 56.653133
59.050999 -39.300098 57.202698
63.521027 -39.802364 56.109127
63.089134 -38.532265 56.146633
66.43396 -40.834034 55.952461
66.521004 -38.850891 54.357697
65.705505 -37.412582 53.557739
66.872231 -37.701965 52.490532
63.544777 -35.887619 53.035606
57.614666 -32.362934 51.121765
59.595463 -33.712532 53.144962
61.880547 -34.794655 51.606579
56.215031 -32.325768 52.963131
55.057934 -29.928268 50.835335
54.514 -31.250099 54.298698
52.059498 -30.9058 54.130096
51.881966 -30.202034 55.636463
49.935329 -31.033566 54.977631
50.058868 -30.164932 53.586369
50.939201 -31.1105 56.2924
48.153469 -31.705536 55.646069
52.4062 -8.0410023 77.682755
53.295914 -5.2434883 75.606544
53.874458 -4.0754414 75.681763
51.866432 -4.6775675 74.461632
53.287487 -2.2384157 71.32016
52.076519 -2.9902763 70.704536
52.899933 -2.9833603 68.288574
76.784798 -5.6946993 57.665997
68.803802 -9.4909019 48.900997
75.800247 -9.3912086 53.210991
75.659889 -6.6867867 54.424408
75.947762 -10.202435 50.847965
72.905029 -8.6893616 50.912537
73.121361 -10.553122 49.985878
70.464211 -9.6917267 49.223969
69.030792 -11.413181 48.589619
51.63131 -26.654724 57.844372
58.0345 -33.763901 59.005501
54.225628 -32.715965 58.47863
54.555931 -32.401466 59.499733
50.723835 -30.237976 60.273716
51.474472 -30.240738 58.516262
49.915947 -27.688999 59.370197
50.291634 -26.825867 58.836731
69.055603 -38.728592 55.627346
72.89431 -30.05909 51.682343
65.462715 -36.721878 56.542435
63.382393 -31.757706 56.246502
68.516083 -29.014412 53.062702
63.859844 -29.085556 55.443726
58.179962 -37.66753 63.166962
62.177097 -35.361 58.261196
58.502464 -33.791134 60.834663
67.822609 -31.436584 53.691391
71.507446 -33.110954 52.659874
66.148499 -36.002502 55.787949
64.964302 -40.226303 58.617001
60.913662 -38.142834 60.593563
72.263863 2.474966 69.441864
73.015732 -4.3763752 59.715824
71.055557 -4.1018276 60.79417
73.974243 -0.91539383 63.096302
80.361671 -6.0802536 56.95784
80.083282 -9.4408836 54.771416
76.341179 -8.4254742 55.747917
70.715935 -0.35778046 65.373413
78.415466 -2.8187408 59.944859
74.839523 1.8033333 66.767525
78.064041 -1.5459881 61.345612
74.114563 4.1809635 72.153061
77.25396 3.1550636 68.528458
79.742462 1.2420559 64.773254
84.247925 -6.634655 56.719746
79.150246 1.9436989 61.213894
81.868851 -0.84631538 61.963882
74.478127 6.042532 71.692924
75.031059 6.3024654 70.073257
75.914894 5.8094978 71.15979
77.703033 5.546629 68.265228
80.901482 1.9607315 64.239227
80.855904 2.4384842 63.449085
83.418106 -2.0741253 58.575672
83.28981 -1.6987362 59.785362
83.139557 -3.2592297 59.488667
84.60379 -5.1982813 56.205917
84.395645 -8.9978065 55.185688
52.202347 -11.201548 80.19162
51.366863 -14.011335 77.007858
50.692394 -14.302799 82.508789
51.789204 -14.110294 75.013695
54.221584 -8.1709137 77.942451
55.458813 -5.896389 81.169495
53.764698 -8.1961021 82.304298
52.139866 -11.032335 83.650261
50.334995 -15.281702 81.355095
50.182697 -18.902901 75.407692
49.998398 -17.678699 77.956398
48.903305 -24.229515 78.186287
53.798233 -6.5126629 86.610168
55.864494 -5.4406023 85.604645
51.620331 -9.4755669 86.886627
52.823662 -10.131035 86.514763
49.9142 -14.583101 86.7911
47.720097 -18.656998 86.029495
46.805065 -21.759434 85.178665
46.260765 -25.418034 83.893661
47.433365 -23.395432 85.045464
47.473969 -28.313133 82.578865
48.083084 -27.772079 81.511414
49.175762 -20.056236 81.02076
50.595097 -15.085901 86.140495
49.395164 -19.002533 85.371162
48.708561 -23.419533 83.81176
48.668839 -27.680588 81.671906
71.942505 -36.979992 53.772995
62.057632 -41.307663 61.603233
67.342827 -40.007366 54.714428
60.142136 -42.152664 62.334534
75.284416 -33.981979 51.952137
61.425133 -42.096268 60.538231
76.916107 -31.886787 51.205139
76.508041 -31.901455 49.588676
77.152985 -33.694607 50.203247
76.778976 -33.508419 49.394905
75.347488 -35.658207 49.988647
71.390427 -38.486565 52.380932
72.625511 -37.717384 52.738091
69.682907 -39.582794 54.173046
67.973297 -40.158802 56.1651
63.986099 -41.800102 58.989197
59.563496 -41.260098 64.079895
2.5861697 -9.0819321 7.8728681
0.87964725 -10.903572 12.353647
-0.38639164 -10.040012 10.366388
4.9529982 -7.4437962 6.325098
4.3116875 -10.357841 10.197387
27.613441 14.969132 -0.48964596
25.085976 17.082617 -1.544713
22.800751 19.270294 1.8343925
