# .PCD v0.7 - Point Cloud Data file format
VERSION 0.7
FIELDS x y z
SIZE 4 4 4
TYPE F F F
COUNT 1 1 1
WIDTH 1569
HEIGHT 1
VIEWPOINT 0 0 0 1 0 0 0
POINTS 1569
DATA ascii
13.48629 -48.985714 21.081661
16.175461 -50.106853 13.867617
12.49623 -49.969994 22.651346
11.12453 -51.163338 18.798668
9.0621901 -49.670387 17.518866
7.0767298 -47.853176 17.266659
5.79494 -45.923618 18.517731
5.8709302 -44.235744 20.402756
2.3778801 -40.865204 20.235361
-3.6014996 -29.369907 25.168652
-5.8858004 -29.973595 21.015921
-4.7031002 -28.507038 25.132729
-6.1336994 -25.741806 25.814701
-6.7548008 -22.110714 26.699978
-5.5783005 -21.948238 29.423338
-7.1005001 -22.174789 23.887936
-5.2904997 -18.723757 30.826126
-6.0415993 -18.922781 26.732798
-3.8625002 -15.802937 32.025955
-2.2936001 -15.223442 34.262611
-0.2329998 -11.712673 34.186211
-2.9577999 -14.329496 30.732853
2.2624798 -9.8434296 35.462608
1.7340603 -8.7774124 30.332256
3.2650099 -7.0886478 32.467648
8.7095404 0.036967278 31.76543
5.5125899 -4.0546389 32.076149
6.7109499 -0.95516205 23.327925
7.0344501 -0.17898655 26.95586
8.1056404 0.55550957 30.296162
2.9636402 -13.366938 13.704365
4.0647302 -16.689964 12.04214
2.6606798 -15.812029 11.841154
0.26508999 -20.935789 9.6089439
2.6751099 -17.463118 11.258348
3.8077402 -17.896702 13.549772
1.9650297 -21.036533 12.794616
0.11915016 -18.235327 11.547556
-4.3907003 -22.234249 11.88118
1.5519304 -20.696112 11.106444
-2.7185001 -21.967108 9.9973822
0.96074009 -23.413582 10.68784
0.28732014 -27.246151 7.7788448
-1.6584997 -23.46077 7.9779339
-2.8922997 -27.854885 5.1569571
-4.0562 -26.215145 7.3172288
-0.90400028 -25.933945 6.7305865
-5.6866999 -28.399094 9.0070391
0.68585968 -33.111778 2.7196798
-1.2409 -30.231506 3.406764
-4.3291998 -32.935543 5.4433556
-2.5480003 -32.835468 2.2809334
-3.7924004 -31.391941 4.1928134
1.80793 -33.201782 4.9152646
-0.83710003 -35.039795 0.55539513
-2.0271997 -36.320362 1.6777153
3.78017 -35.95845 6.9896698
3.8784299 -37.873432 2.3089943
0.39122009 -39.133957 -0.97968102
-2.1431999 -37.949764 3.2380614
6.6779799 -40.772156 5.5069351
0.76603031 -36.931664 -0.51129055
-1.4287004 -39.951046 4.8322001
0.82746029 -36.890808 21.746552
1.4949398 -35.840096 21.200899
-1.0843 -33.109829 23.284365
-1.2983999 -29.729065 24.076771
-2.6906004 -28.760201 25.428616
-1.0902996 -26.830124 24.343983
-4.7960997 -25.214157 27.726786
-2.2104998 -25.178658 26.7775
-0.44709969 -23.36311 24.745625
-2.6211004 -21.933271 29.37978
-3.7140999 -23.304214 29.007687
-4.1245003 -19.047718 32.008751
0.29269981 -20.178757 26.500162
-1.0306997 -20.381342 28.824959
-2.5518999 -17.597534 33.003029
-0.85919952 -17.921465 31.508575
0.25487995 -13.032486 35.241425
1.3924599 -12.992989 34.8619
4.0439701 -12.48707 32.471634
3.62182 -9.5246105 35.473412
4.6477399 -10.200867 34.428871
7.3365202 -6.4025974 34.172417
5.9039998 -5.9275389 34.824532
7.8667898 -4.3035049 34.002533
14.0471 -4.2227192 17.911716
12.92116 -0.38523006 28.378792
15.40236 -1.5979662 14.476474
14.27876 -2.3552446 21.978577
10.586105 -1.9892902 31.816257
9.4571266 -0.8082428 32.548798
15.89469 0.20769691 17.094599
14.08707 0.16057682 25.633101
12.11312 1.8959713 30.107834
4.31251 -39.830254 19.940098
4.0323 -41.114552 20.622004
7.1545 -41.942242 16.883322
12.4793 -47.390163 17.791744
15.34701 -49.634991 17.240509
15.74047 -50.988388 22.832043
15.51497 -50.146423 20.112614
18.68956 -54.383545 27.282589
22.746799 -55.763985 26.275562
21.7509 -54.377815 18.622791
24.6199 -56.94381 15.657543
21.370201 -55.647804 28.447828
19.795219 -59.956795 21.211765
17.55324 -57.895752 16.351561
25.0651 -57.159393 22.44759
26.2008 -59.309914 11.501657
21.0418 -57.580978 2.4584446
22.17 -60.105469 5.4545336
24.391399 -59.052353 32.778271
25.2075 -58.126892 28.905521
28.688801 -61.482147 28.744967
26.837299 -60.545433 32.38784
28.3874 -63.754593 36.007771
30.1964 -64.441315 32.674122
28.712099 -66.450684 38.782192
31.2087 -68.598816 37.683418
32.453499 -68.757339 33.516857
33.1731 -75.174599 18.558632
30.8638 -71.785858 15.786145
29.3729 -70.90229 15.518021
31.415001 -67.897881 16.268227
27.821501 -67.702202 13.312271
28.9874 -67.842659 13.120955
30.323601 -68.683792 14.284462
31.084999 -68.642807 15.326028
23.7367 -63.550163 12.147074
25.8866 -64.603249 10.615269
25.305099 -62.213112 7.740654
23.6028 -62.115143 8.3083668
27.139999 -64.099922 9.8849716
27.510099 -62.273254 10.307189
19.531929 -56.398865 28.547197
20.602001 -60.278191 9.4586582
24.719101 -60.360458 6.4617128
18.867561 -58.064018 24.34235
19.680069 -57.66629 27.873541
21.3211 -61.603806 25.202078
21.990501 -61.194229 30.110018
22.4641 -60.198677 32.188519
23.1406 -58.981323 32.667454
24.243301 -64.407005 34.037121
22.9307 -63.685387 29.37513
26.038099 -62.655304 36.311192
25.7146 -63.671356 36.792538
28.127701 -67.882805 39.910519
25.166 -64.129356 36.261299
14.86235 -55.127991 17.330069
15.20111 -54.651649 20.842937
15.60448 -52.012001 24.595585
14.78537 -52.24976 24.04594
15.79479 -53.898586 24.143995
18.277229 -56.482567 0.86632061
23.5214 -57.911713 6.2736359
18.758961 -55.198563 0.94921494
14.86661 -54.289665 -1.0975084
16.37491 -54.2901 -1.0227976
13.26531 -53.618698 -0.61620903
11.8191 -53.009945 0.59833431
6.9023499 -48.755486 -1.2984619
10.877968 -51.448765 -2.296237
18.800491 -54.474335 2.0798273
12.33529 -48.726654 0.33870411
14.381701 -51.760624 -1.3237114
11.3965 -50.542904 -3.2165194
7.8712397 -48.519855 -3.0626812
6.71277 -46.509949 -3.482069
11.22273 -49.148098 -2.3664103
7.65096 -43.310047 1.1778688
3.8032598 -44.489048 -2.3902082
3.4208598 -42.593307 -2.6560392
7.9608097 -46.539955 -3.210535
2.28686 -44.642059 2.0107222
0.17825031 -40.844318 0.3294096
3.5992398 -39.784565 -0.88191891
6.3323097 -42.846676 -0.83578873
3.1213899 -44.661533 -0.98947525
4.4956298 -42.711407 -2.6635447
13.26393 -48.44046 23.052692
9.9417944 -44.92947 17.145096
12.078279 -43.69117 22.330219
8.5096502 -45.044739 25.134712
5.4640398 -44.134789 21.962326
8.4302597 -50.835625 18.751635
6.7518201 -49.772369 23.967939
9.7004538 -42.724274 22.564053
12.36563 -45.301308 18.164452
0.48180962 -23.001453 -3.0055408
25.7833 -27.832264 11.048058
4.90624 -5.3286982 7.5276403
13.76735 -44.692371 27.075499
10.694542 -47.109615 28.506428
7.1603298 -49.949844 31.197624
5.9706001 -49.808849 27.93153
12.47655 -47.110161 31.080946
6.7902098 -54.658859 41.513458
3.8281102 -51.368511 26.865772
3.6526599 -53.33712 35.827049
-1.9615002 -55.462669 31.132671
12.96136 -52.523987 42.542168
8.6232395 -57.501144 45.554913
19.230179 -51.343491 42.896156
0.82616997 -54.169868 33.706642
16.468651 -53.507252 36.740063
6.9748001 -55.629364 31.048252
12.93462 -54.78479 44.775684
11.39594 -55.57209 34.843304
-5.8204002 -58.688683 32.759537
-4.3479004 -58.122429 35.1549
-3.7489004 -59.551506 38.612686
-9.4095993 -62.633324 34.590126
-11.7561 -66.917313 37.212677
-11.658001 -65.602516 34.718674
-9.5981998 -66.763092 40.190437
-14.9174 -72.070244 36.263962
6.78618 -66.504181 47.954834
6.2379198 -66.059944 48.594002
5.51091 -64.939713 48.430496
7.1610498 -66.212906 46.260311
2.9411602 -65.932693 48.420166
10.100545 -61.204735 43.954418
9.3704834 -62.473885 45.73465
8.9981604 -61.144981 47.191116
6.6588802 -60.819366 46.976105
17.38295 -54.216972 41.591003
13.68807 -57.362946 42.890335
10.180509 -60.758446 46.443436
16.00238 -53.801304 44.375118
-0.34759998 -57.074524 29.242235
1.9047298 -57.104637 30.044168
13.36772 -56.664749 39.759834
13.44102 -57.577492 44.51609
15.10427 -55.643906 44.579491
10.470585 -58.397537 46.367615
4.4260201 -58.282768 32.759247
-3.5797997 -58.06424 29.811382
-6.9484997 -60.549126 31.146626
-9.4591999 -62.906975 32.395523
0.96113014 -60.414253 32.771866
-4.1885004 -60.553238 30.728832
-2.2413998 -63.441811 33.467766
-6.7005005 -63.839409 31.939594
-7.1620998 -65.891853 32.800194
-12.594801 -67.682755 33.831627
-7.3341007 -62.283478 31.344702
-11.566799 -67.399239 33.122238
-5.2124996 -58.307137 30.998791
2.4347901 -52.844719 27.099129
3.5864501 -53.457783 26.976139
5.6452699 -53.930763 28.029503
6.7658997 -48.946499 24.724758
10.737283 -49.901089 24.322306
10.252039 -52.460808 28.23695
4.0775299 -52.235291 26.16951
8.11726 -50.299618 24.198044
13.7791 -46.916504 20.812599
10.779628 -43.724495 17.869356
16.00161 -43.540688 16.614607
12.64623 -42.065998 14.142279
14.88471 -39.526981 10.85948
11.66058 -37.421734 8.5839472
12.34004 -36.063007 6.4611974
9.3940067 -32.815434 3.3666487
9.6622133 -31.790848 1.8026695
11.16045 -31.275444 1.3706083
11.82417 -28.668697 0.092432976
5.66676 -28.037323 -1.117588
7.2904797 -27.780937 -1.6382189
10.373423 -26.019146 -1.0449362
5.2472401 -23.500134 -2.5937901
8.9102602 -23.445503 -1.0948029
4.0499101 -24.788589 -3.0624714
-1.3782997 -20.705822 -2.8992577
4.2241201 -21.18227 -2.0965271
-1.6469002 -18.250446 -2.098361
-1.6576996 -12.50495 1.1156712
-4.3156996 -17.868851 -1.6296024
-4.0440998 -13.797796 -0.088521957
-6.1401005 -13.439957 0.41712093
-5.4445 -9.6479664 1.7075529
-2.7706003 -7.3702831 3.0751443
-4.8443003 -4.6955547 3.530623
0.76671982 -3.6848011 5.6003103
9.1678143 -9.811142 8.8058176
13.68211 -13.480614 10.825294
7.0201502 -13.724642 12.761271
15.65751 -17.318781 12.717869
17.40889 -17.839226 11.601015
15.94927 -16.977165 9.7775879
13.62226 -17.943312 12.32314
16.100941 -19.217724 7.0570354
19.367851 -20.53594 12.161662
17.21034 -20.637091 12.279639
20.5651 -22.433365 12.74504
24.066601 -24.511257 11.4607
20.9324 -22.339031 8.9016285
20.399399 -20.966602 11.056445
24.585899 -24.936913 12.955158
24.442101 -25.417233 13.944953
21.9235 -25.716671 14.215683
26.368099 -29.093292 17.332775
27.355301 -28.309368 13.362173
29.033501 -34.472939 16.498798
23.098499 -30.287567 17.385563
26.857401 -30.65266 12.152899
26.541201 -31.128906 19.329395
20.518 -31.963802 17.298206
29.2027 -30.22496 17.076651
29.9063 -32.600899 17.167969
26.693399 -35.898815 14.921385
30.192699 -32.921551 20.90147
31.308201 -34.729248 21.931541
25.846199 -34.322674 22.336929
23.2498 -35.043217 21.805435
29.042101 -34.873371 23.885281
31.2386 -37.115383 22.201694
11.39384 -38.775173 12.324406
11.15124 -37.487198 9.7238016
10.852432 -35.658981 9.4919834
9.6798239 -34.140549 6.0906353
8.97752 -32.267555 5.5961814
7.1666403 -29.672646 3.319087
7.2610302 -27.511124 4.6112733
6.3853102 -29.405361 0.97079754
5.1173601 -24.405632 3.8597937
4.1182799 -26.261101 1.2989874
2.24999 -25.073772 -2.3601799
2.45503 -25.430279 -0.98091888
0.90009022 -22.83614 0.74056625
-2.4342003 -20.826929 -1.4754963
1.4354 -21.716442 2.6333885
-4.2234001 -17.503773 1.3253956
-3.6669998 -16.110426 3.6489425
-5.6117001 -16.321859 -0.043132782
-5.8523998 -13.655411 3.3881721
-6.8959007 -13.036333 1.5475063
-7.2672005 -10.817688 3.1049027
2.9302602 -8.1303139 14.001335
5.7138901 -6.7865009 15.989836
-0.38640022 -5.0231895 13.307526
-6.7551994 -9.4108353 5.266058
-7.3435001 -8.6777287 2.8540926
4.0327301 -4.3725882 16.159369
7.1354198 -1.4931021 18.399189
-6.4176998 -6.6611195 7.1568909
-7.3764992 -4.4054966 6.1511564
-4.0620003 -4.0522366 10.674056
3.37567 -0.61531067 16.977665
-0.67329979 -0.00065231323 14.395554
-4.6938 -0.62124729 10.760809
12.35037 -39.407238 15.626722
11.7979 -41.406216 13.932432
11.38109 -41.478989 16.215969
11.17525 -43.252979 19.551214
13.76874 -40.694729 19.706059
31.181601 -36.246346 25.031773
31.914101 -38.074036 26.104515
27.2922 -37.160187 26.268995
29.861401 -37.562634 27.216707
28.1731 -39.008732 19.78657
31.322701 -40.466316 30.346191
30.0418 -40.781811 24.97727
31.223801 -41.508144 29.185814
26.333 -45.757584 37.731918
30.167801 -43.002884 29.795494
29.574301 -44.376553 33.585304
26.438499 -41.579895 31.857521
30.112101 -43.215782 33.718563
29.162901 -42.503857 33.600548
28.115999 -44.689938 29.835659
23.4375 -46.627457 38.462364
27.4151 -46.251274 37.5448
27.1217 -46.963238 36.518337
27.1824 -46.669106 34.390839
21.471699 -50.585068 41.876259
25.003601 -48.501091 39.260139
22.515499 -48.844891 40.984436
19.65345 -52.475163 40.140099
15.029961 -2.27141 12.236244
13.52732 -5.466877 14.964061
5.0287499 -47.810356 19.394932
9.0146627 -60.329277 8.7151337
-6.2994003 -67.324203 14.488532
7.82056 -49.97916 17.836296
5.8159499 -49.822891 22.431187
8.2517605 -42.955551 27.397596
12.886869 -38.946739 27.183439
10.965259 -43.491299 23.406147
13.131371 -39.753265 25.365553
17.309771 -33.468216 27.96196
20.0343 -29.620026 28.499393
24.003399 -25.361668 27.000771
23.3452 -27.379696 26.234467
27.9062 -22.60154 23.440683
24.1105 -23.516563 27.363989
26.0187 -20.88274 25.267866
22.3785 -21.456467 28.179445
29.354 -21.334951 21.065449
28.978201 -19.992918 21.880001
30.9335 -18.801092 17.643967
27.275499 -18.577682 22.610405
29.3808 -17.023855 18.730278
30.558701 -16.189947 15.82348
26.9424 -16.389462 20.233057
27.0371 -10.750298 11.726176
30.3948 -13.605583 10.864035
27.3074 -8.9979076 8.861578
26.674299 -6.4590378 5.8013563
23.687599 -5.8867245 9.4242954
24.378899 -3.8827744 6.591588
19.50449 -2.3699837 9.8361263
11.58436 -8.495945 17.770601
9.3086329 -11.539967 14.813028
11.15519 -12.147514 21.335875
9.6867819 -15.19268 20.283737
9.9676867 -13.99963 23.402832
8.7150002 -15.70425 23.700428
9.0049753 -15.209623 24.231453
10.084787 -18.589268 30.203308
10.074289 -18.327375 23.702887
8.4904299 -17.950319 25.520515
7.8291302 -18.108135 27.422516
7.9217997 -18.738419 29.659752
8.2541103 -20.432131 26.720001
6.0677199 -20.745165 29.99745
6.2223201 -21.543051 33.0383
5.8551602 -22.067467 29.447409
7.8202801 -21.901323 33.676201
2.9744601 -24.219959 34.343567
3.9647899 -25.268841 30.499912
2.2695498 -25.543144 32.178951
4.1431799 -25.429493 35.803078
0.98227978 -29.207794 31.213341
0.67901993 -27.177254 35.958534
-1.6308002 -29.745373 33.250744
1.9808397 -24.999825 33.565468
0.31750965 -29.602123 36.777245
1.3053503 -31.520458 29.802296
-0.16849995 -27.208466 35.093918
-1.3157997 -36.084118 28.930828
3.2758698 -29.608456 36.587563
-2.2142 -30.007801 36.391327
-5.4668999 -33.952213 36.360298
-3.8470001 -32.735943 32.955669
-4.9277 -35.568295 31.561319
-4.2271004 -31.757523 34.681892
-5.0220003 -32.629078 35.767326
-3.3599005 -33.22263 36.844055
-0.80589962 -32.88945 36.764084
1.6284304 -33.786366 36.095573
14.02565 -35.521595 24.642139
16.021679 -35.910801 25.974771
19.66448 -31.844887 26.002626
18.688999 -31.667603 24.917068
26.3787 -24.184616 22.248449
22.332401 -27.057915 23.341793
23.3645 -27.77404 24.74667
25.2819 -23.834282 21.281057
22.435699 -24.546158 21.858334
31.159201 -16.189247 13.750257
28.334499 -21.755613 19.688141
30.449499 -18.0411 14.812082
26.7707 -20.855045 18.190769
25.415901 -19.222223 16.09869
28.4704 -15.590054 10.64393
25.4548 -14.181307 9.0599394
30.1852 -14.441269 10.098753
28.2131 -12.37928 7.4034443
24.287201 -9.7112579 5.0981345
28.8771 -10.998308 7.2444458
10.276736 -8.8624077 10.344111
26.867399 -9.4555473 5.2226734
26.837799 -7.3741493 4.7307391
13.27781 -7.2329826 6.9065304
20.864601 -7.736372 4.3534355
10.685018 -3.0876064 5.2831297
16.31189 -6.1624241 4.6548214
7.6266298 -5.771862 9.3581753
19.89908 -4.090517 2.4522667
6.9633503 -2.1443901 7.0429277
14.07985 -2.3202782 3.3117342
23.8015 -5.1733494 2.7431879
15.151529 -36.226799 25.045872
7.50843 -39.289856 24.210739
12.65084 -39.85202 24.272202
11.00023 -39.169277 23.951868
8.5345001 -53.959698 15.481728
5.5141401 -52.132431 15.703505
7.2425699 -52.687576 15.482862
1.5259504 -49.622581 18.362988
6.6689701 -59.310303 8.993825
3.4134998 -54.33532 13.753428
-0.87769985 -57.162468 11.981446
-10.415199 -56.18956 22.091118
-3.7237997 -58.487282 19.200766
-11.7307 -57.531487 16.966196
-12.104 -58.275764 19.921749
0.99394989 -58.60199 17.481403
1.86759 -59.727493 9.1881218
4.8616099 -62.300705 6.7353916
9.7074003 -69.678864 2.3554554
8.7360296 -62.964531 6.2969036
3.5254502 -65.484489 5.0146074
10.787916 -67.86673 3.5653648
7.06113 -66.473022 3.8535252
7.8884301 -71.745377 1.5082321
11.74221 -73.985977 1.0114603
8.1108303 -75.538132 0.40751362
4.49051 -74.117889 1.4888191
-5.5170002 -76.810928 5.5376711
-8.6613998 -74.046814 12.018141
-8.3003998 -71.333794 8.6527004
-7.4943008 -69.396019 13.752893
-9.4918003 -72.014458 12.197145
-9.9258003 -71.386803 11.391006
-9.6310005 -70.78347 10.421612
-10.3978 -66.900543 14.083237
-8.9902992 -67.156715 14.538264
-10.805401 -64.51017 12.874225
-11.1579 -65.338676 13.737367
-10.2771 -61.669128 13.375652
-9.5939999 -62.845108 16.934525
-12.9496 -58.286049 19.139004
7.8923798 -60.952927 12.03466
4.6921501 -58.876717 15.46205
-10.575899 -59.492821 19.27354
-7.4717999 -59.468994 19.205368
-11.750299 -61.785614 16.87289
-12.494499 -59.598671 16.735382
6.9396901 -62.947769 11.71592
9.824585 -63.83934 8.9020901
10.660111 -64.69548 5.904417
3.47122 -62.772652 13.735879
8.0755196 -66.991997 9.2800865
11.72431 -68.991165 4.9080162
11.97069 -69.4291 3.8882723
10.22669 -68.421074 7.1045904
11.67573 -72.35331 4.7809172
8.2432804 -57.190582 13.885962
8.6999397 -56.582695 12.634888
7.4218798 -51.10165 19.822859
3.4109502 -54.755989 19.363211
3.2160301 -50.141994 23.658047
6.1691198 -56.28701 16.328547
-13.7598 -51.982738 25.366798
-13.025801 -54.270775 20.494987
-14.121401 -53.407593 23.286711
-12.535999 -49.050976 28.654613
-13.9632 -48.865395 27.933401
-14.086901 -51.004612 24.719322
-6.2794991 -42.958469 33.178375
-10.6546 -45.82159 31.494976
-12.658199 -44.612766 31.823559
-13.5147 -46.5611 28.635326
-8.5323009 -41.217548 34.458416
-11.1143 -40.69289 33.194305
-9.3432999 -39.620403 31.817348
-8.0417995 -40.377834 29.930613
-10.322001 -41.031288 34.286968
-8.7681007 -37.138908 34.707653
-4.5307999 -36.631683 36.247063
-7.7178001 -37.360855 35.800194
6.441 -47.215832 24.58527
8.76437 -47.4044 25.579784
10.953658 -45.707451 25.163822
6.1357603 11.150966 19.005501
0.85937977 9.4195871 9.0148916
8.42904 11.671347 19.4816
1.2686996 5.3746195 8.5751629
4.6961098 4.662528 4.5366926
9.3833752 8.2530861 2.4989505
13.08966 8.4703407 3.3976278
17.9641 9.584177 10.147978
17.30899 10.31245 14.333885
16.853489 6.6569748 15.847761
15.74693 11.180431 16.700211
13.47466 11.080761 18.527275
11.04417 11.193745 19.412851
3.7621598 11.331974 17.564232
2.0595398 10.584743 15.734673
0.77422047 10.081716 12.896891
13.45241 11.559425 18.843937
26.448099 11.551483 18.798893
18.199741 10.158163 10.896986
27.426701 10.161078 10.913522
16.899799 9.4599667 6.9410739
15.36183 9.10536 4.9289417
10.975059 8.65133 2.3513136
2.2066102 9.3120871 6.102757
0.66802979 9.7224302 8.4258242
0.64593029 10.562231 13.188571
6.40415 8.7606821 2.9750299
4.1186199 8.9714565 4.1701055
17.75725 6.2354078 13.456934
15.38186 7.0004215 17.795544
13.18659 7.2750134 19.352829
10.014064 7.4379115 20.277187
6.70889 7.3675299 19.877516
3.8540902 7.1167402 18.455215
8.2146597 4.4322853 3.231668
11.87712 4.5014119 3.6229582
14.3008 4.7102065 4.8070912
16.71888 5.1479373 7.2895851
17.897289 5.7339349 10.61265
0.67220974 5.8261018 11.135646
0.87773037 6.2791305 13.704898
1.8454504 6.6945858 16.06106
2.65763 4.9714465 6.2886553
-13.1619 6.4664903 11.376473
-9.7038994 6.9269094 16.755823
-7.5855007 7.9116182 20.067513
-10.1646 8.0115871 17.744713
-7.9386997 9.2159195 20.583645
-1.8154001 8.9422188 25.217367
-2.7209997 8.0559454 23.379749
0.55817986 10.413979 27.13026
4.5727801 9.0922794 28.416311
-12.1537 5.0475664 4.8408623
4.85606 4.46066 -6.1275158
23.089401 4.0289307 -6.9924889
20.737801 2.768888 -6.4687271
20.3333 3.9776192 -8.1088371
16.91044 4.1592665 -8.6744747
15.66634 2.9383793 -7.7912502
7.9294901 2.9835901 -5.5626431
7.0580101 3.5652647 -6.4025116
2.1224399 3.4361229 -3.274869
-3.1063995 4.1123929 -0.89352417
-3.6518002 5.3529654 -1.7985983
25.5063 3.6544132 -4.3972263
24.986801 3.3581896 -2.974371
17.47303 9.6486416 32.163021
20.541599 11.176279 31.12396
21.2213 8.9890804 28.608246
21.206501 9.8214436 29.950602
24.7743 10.07601 24.798626
23.9918 8.9426727 25.405142
25.956299 8.340188 20.345596
24.5996 7.5940709 20.562229
26.366501 6.688622 14.346427
27.411699 7.7136722 12.603174
28.278 6.2756476 4.3194871
27.372999 4.0014143 -0.55521297
15.3707 10.715714 33.634682
4.08709 10.566221 29.084614
6.1754503 10.759476 31.372616
6.7567701 9.4800844 31.019009
-13.762199 6.6051764 6.8507104
-13.802299 9.6042538 7.7556133
-13.7892 7.4188452 10.300197
-11.1742 8.6018314 16.624958
-10.6126 11.216503 16.89913
-13.014601 10.523262 12.967205
-12.930901 8.038887 13.429699
-8.9143009 11.586167 18.995598
-5.7707005 12.121269 22.030313
-3.3162003 10.075759 24.504196
-0.27890015 12.83802 26.095205
-12.6868 6.2213354 3.8735437
-12.7556 8.8443956 3.4460192
8.5856104 10.894178 33.040565
7.1937699 13.831747 31.730967
4.2525902 13.313925 28.79417
17.64801 11.263405 33.094162
22.9576 10.530094 28.345255
19.9764 13.765418 31.354261
23.8284 12.855489 26.194277
25.4259 12.210073 22.533943
27.084 10.881935 15.0017
26.3687 9.4626551 19.766636
15.40822 14.115495 33.340141
11.40367 14.13834 33.469337
12.82044 11.433073 34.078457
3.4524798 0.421525 8.0850525
1.6020699 4.805584 16.787508
6.5095797 6.5109415 20.506863
-3.3859997 3.5241776 12.572557
-9.4414997 4.6578622 6.3330536
-7.0261993 0.40907383 6.137548
-6.9088001 0.77272034 5.5048389
-10.0539 4.4518156 1.6873035
-9.0646992 4.1511183 3.7732496
-6.6079998 -2.1466465 4.647162
-6.7126007 2.2802134 4.308115
-6.6044998 3.9291368 0.28804874
-6.8826008 3.5195932 2.5557861
-4.2005997 3.4517317 2.2639275
-5.0179005 1.4212856 4.2581367
-4.9616003 -1.0512896 4.5396719
-2.0602999 -0.35925674 5.3183722
-0.99040031 1.9392204 5.0147018
-0.64589977 3.7316723 2.8887987
0.31105042 -0.46623707 6.1955757
-7.7565994 3.0149369 6.1668801
-6.1562996 2.0201626 8.9075279
-6.4993 4.0159736 9.6223078
-7.8178997 5.2858458 10.354477
-2.9799995 4.9391799 13.873723
-3.0117998 6.345129 15.746241
5.3512702 7.2741432 21.07276
5.6064601 5.2093816 19.165607
27.808599 4.8767457 4.0755482
16.23551 1.0049696 9.7623606
3.11204 4.2828603 2.4299049
24.2208 3.2834587 -1.24228
25.442501 3.2103186 1.4251862
23.9161 -1.1524811 3.1967621
18.28533 0.3262701 8.8884182
21.9776 -1.1636086 6.8810062
23.699299 -1.0740652 4.4213905
25.864 5.0176396 6.5130229
24.6707 2.8227668 3.3149629
24.061001 0.90933228 3.0802622
22.143101 0.99409199 5.7392702
22.8778 3.8097343 6.5102921
22.564701 4.9920549 8.2611237
20.5921 2.3311625 7.2293377
22.927 -0.055849075 1.693161
23.093201 2.1331396 0.63235092
20.6229 3.0291443 -1.4978008
16.125019 2.9340878 -0.85208416
19.66659 1.1241627 0.67480278
11.90131 2.0327864 2.0865092
15.1719 1.7056751 1.1477089
13.86487 3.4020252 -1.5134888
8.23104 3.609139 1.4255972
8.9344501 3.7368226 -0.45352268
7.2068801 2.4547243 4.0782795
3.04846 3.2671309 6.1992593
3.0350699 4.1768398 4.1979046
19.578411 3.2598209 -3.4110231
15.10453 3.3044686 -3.1652422
5.76192 3.5596447 -1.7180672
16.874859 2.6852255 -6.7202206
-2.8448 3.9280782 0.39353466
24.068901 7.1840911 18.837185
22.575401 6.8511372 -7.8583145
13.10824 3.9015837 -8.3601532
14.044769 6.6600013 -8.9421902
18.01812 6.6443558 -9.03092
9.2620277 4.3399715 -7.6143456
0.54388046 4.4206324 -4.0492926
9.2862072 6.811944 -8.0803814
5.1220102 7.0596838 -6.6753559
25.521 4.7710686 -5.2929392
27.4667 7.6580791 -3.2819118
27.4403 5.1474752 -2.6789904
8.0996103 2.1415043 19.660408
8.0814104 2.7122707 22.598907
17.132679 3.3535056 9.7006645
20.601299 5.7802296 10.892132
10.53595 9.8124981 33.063446
9.3387861 3.9042029 28.498154
7.8459797 4.6005745 20.005537
7.5999203 7.3852015 27.066839
8.5293398 2.9650712 26.974991
6.6514797 7.1844912 23.99015
8.3713999 5.0087633 25.583061
8.8468504 8.6503353 30.597387
9.7508974 6.7497163 29.578753
10.647817 4.0469232 29.846354
11.93828 8.8769445 31.22294
12.62763 5.1161294 28.977081
12.43599 6.8470812 29.421453
14.410601 8.1794872 29.054813
15.52048 9.1947403 30.457933
16.77178 8.1338377 26.472204
15.035561 5.5195131 25.29398
15.986361 6.8787861 25.21809
18.89719 7.191752 20.487904
18.936569 8.0262566 23.886707
16.1513 4.8811946 21.769375
19.016689 9.0617752 29.486057
18.083691 6.0285263 17.933231
17.03549 4.4427271 17.169176
19.121239 5.9554758 14.708263
17.400181 4.0817204 12.693448
18.5375 4.891077 10.056281
5.4108 8.6239452 27.048149
3.8274698 7.7509398 22.051941
-1.9832001 7.0134358 18.016195
-11.768299 5.9017944 11.329616
-8.2623997 5.9499793 11.971389
-11.1726 4.8298082 5.4331541
-6.4244995 7.188632 18.862938
17.734249 -50.811337 42.374218
13.61106 -48.093441 32.936783
12.08009 -49.144344 35.591911
14.9918 -42.141785 23.662462
16.59964 -39.527374 21.496571
20.028 -38.227406 21.635483
20.140701 -36.483292 21.140327
21.620899 -38.395107 23.276991
23.187901 -37.739227 24.806019
22.3533 -40.009319 24.742075
23.9111 -40.722507 29.391983
22.8356 -39.634914 26.289549
22.762199 -43.121422 28.001961
22.5676 -42.47855 29.685881
21.6152 -46.997143 32.594921
21.336899 -46.008724 33.048172
21.5152 -45.108086 33.685966
22.079899 -44.798717 34.695885
19.28644 -48.092922 36.360405
20.5124 -47.069088 37.969872
17.76849 -48.98143 38.304531
15.41938 -50.001869 40.044052
13.00006 -50.192501 38.836208
18.09635 -27.480656 10.629218
11.77984 -33.895817 10.268145
13.45039 -32.558865 9.3325405
10.95458 -31.797684 8.632966
12.75658 -28.829514 7.4447765
10.052557 -30.015461 7.3801126
11.51917 -28.304916 7.6574526
10.329308 -26.461128 7.7108836
12.17784 -26.095825 7.9438286
13.01781 -24.980759 8.9753809
12.65403 -36.152088 12.917187
14.529881 -36.151703 13.504482
13.99834 -37.517109 16.058706
15.69016 -37.106106 17.530991
18.86368 -34.825027 18.461153
18.29459 -35.953602 16.659647
19.383141 -33.564499 16.545662
20.1898 -28.974098 15.095953
19.77467 -33.005119 14.697001
19.120289 -28.546467 13.395593
19.597111 -30.02367 12.363274
18.400341 -25.359097 12.725552
15.10526 -24.913132 10.694353
17.373951 -26.481583 11.745226
15.38453 -25.388664 8.6868391
10.361075 -22.177197 5.8338099
24.2745 -36.919693 13.52739
21.5182 -36.428547 13.559553
15.39431 -25.012806 2.1324863
15.74986 -25.749275 5.5383158
17.686769 -25.541641 6.5356121
18.608021 -22.558979 6.0838337
23.2164 -27.082073 8.2147045
22.883099 -25.111115 8.6277046
18.77236 -24.184063 5.9813404
20.791401 -28.25732 8.5343494
22.626499 -31.550823 10.375054
24.304401 -29.484406 9.1474047
23.622299 -31.199711 9.8157578
25.134899 -32.661407 11.024564
23.1618 -34.411652 11.748722
22.148899 -39.018692 14.195904
19.033749 -37.525299 14.387135
19.316029 -40.303463 13.95949
16.61661 -37.287266 14.092352
17.30765 -38.111401 13.181828
16.92001 -40.30518 12.592999
15.85756 -37.812199 10.783051
14.29591 -37.950195 9.0502377
14.8477 -34.821453 10.381716
15.21571 -35.184937 8.41992
13.93187 -33.952896 4.4511428
15.12477 -31.988434 4.0953116
14.72515 -30.206505 2.1434293
15.19913 -29.936558 5.3490543
15.62395 -29.233479 3.5684137
16.895279 -24.209167 4.4361348
15.65423 -27.206924 4.3727255
16.23534 -24.676125 3.4476013
15.4771 -27.568348 1.9083462
5.1603899 -17.346542 3.0624824
8.53016 -21.052485 0.016435623
14.5481 -22.777206 3.4237962
12.19888 -22.170582 2.4546337
9.7832966 -20.69463 2.1161952
13.82392 -23.647858 1.6044445
14.56986 -21.444313 5.2898917
16.58569 -22.16975 4.6263828
13.74236 -15.869928 8.3875103
13.09698 -19.014902 6.8102269
13.55879 -16.965984 7.5587983
10.924603 -17.277124 8.0700951
8.6872301 -14.659756 8.4127693
10.768604 -15.31558 7.8970065
6.1217003 -11.936377 7.8737812
10.201206 -13.474119 7.9193902
10.926666 -12.844938 8.4067078
6.2276402 -10.270018 7.164546
5.2648101 -7.9565105 6.7329926
3.3996201 -10.129122 7.1700525
-0.44439983 -9.3402138 8.0017452
2.5367098 -8.806591 5.8601575
1.1935701 -7.0659981 4.7714572
0.24726009 -9.9482613 5.8663406
-0.013400078 -8.0386181 3.8757124
0.66983986 -11.859026 4.8019114
0.0010299683 -10.843887 2.7046714
2.1459098 -13.665361 3.585701
1.0163498 -13.146774 1.7884445
3.87713 -15.716997 2.2567735
2.74895 -15.556717 1.0338621
6.80235 -18.47714 1.8282566
9.6176414 -20.944801 0.88858604
23.6609 -45.516109 28.963055
23.196899 -42.328686 25.648905
19.75503 -39.924145 21.035036
22.208599 -40.089653 22.068771
17.305161 -41.83342 22.846336
15.3091 -45.100899 27.127762
15.76438 -49.716118 33.200363
17.61544 -45.073711 19.80304
18.70649 -52.37994 37.583622
13.98793 -52.891945 32.15242
15.712561 -52.128136 32.537128
16.22444 -51.20599 33.259476
16.151001 -50.889217 36.743294
17.45545 -50.448563 37.203163
16.93836 -52.016102 36.871323
20.770599 -51.084755 36.879417
19.613689 -49.059711 35.573738
20.964199 -49.371468 34.599266
23.351 -48.643761 33.16217
25.368301 -45.947433 28.754181
25.354599 -42.526978 23.293697
26.6448 -43.003941 24.106144
25.3085 -40.685795 19.096756
24.042099 -40.282001 17.94363
22.905899 -40.45322 16.545868
21.8906 -40.871414 18.478277
20.134399 -43.00922 19.157051
19.865089 -42.48732 20.424969
19.82115 -42.944206 17.784328
18.00322 -46.092274 22.966404
17.83905 -45.302013 24.391994
16.64319 -49.095684 28.793242
16.333469 -47.778595 29.101212
16.364361 -48.624298 25.386471
1.81633 -63.148682 35.978409
4.6112099 -60.602188 37.570808
5.2069602 -60.461777 36.124046
1.8119802 -63.499512 37.653072
7.6683397 -59.021797 36.791534
3.9794798 -58.332329 40.557728
9.585187 -58.019272 37.210716
-1.5150995 -66.471245 45.430367
6.3943701 -52.894672 38.040852
6.3490801 -57.232246 40.885178
-7.5816994 -62.844116 38.38813
-3.7203999 -64.986641 41.833725
7.4833803 -55.937729 43.669891
6.0065498 -58.510895 43.387833
5.4351401 -59.768166 45.825691
4.5148001 -60.508133 44.8195
2.6649499 -62.856003 44.805084
0.61948013 -64.570976 46.145653
1.2077904 -64.737724 47.132603
-4.1540003 -68.304398 45.023811
-5.2400999 -69.941093 46.428764
-6.2581997 -68.768105 44.653709
-7.1107998 -66.8452 42.828167
-5.5285997 -67.224998 42.98632
-4.7030001 -64.938416 42.223572
-3.7044001 -61.549553 41.163292
-0.95860004 -62.071152 41.060303
-0.1619997 -59.532372 41.151939
1.3631601 -59.876465 40.917225
-0.085300446 -58.048859 40.396858
5.4170499 -54.777023 40.483425
0.4879303 -56.179497 38.017097
3.6188002 -56.747215 40.894798
6.9573298 -57.311012 41.579906
11.75886 -18.525879 11.441945
-0.26930046 -13.481335 6.109375
11.323771 -19.268663 10.366795
4.3454599 -12.3036 10.582449
5.28234 -13.173254 11.527796
4.57868 -11.763266 12.928133
1.5601997 -10.495514 10.939026
-1.3295002 -16.31814 5.5754905
-0.50759983 -9.339035 10.258964
-1.4268999 -8.1864204 11.198802
-3.21 -8.3005886 9.7059574
-4.2320004 -10.314001 7.6867876
-1.9801998 -10.424122 7.5863037
-4.2278004 -12.09901 6.6064792
-2.4111996 -12.524187 6.9962616
0.85317993 -16.616421 5.8602624
3.7531099 -17.551069 4.9765878
4.0183401 -20.12282 5.3222294
2.8865399 -20.566788 4.8999872
7.2789602 -23.696102 6.1169457
6.5106401 -19.996578 5.0171514
9.0610313 -22.49324 6.3835106
10.758408 -24.128216 8.5347843
11.67161 -21.917957 7.159483
11.96216 -23.495064 9.5203104
14.09439 -21.766205 11.092979
12.06931 -20.868139 7.7334538
12.0467 -21.314062 9.7579641
9.2730637 -16.670839 11.305801
8.51332 -15.987358 9.9616871
11.0837 -18.957518 8.7803631
15.42519 -50.848141 3.111825
5.9008598 -39.187256 10.823551
21.102001 -54.212379 12.002042
15.72501 -50.332218 12.832535
11.63438 -47.278149 12.800678
11.65986 -46.313408 14.114147
8.6960697 -43.163563 13.504286
6.8406 -40.674343 12.883497
5.2202301 -40.995026 9.2686443
5.8709402 -39.333515 7.9353104
4.3141499 -42.320808 8.1943855
6.6238699 -42.545906 6.8584776
9.7073107 -44.964844 3.5467072
9.0756769 -45.046757 5.0418463
9.8945894 -47.788555 5.349123
12.89893 -49.082729 4.3446941
11.864 -50.804001 5.2101374
13.40826 -50.888714 5.1840534
18.04022 -53.644249 5.730751
21.340801 -55.54435 6.2223682
2.6568499 -19.898718 16.109543
1.6488895 -18.935633 24.615555
1.4734402 -16.765127 29.697262
10.35261 -4.5998964 30.88077
11.68886 -4.8982306 27.48712
-0.18760014 -19.938482 19.18726
1.5461102 -20.58289 17.770506
3.3179898 -17.650492 17.452885
0.69715023 -20.550474 21.070419
0.94707966 -21.098467 23.025703
0.54767036 -17.098083 23.370127
3.0271401 -15.797092 26.266342
3.4116001 -15.63216 27.594479
6.8481398 -9.2912369 27.51955
7.88765 -9.3144569 28.64559
7.5627604 -8.2679825 32.452
6.4738102 -11.506268 29.481695
9.868763 -6.8794212 29.431896
12.10014 -5.4425011 25.228519
11.72523 -7.3870811 22.412834
9.8639259 -10.643263 19.823608
8.2775297 -12.734642 18.529015
4.70576 -17.044203 16.094843
7.9192901 -12.301346 19.610584
4.7148499 -14.310015 18.907709
8.5269098 -11.524353 20.216923
0.040570259 -30.372219 21.961109
-0.76150036 -30.302845 11.859781
1.3926697 -29.89827 9.3151293
1.3749199 -33.936054 20.490948
-0.46539974 -31.841999 18.801535
-0.16619968 -29.086136 20.742815
-1.1798 -28.075764 19.668932
-0.0044002533 -26.390171 21.671759
-0.70199966 -24.951134 19.559849
0.4658699 -24.226292 20.9237
0.2988596 -23.405914 17.877981
1.44802 -22.183655 18.492373
-0.58049965 -24.709621 15.321089
1.0088596 -24.273808 14.279287
1.2795897 -33.623707 19.072571
3.5239401 -36.704323 16.624443
5.0697999 -38.569054 15.589569
4.1029 -37.47633 14.230623
4.5899701 -37.253441 12.515676
2.1202002 -36.131268 12.139771
2.9896598 -34.395779 10.426681
2.4553399 -32.749043 9.2139854
-0.04129982 -33.015171 11.378786
1.5775604 -31.904442 10.734714
0.65639973 -28.686829 11.433985
-0.83600044 -27.298832 13.151891
0.91761971 -26.251961 11.021538
0.60070038 -18.979902 18.017168
7.4556198 -11.247293 20.622627
10.453557 -6.7660408 24.702557
9.4219589 -6.9974728 27.763245
2.1199398 -14.702745 25.111261
4.9717202 -11.602095 26.842033
-0.60700035 -19.429277 20.936016
-5.3909998 -20.268021 17.835497
10.040146 -8.3605423 22.954321
-2.1744003 -34.619789 21.909601
-5.0602999 -25.207298 18.371994
-4.8416996 -22.651443 16.198196
-4.1984997 -24.551559 14.602155
-4.9640999 -22.828239 13.511665
-5.3143997 -25.567516 10.040501
-4.6035004 -27.209896 12.322537
-5.4830999 -26.309818 11.205957
-4.1540003 -31.226852 10.685747
-5.2181997 -32.52409 8.4672871
-3.3162003 -34.476662 10.417151
-5.1913004 -31.235153 9.7927017
-3.9643002 -35.488934 6.8571258
-2.1625004 -36.488628 11.132392
-3.2581997 -37.379036 9.6922207
-2.0073004 -39.293163 10.609917
0.11380005 -37.484554 12.74027
-1.3336 -38.573757 12.432441
-0.44270039 -40.7323 14.578989
0.75788975 -37.307564 14.853165
-0.50150013 -39.147568 14.920847
-0.39009953 -39.832176 17.334284
-1.4898005 -37.105038 19.80196
-0.6885004 -37.058895 16.655039
1.0879898 -35.171661 17.132778
-1.6391001 -32.321598 18.4594
-4.2910995 -32.083847 21.868849
-1.8395996 -34.168255 18.278568
-2.3539 -35.139664 19.162247
-4.3733997 -27.522343 18.869678
-6.8502007 -27.448856 21.492058
-6.0009003 -27.618263 19.328861
-3.8703003 -23.671059 17.401627
-7.3097 -24.936466 19.735743
-6.0270996 -23.336365 17.923416
-6.9139004 -22.748505 19.253876
-4.4138002 -16.289043 27.412479
2.1284299 -8.4437675 28.133415
5.3540201 -3.7576246 24.034603
4.6902499 -6.2413406 20.73839
-0.80949974 -16.541035 14.878736
3.8871698 -9.1579456 17.493355
-4.9436998 -20.628559 15.653135
-3.6521997 -19.444975 17.028923
-4.4323997 -19.30196 20.347942
-6.0230007 -20.261833 20.244339
1.7376299 -15.995195 17.945541
-1.1294003 -17.152128 16.498608
1.1903801 -14.244938 15.299776
1.3813801 -14.112394 17.078259
2.6200199 -11.389723 17.170452
3.2702699 -12.86817 18.90276
5.3859401 -9.4231358 21.115269
4.4036198 -8.8510189 20.456026
6.1525602 -6.9997826 23.412651
5.2790298 -5.9229202 23.078072
10.725157 -6.0063229 26.559038
6.63135 -6.2581329 25.269169
5.4148502 -4.6966209 26.060944
6.5190897 -6.6409988 26.418921
4.7845502 -4.4489298 28.483232
4.4176602 -6.2974854 27.317825
5.2210498 -8.0051441 26.88813
3.2418799 -9.663105 26.612442
0.46422958 -12.562214 25.483925
-3.4143 -16.21463 23.654213
-0.26109982 -11.502626 27.21381
-4.4856005 -16.956179 24.064909
-1.8148003 -15.828825 23.596287
-6.0189991 -46.663502 26.854424
-12.327499 -49.827827 24.020805
-5.0148001 -39.762547 28.513031
-5.1927004 -58.000893 12.800449
-1.6573 -50.635803 18.213095
-6.0566998 -53.354038 17.187826
-0.15310001 -47.69286 20.713745
2.7813001 -42.074783 25.411896
2.6250601 -43.197002 23.545065
3.0515599 -44.748657 22.011051
4.25453 -40.123745 24.507196
3.8838501 -37.26931 26.044596
1.9516802 -37.621082 28.537422
0.40172958 -36.243671 28.15781
-0.84589958 -39.414829 29.110428
-2.8320999 -38.977642 28.422489
-5.9298 -42.874046 27.283978
-4.6956997 -43.154655 27.798521
-8.7157993 -44.770325 26.45775
-7.6215992 -46.154648 25.488022
-8.2705002 -49.095989 23.825129
-9.9852009 -48.883526 23.482132
-9.2283001 -52.297081 20.803164
-10.827299 -52.739616 20.215691
-9.4367008 -54.621468 17.642918
22.170601 -18.634731 16.252834
21.9053 -12.585449 9.4746523
14.66036 -14.733015 18.057871
12.08946 -16.179523 19.006142
21.882999 -22.570267 20.511757
13.12745 -19.299568 22.04307
12.50366 -17.622786 20.618404
13.36407 -15.708733 18.158674
14.291719 -17.511181 21.276676
17.144131 -20.743431 21.660532
22.8736 -20.074015 17.808762
19.25938 -19.387428 20.340054
20.487301 -20.032701 18.970213
20.722599 -17.000149 18.913677
21.191799 -17.157373 16.581173
22.1294 -15.917349 13.398218
22.671799 -18.183437 15.46179
23.2218 -13.445162 8.8069153
22.1413 -10.787554 6.3446589
17.777149 -9.1791801 6.4157171
15.19831 -10.227322 8.6419468
13.54053 -12.153879 11.903774
12.464849 -13.373533 14.371837
14.16018 -13.182842 13.841433
15.26589 -14.862169 12.721264
14.89009 -21.506804 22.51297
5.1579399 -29.244518 28.474104
17.691471 -22.428883 21.747803
15.3181 -32.813992 24.644262
16.390419 -30.483154 24.421534
15.78148 -28.084213 25.679209
17.551559 -25.404484 23.265285
17.775129 -27.576405 23.745399
16.32839 -24.926102 24.794863
15.63726 -22.940937 23.82111
14.019 -22.300945 24.735973
11.49232 -21.926035 24.837433
13.45634 -32.124851 25.943251
12.20094 -34.875164 24.792494
10.053023 -34.821533 26.002504
8.2330799 -36.466541 25.085037
8.0051403 -35.380909 26.253136
5.05481 -34.673607 26.73201
6.8776798 -34.386913 27.239597
6.8526201 -32.372704 28.504267
7.8253098 -29.137379 29.319544
8.8706598 -27.292316 29.711912
6.4247503 -25.79763 28.504723
10.489853 -24.868935 28.760948
8.9162302 -23.070702 26.835844
8.8029995 -25.257004 28.063135
12.116489 -23.114326 26.798653
15.10586 -12.631048 13.859927
16.16629 -10.886747 10.187556
18.0786 -9.5229664 8.0836649
19.848721 -9.6576767 6.1120644
21.2384 -10.82443 8.2720232
21.772301 -13.615149 12.555847
18.372341 -19.076319 22.215593
16.64517 -19.329889 22.819012
15.4205 -18.459816 22.931627
18.42873 -20.049507 29.425562
15.51479 -21.505011 28.596918
12.54062 -18.109386 29.444246
13.69444 -19.346556 30.254082
14.992229 -19.839235 29.673618
13.77147 -22.074928 29.099316
10.714663 -20.971266 32.680676
11.81909 -23.647102 32.004662
9.9453411 -26.593285 33.221954
9.7693024 -23.443718 34.260921
8.4893103 -27.0429 35.375244
8.5933599 -29.716152 33.651966
7.3860102 -31.430576 35.022697
8.0715199 -33.152016 32.332859
7.1712599 -35.629356 33.397621
8.3798599 -35.392963 32.049488
8.5958805 -34.703209 29.841469
10.264044 -37.772892 30.355423
10.004987 -34.834431 28.71027
11.75529 -33.829075 28.046204
12.49355 -37.255657 29.160957
12.09776 -35.451321 29.23019
17.569611 -24.028412 29.082581
13.96356 -31.561913 27.746258
14.93778 -32.361679 28.829391
15.51066 -33.920856 28.756329
16.308701 -27.9151 28.438513
19.41972 -28.382515 29.707661
19.956631 -26.025761 30.041384
17.792919 -27.071583 29.794741
18.37355 -23.39777 29.849421
16.95326 -22.093449 28.963163
19.93354 -23.051746 30.092833
24.6064 -18.8414 24.973753
16.750759 -10.788317 15.133971
23.189701 -6.949604 10.821774
12.51143 -13.792807 23.381413
17.544281 -18.313438 28.187386
18.640629 -18.542091 27.254009
20.1348 -18.002291 25.385284
20.7792 -18.789629 27.28466
21.424301 -16.589157 22.146351
15.89116 -17.35253 25.39155
16.16448 -17.971043 28.32959
14.35663 -16.001383 26.215748
14.88945 -14.494164 21.997578
15.05219 -15.551781 21.255558
13.99022 -12.444576 21.136347
15.73509 -12.506598 17.833805
15.082991 -9.3331451 17.590452
18.016869 -8.3209515 14.360456
15.434669 -10.517143 18.054552
17.44305 -6.9780979 14.495503
20.9065 -5.9711981 11.619596
18.82909 -8.9212265 12.368172
20.9646 -7.6687565 11.570832
20.7199 -8.9116364 10.716812
24.729801 -9.6576977 12.511093
21.7015 -9.6852913 11.127414
22.284599 -11.426369 12.622229
23.046501 -10.434479 12.86767
23.713501 -13.299917 17.431469
24.913799 -12.747238 16.480015
23.753 -16.098186 22.182117
22.521099 -13.862785 17.032288
22.812901 -15.653318 21.557346
21.283699 -55.668961 8.4353275
5.9095998 -44.61005 6.4692993
4.04531 -41.820736 9.6610289
6.5320001 -42.244797 11.401783
7.8137903 -44.28344 12.181129
19.25279 -53.294823 11.817851
22.3486 -55.555 10.066418
19.34631 -59.607132 13.463088
15.98571 -53.574276 10.806005
18.87001 -55.515884 9.4543276
13.56378 -50.982899 11.804049
11.36594 -52.62281 13.371593
3.7086201 -45.103168 15.262201
5.7981601 -47.898792 4.5373335
5.66607 -48.347454 2.9580488
19.544121 -58.698349 5.2014446
0.59385014 -42.273968 7.5398054
16.20639 -56.771149 11.149759
15.27684 -56.07502 12.547128
15.018681 -54.827507 10.94717
18.40357 -58.423668 8.4534521
17.940071 -57.849236 6.3699512
18.30975 -56.879753 8.4917383
18.60828 -55.723267 7.8318901
16.797489 -56.211151 6.5138874
16.611879 -54.656235 6.5432253
14.68117 -55.433365 4.5044975
14.450621 -54.535019 5.3993988
8.7203102 -51.025127 3.3162651
8.25702 -47.189335 5.5991678
9.1835976 -50.640965 4.5597467
1.82938 -44.429077 4.9128275
2.5626798 -44.511421 5.7162323
-0.55210018 -41.578159 7.2267237
0.63547039 -42.077545 9.2889719
3.1788101 -43.139721 10.737066
0.024589539 -42.075123 10.463666
2.2077298 -44.209549 12.546022
5.5587702 -45.340317 11.572873
4.2223501 -45.500648 12.038214
6.2857103 -48.133381 13.440254
10.554141 -50.490932 11.934736
9.8489189 -48.551762 11.923279
9.5283546 -50.674805 12.680586
21.813801 -62.725281 21.528358
25.141701 -66.45298 24.787979
23.412899 -65.355728 24.600746
21.722599 -61.89241 17.395971
-8.2593994 -54.255745 17.36516
-8.1224995 -51.287498 23.246885
-3.1443005 -42.679798 29.608755
0.58205032 -39.014439 30.143597
3.0159798 -38.241554 29.550678
3.18222 -39.247757 27.143444
-0.1875 -47.331234 22.047657
-4.1773005 -51.776711 18.643997
-4.7263002 -39.322598 35.140625
-8.4993992 -47.247372 30.188778
-1.3396997 -55.301567 20.999849
-2.5050001 -50.463772 22.443604
-3.9736996 -53.149117 22.547548
-5.8985996 -53.172489 20.884312
-5.5496998 -55.782921 21.804701
-7.2168999 -54.522499 21.659479
-8.2385998 -55.898399 22.166826
-7.8852997 -53.535145 21.189262
-9.5454006 -53.210476 24.786427
-8.2646999 -53.403179 23.353733
-7.0174007 -49.147541 26.013649
-5.9012003 -45.869385 30.851906
-5.2545996 -46.095112 29.370773
-7.1469002 -49.123539 27.776615
-3.2280998 -42.372147 32.90897
-2.3835001 -42.184597 32.040001
-0.57359982 -37.95126 34.962692
0.97731972 -38.775314 33.553883
3.6563201 -36.281841 34.490219
3.71982 -37.481373 33.439758
4.3550301 -38.959648 31.218513
5.78442 -38.679981 32.156704
6.0120802 -41.290306 30.145933
3.6879001 -41.196968 28.762812
1.5454702 -45.407539 25.627132
2.0125499 -45.958134 26.619781
4.6766 -41.480167 29.788471
4.7462502 -44.444679 28.117975
-0.20559978 -50.924126 24.228458
-0.39999962 -49.339653 24.569418
0.082960129 -51.798954 23.588467
6.13447 -67.828941 10.202434
1.2651196 -68.233231 11.030314
2.2091498 -66.879707 12.462232
-1.0467997 -61.771538 16.17873
29.0128 -70.311783 28.166763
24.0961 -64.304398 22.235409
22.731201 -62.811882 19.70005
28.879 -64.434456 23.906681
27.182699 -59.325684 24.751276
28.818399 -62.233994 14.70207
27.6616 -63.245682 16.60523
28.688101 -62.980385 16.117838
30.643 -65.296021 16.376118
30.1446 -66.548965 19.336617
33.007099 -69.645332 20.827942
31.659201 -67.623909 19.784563
34.323898 -72.278816 26.668665
31.659599 -69.039383 22.389393
32.592499 -70.689194 25.083693
33.182899 -71.681602 28.197811
32.361702 -69.875999 28.991215
32.7043 -68.177277 29.92021
31.2017 -66.416412 27.252844
30.724899 -67.293495 27.190298
30.692499 -63.995834 26.71674
27.4048 -62.413666 20.71106
29.261499 -61.804146 23.849976
27.9461 -61.241013 20.574263
26.738701 -60.38295 16.296766
25.7213 -61.474106 17.426193
26.935499 -58.995598 19.307293
27.010599 -59.575867 15.222893
-0.36069965 -64.66069 13.566246
2.2913799 -69.762878 3.38204
-7.5907001 -62.07859 11.314389
-7.0438995 -66.849129 9.3739033
-6.1748009 -64.747482 11.144253
-8.6818008 -66.327324 10.147749
-5.7912998 -67.509689 9.5644026
-4.5441999 -70.679985 7.9298868
-5.0846004 -71.542747 6.8002415
-5.9003 -72.459984 6.5175228
-2.8906002 -75.28511 4.4223728
-2.3443003 -74.432877 5.3034678
-1.5841999 -77.739555 3.0647554
0.32750988 -76.058746 3.0018311
1.0093699 -74.404884 3.4183702
1.9499998 -74.789795 2.1729879
0.75957012 -71.901718 4.3872185
-0.20610046 -65.065086 6.2793961
-0.45969963 -68.173569 6.6130457
0.85507011 -69.454659 4.2915373
-1.7282 -65.044411 8.0211668
-0.19200039 -62.002525 8.0590229
-2.5902996 -64.073769 10.05806
-3.9408998 -62.076164 10.655558
-4.0922003 -62.451431 12.27797
-5.7247 -61.073669 11.685016
-4.5994997 -60.023857 11.104297
-5.5450001 -62.536011 12.441033
-7.5834007 -60.460518 12.177627
3.68255 -64.90773 42.459831
6.8327703 -63.178406 42.342049
7.9720898 -63.113762 42.976463
6.6387 -61.286728 42.100391
10.25933 -59.520065 40.832451
9.1559849 -58.655876 40.16423
10.51486 -57.934578 38.127541
28.1714 -70.457954 23.224897
23.2416 -61.701935 15.879028
26.5357 -68.986809 17.780563
27.840599 -68.341858 20.366535
26.880899 -68.174545 15.438595
25.8396 -65.363808 17.040867
25.050201 -65.844826 15.163485
24.107 -63.151993 15.655392
22.2152 -62.549278 14.439528
-2.6303997 -61.891205 16.160027
-3.4881001 -70.250412 11.440121
-5.1531 -66.779037 12.469968
-5.0635996 -67.427551 13.376656
-6.434 -64.147697 16.083927
-5.3495998 -63.73481 14.565469
-4.9721003 -61.950096 17.083775
-3.9684 -61.546753 17.108664
1.67556 -78.501808 3.5169897
11.32937 -75.261345 4.8445568
0.31307983 -75.53878 6.1885529
2.33429 -71.688248 9.3739071
8.6468801 -72.416039 7.4664087
4.7016201 -70.408707 10.252159
-7.3806992 -74.338089 12.286193
-1.5430002 -73.51664 9.028863
-3.8039999 -71.585991 12.737045
6.36022 -73.336105 6.6492624
8.0443697 -76.154297 4.0672083
1.5013504 -75.301277 5.8907881
-3.0469999 -77.860641 5.7987185
-5.0172997 -75.110535 9.4332829
26.6786 -69.968559 38.170979
25.8543 -68.288368 26.398151
24.371101 -67.349205 27.811865
27.6738 -69.26442 30.877157
30.535 -72.801598 21.687073
28.837799 -72.912598 18.045788
26.6945 -70.316338 20.203037
25.1143 -67.920418 33.662003
30.416201 -71.57827 26.360058
28.839399 -70.660683 35.156166
30.563499 -71.519539 28.278484
28.146 -71.999367 40.892876
30.763201 -72.737663 36.812286
32.398598 -73.334236 32.238079
32.835602 -75.695435 20.345451
33.658001 -70.674782 30.035059
33.360397 -74.261444 28.366306
29.782801 -71.183662 41.574692
30.864599 -70.58741 40.361927
30.763 -72.025291 40.718124
32.744698 -71.854202 37.94529
33.8284 -73.554352 32.00959
34.379898 -72.882362 31.695053
34.704102 -74.0812 24.685318
34.465599 -74.477028 25.871559
33.424 -74.902153 24.74015
34.201698 -75.034019 20.732893
31.870001 -76.020721 17.714588
0.60332966 -67.522217 42.548683
-0.7656002 -66.451286 38.585304
-3.2432003 -69.073601 42.802536
0.11470985 -65.718552 36.896206
4.7196298 -66.402802 42.196854
5.9851198 -68.021828 45.787849
2.9443002 -68.446342 45.647537
-0.47840023 -69.272781 45.334385
-3.7495003 -68.629044 41.401451
-4.2826996 -66.911987 34.672764
-4.4390001 -67.614998 37.413174
-9.6128998 -69.865746 33.901749
2.6536598 -70.0513 49.973656
5.0810499 -70.507683 49.399788
-0.86569977 -69.960487 48.876213
-0.37650013 -70.910141 47.94091
-5.3762999 -70.957855 46.107342
-9.3010998 -70.787445 43.546547
-11.695801 -71.051208 41.226601
-14.069401 -71.592003 38.159615
-12.3232 -72.15448 40.010811
-14.752399 -73.033257 35.15321
-13.629801 -72.650925 34.523281
-7.5939007 -69.740128 38.531284
-5.0407 -71.315735 45.15918
-8.1952991 -71.78157 42.475296
-11.0779 -72.409058 38.772606
-13.2318 -73.115562 34.57753
5.3840098 -78.785049 2.5182009
-6.7010994 -77.879097 8.0753098
-0.014499664 -77.352303 2.4103689
-8.7852001 -77.281303 8.5412836
10.217584 -78.856689 2.1965532
-7.2935009 -77.201477 6.9151144
12.95117 -78.68811 2.5272045
13.20817 -77.528954 1.3567371
12.23784 -79.118279 0.62083912
12.382071 -78.331276 0.18749428
9.7966394 -78.584244 -0.33674145
4.4755998 -78.306816 0.65850544
5.6927199 -79.040787 1.1323547
2.0090599 -78.542809 1.7491541
-0.17870045 -78.654449 3.3060913
-4.8724003 -78.061897 5.3518753
-9.1576996 -77.415428 10.546537
