# .PCD v0.7 - Point Cloud Data file format
VERSION 0.7
FIELDS x y z
SIZE 4 4 4
TYPE F F F
COUNT 1 1 1
WIDTH 1545
HEIGHT 1
VIEWPOINT 0 0 0 1 0 0 0
POINTS 1545
DATA ascii
16.451134 0.58176398 9.9303865
21.355227 -9.043045 13.710147
21.355227 -9.0430441 9.9303865
22.378016 -15.500656 13.710146
22.378014 -15.500656 9.9303856
2.203191 10.108982 13.710145
2.2031889 10.108982 9.9303846
11.827997 5.2049012 13.710145
11.827996 5.2049031 9.9303846
-14.923601 9.4419289 13.710145
-14.923602 9.4419289 9.9303846
-4.2544188 11.131765 13.710144
-4.2544198 11.131763 9.9303837
20.688189 -26.169838 13.710144
20.688187 -26.169842 9.9303837
17.719948 -31.995335 13.710143
17.719948 -31.995335 9.9303837
-28.38739 -1.1646 13.710146
-28.387386 -1.164602 9.9303856
-20.749096 6.4736862 13.710144
-20.749096 6.4736862 9.9303846
-33.045452 -17.659279 13.710144
-33.045452 -17.659279 9.9303846
-31.355625 -6.9900918 13.710146
-31.355625 -6.9900951 9.9303856
-27.118574 -33.741707 13.710141
-27.118576 -33.741707 9.9303827
-32.022659 -24.116899 13.710144
-32.022659 -24.116899 9.9303837
-12.870628 -43.268932 13.710139
-12.870626 -43.268929 9.9303799
-22.495438 -38.364853 13.710142
-22.495436 -38.364853 9.9303818
4.256166 -42.601875 13.710141
4.256166 -42.601875 9.9303818
-6.4130168 -44.29171 13.710138
-6.4130182 -44.29171 9.9303789
10.081664 -39.633633 13.710144
10.081661 -39.633633 9.9303846
16.332869 0.70121902 13.54205
16.332867 0.70121902 10.098483
21.382353 -9.2089415 13.542051
21.382353 -9.2089415 10.098484
22.352547 -15.334495 13.542049
22.352547 -15.334495 10.098483
2.0372939 10.136107 13.542049
2.0372939 10.136107 10.098481
11.947453 5.0866342 13.542048
11.947454 5.0866342 10.09848
-15.073758 9.3663635 13.542048
-15.073758 9.3663607 10.098481
-4.0882611 11.106297 13.542048
-4.0882611 11.106297 10.09848
20.612621 -26.319994 13.542047
20.612621 -26.319996 10.09848
17.797012 -31.845943 13.542047
17.797012 -31.845943 10.09848
-28.464451 -1.3139941 13.54205
-28.464451 -1.3139941 10.098482
-20.599701 6.5507479 13.542048
-20.599703 6.5507479 10.09848
-33.019981 -17.825438 13.542048
-33.019985 -17.825438 10.09848
-31.28006 -6.8399348 13.542049
-31.28006 -6.8399358 10.098482
-27.000309 -33.861164 13.542046
-27.000309 -33.861164 10.098478
-32.049789 -23.951004 13.542048
-32.049786 -23.951004 10.09848
-12.704733 -43.296062 13.542043
-12.704732 -43.296055 10.098476
-22.614893 -38.246582 13.542046
-22.614889 -38.246582 10.098478
4.406323 -42.526306 13.542045
4.406322 -42.526302 10.098479
-6.5791759 -44.266243 13.542042
-6.5791759 -44.266243 10.098475
9.9322691 -39.710697 13.542048
9.9322681 -39.710697 10.09848
16.451733 0.93894398 13.458002
16.451727 0.93894303 10.18253
21.644543 -9.2525091 13.458003
21.644537 -9.2525091 10.182532
22.588438 -15.212039 13.458001
22.588438 -15.212038 10.18253
1.993726 10.398296 13.458
1.993723 10.398296 10.182529
12.185179 5.2054958 13.458
12.185177 5.2054958 10.182529
-15.263117 9.5528679 13.457999
-15.263118 9.5528679 10.182528
-3.9658029 11.342191 13.458
-3.9658041 11.342191 10.182528
20.799129 -26.50935 13.457998
20.799128 -26.509356 10.182528
18.059832 -31.885527 13.457998
18.059832 -31.885527 10.182528
-28.72727 -1.27441 13.458001
-28.72727 -1.274412 10.182529
-20.639286 6.8135681 13.457999
-20.639286 6.8135691 10.182528
-33.255875 -17.947895 13.457999
-33.255878 -17.947893 10.182529
-31.466566 -6.650578 13.458
-31.466564 -6.650579 10.18253
-27.119169 -34.098885 13.457997
-27.119171 -34.098885 10.182527
-32.311974 -23.907434 13.457999
-32.311977 -23.907434 10.182528
-12.661163 -43.55825 13.457994
-12.661161 -43.558247 10.182524
-22.852617 -38.365444 13.457997
-22.852615 -38.365444 10.182527
4.5956821 -42.712814 13.457996
4.5956812 -42.712818 10.182527
-6.701633 -44.502136 13.457993
-6.701633 -44.502132 10.182523
9.9718542 -39.973518 13.457998
9.9718533 -39.973515 10.182528
17.759214 3.791635 13.188488
17.759214 3.791635 10.452043
24.720938 -9.871501 13.188491
24.720936 -9.8715 10.452047
25.322987 -13.672681 13.18849
25.322987 -13.672681 10.452045
1.374729 13.474693 13.188491
1.374729 13.474692 10.452045
15.037868 6.512979 13.188484
15.037868 6.512979 10.452039
-17.572153 11.677888 13.188489
-17.572153 11.677888 10.452044
-2.4264491 14.076736 13.18849
-2.42645 14.076736 10.452044
22.924149 -28.818388 13.188484
22.924149 -28.818388 10.452041
21.176937 -32.247486 13.188484
21.176937 -32.247486 10.452042
-31.844372 -0.91245002 13.188478
-31.844376 -0.91245103 10.452033
-21.001251 9.9306746 13.188488
-21.001251 9.9306746 10.452043
-35.990421 -19.487251 13.188483
-35.990425 -19.487255 10.452038
-33.591587 -4.3415389 13.188479
-33.591587 -4.3415418 10.452034
-28.426655 -36.951576 13.188484
-28.426655 -36.951576 10.45204
-35.388374 -23.288445 13.188481
-35.388374 -23.288445 10.452037
-12.042165 -46.63464 13.188475
-12.042164 -46.63464 10.452031
-25.705309 -39.672924 13.188484
-25.705309 -39.672924 10.45204
6.9047179 -44.837841 13.188478
6.9047179 -44.837841 10.452036
-8.2409849 -47.236687 13.188475
-8.2409849 -47.236683 10.45203
10.333817 -43.09063 13.188482
10.333815 -43.090622 10.452039
17.759214 3.910497 13.10444
17.759214 3.910496 10.536091
24.817101 -9.9413643 13.104443
24.817099 -9.9413652 10.536096
25.392849 -13.576521 13.104442
25.392849 -13.576521 10.536094
1.304864 13.570854 13.104442
1.304864 13.570854 10.536094
15.156731 6.512979 13.104437
15.156731 6.512979 10.536087
-17.685196 11.714617 13.10444
-17.685198 11.714617 10.536091
-2.3302879 14.146603 13.104442
-2.3302879 14.146603 10.536093
22.960878 -28.931431 13.104436
22.960878 -28.931431 10.536089
21.289982 -32.210754 13.104436
21.28998 -32.210754 10.536089
-31.957418 -0.94918001 13.10443
-31.957418 -0.94918102 10.536081
-20.96452 10.043718 13.10444
-20.96452 10.043718 10.536091
-36.060291 -19.583414 13.104435
-36.060291 -19.583418 10.536086
-33.628315 -4.2284961 13.10443
-33.628315 -4.228498 10.536081
-28.426655 -37.070435 13.104436
-28.426657 -37.070431 10.536087
-35.484531 -23.218576 13.104433
-35.484531 -23.218576 10.536085
-11.9723 -46.730801 13.104427
-11.9723 -46.730801 10.536079
-25.824173 -39.672924 13.104436
-25.824169 -39.672924 10.536088
7.0177631 -44.874569 13.10443
7.0177641 -44.874569 10.536084
-8.3371458 -47.306553 13.104426
-8.3371468 -47.306553 10.536078
10.297087 -43.203667 13.104435
10.297085 -43.203663 10.536087
17.71994 -1.164589 13.717939
17.719938 -1.164589 9.938179
20.688179 -6.9900799 13.71794
20.688179 -6.9900818 9.93818
22.378016 -17.659271 13.717937
22.378014 -17.659271 9.9381771
4.2561522 9.4419355 13.717937
4.2561522 9.4419346 9.9381762
10.081642 6.473702 13.717936
10.081642 6.473702 9.9381752
-12.87064 10.108977 13.717937
-12.870641 10.108977 9.9381762
-6.4130321 11.131763 13.717937
-6.413033 11.131763 9.9381762
21.35524 -24.116886 13.717935
21.355236 -24.116882 9.9381752
16.451153 -33.741692 13.717935
16.451149 -33.741684 9.9381762
-27.118589 0.581752 13.717937
-27.118589 0.581752 9.9381771
-22.495451 5.204885 13.717937
-22.495449 5.204885 9.9381762
-33.045452 -15.500669 13.717937
-33.045452 -15.500666 9.9381762
-32.022678 -9.0430546 13.717937
-32.022675 -9.0430546 9.9381771
-28.387375 -31.995356 13.717935
-28.387375 -31.995354 9.9381742
-31.355612 -26.169861 13.717935
-31.355616 -26.169861 9.9381752
-14.923592 -42.601883 13.717932
-14.92359 -42.601883 9.9381723
-20.749084 -39.633648 13.717933
-20.749083 -39.633648 9.9381733
2.2032039 -43.268921 13.717932
2.2032039 -43.268921 9.9381733
-4.254405 -44.29171 13.717931
-4.254405 -44.291706 9.9381704
11.828015 -38.364826 13.717937
11.828015 -38.364826 9.9381762
17.797003 -1.313983 13.549843
17.797001 -1.313984 10.106276
20.612614 -6.8399258 13.549843
20.612614 -6.8399258 10.106277
22.352547 -17.82543 13.549842
22.352547 -17.82543 10.106274
4.4063091 9.3663702 13.54984
4.4063091 9.3663702 10.106273
9.9322491 6.550765 13.54984
9.93225 6.5507641 10.106272
-12.704743 10.136104 13.549841
-12.704744 10.136104 10.106273
-6.5791898 11.106296 13.54984
-6.5791912 11.106296 10.106272
21.382368 -23.950989 13.549838
21.382362 -23.950985 10.106272
16.332884 -33.861141 13.549838
16.33288 -33.861137 10.106272
-27.00032 0.70120901 13.549841
-27.00032 0.70120901 10.106273
-22.614908 5.0866179 13.54984
-22.614908 5.086616 10.106272
-33.019985 -15.33451 13.54984
-33.019985 -15.33451 10.106273
-32.049805 -9.208951 13.54984
-32.049801 -9.208951 10.106274
-28.464436 -31.845963 13.549838
-28.464437 -31.845961 10.106271
-31.280046 -26.320017 13.549838
-31.280046 -26.320015 10.106271
-15.073749 -42.526325 13.549836
-15.073746 -42.526318 10.106269
-20.599689 -39.710712 13.549836
-20.599689 -39.710712 10.10627
2.0373089 -43.296051 13.549835
2.0373089 -43.296051 10.106269
-4.0882468 -44.266243 13.549834
-4.0882468 -44.266239 10.106268
11.947475 -38.246563 13.549839
11.947474 -38.246555 10.106273
18.172867 -1.311129 13.381747
18.172863 -1.31113 10.274371
20.835848 -6.5375228 13.381747
20.835848 -6.5375242 10.274372
22.658306 -18.044046 13.381744
22.658306 -18.044046 10.27437
4.7087131 9.5896063 13.381743
4.7087131 9.5896053 10.274368
9.9351034 6.9266281 13.381743
9.9351053 6.9266291 10.274368
-12.591308 10.494452 13.381744
-12.591309 10.494452 10.274369
-6.7978101 11.412055 13.381744
-6.7978101 11.412055 10.274368
21.740719 -23.837549 13.381742
21.740715 -23.837547 10.274368
16.451746 -34.217724 13.381742
16.451742 -34.21772 10.274368
-27.119183 1.057793 13.381744
-27.119183 1.057793 10.274369
-22.971497 5.2054791 13.381743
-22.971497 5.2054791 10.274368
-33.325745 -15.115893 13.381743
-33.325745 -15.115893 10.274369
-32.408154 -9.3223867 13.381744
-32.408154 -9.3223839 10.27437
-28.840302 -31.848818 13.381742
-28.840302 -31.848816 10.274367
-31.503286 -26.622417 13.381742
-31.503286 -26.622417 10.274367
-15.376152 -42.749561 13.381739
-15.37615 -42.749554 10.274364
-20.602545 -40.086578 13.381741
-20.602545 -40.086578 10.274366
1.923872 -43.6544 13.38174
1.923872 -43.6544 10.274365
-3.869628 -44.572002 13.381737
-3.869628 -44.572002 10.274364
12.304061 -38.365425 13.381742
12.304061 -38.365421 10.274368
21.403019 -0.98589599 13.079743
21.403017 -0.98589802 10.576382
22.997601 -4.1154408 13.079745
22.997601 -4.1154418 10.576385
25.462721 -19.679558 13.079738
25.462721 -19.679558 10.576377
7.1307921 11.751358 13.079732
7.1307921 11.751358 10.576367
10.260334 10.156778 13.079732
10.260334 10.156778 10.576367
-11.90245 13.66701 13.079727
-11.902451 13.66701 10.576365
-8.4333277 14.216465 13.079729
-8.4333277 14.216465 10.576365
24.913273 -23.148682 13.079735
24.913271 -23.148684 10.576374
17.759235 -37.189274 13.079725
17.759233 -37.189274 10.576365
-28.426664 4.0293469 13.079729
-28.426664 4.0293469 10.576365
-25.943047 6.5129638 13.079727
-25.943047 6.5129638 10.576365
-36.130157 -13.480378 13.079729
-36.130157 -13.480381 10.576366
-35.580711 -10.01125 13.07973
-35.580711 -10.01125 10.576367
-32.070454 -32.174046 13.079724
-32.070454 -32.174046 10.576365
-33.665039 -29.044498 13.079724
-33.665039 -29.044498 10.576364
-17.798231 -44.911312 13.079731
-17.798229 -44.911308 10.576369
-20.927774 -43.316727 13.079731
-20.927776 -43.316727 10.576371
1.235013 -46.826962 13.079721
1.235013 -46.826958 10.576363
-2.2341111 -47.376415 13.079717
-2.2341111 -47.376415 10.576358
15.275615 -39.672901 13.079728
15.275618 -39.672901 10.576368
21.516058 -1.0226279 12.995696
21.516058 -1.022629 10.66043
23.03433 -4.0023971 12.995698
23.03433 -4.0023961 10.660432
25.532587 -19.775721 12.995688
25.532587 -19.775721 10.660425
7.2438369 11.788089 12.995684
7.2438359 11.788088 10.660416
10.223603 10.269822 12.995684
10.223603 10.269822 10.660417
-11.832584 13.76317 12.995679
-11.832584 13.76317 10.660413
-8.5294905 14.286329 12.99568
-8.5294886 14.286329 10.660413
25.009436 -23.078815 12.995686
25.009434 -23.078819 10.660422
17.759235 -37.308136 12.995678
17.759233 -37.308128 10.660414
-28.426666 4.1482091 12.995681
-28.426666 4.14821 10.660413
-26.061911 6.5129638 12.995679
-26.061911 6.5129638 10.660413
-36.200027 -13.384218 12.995681
-36.200027 -13.384218 10.660415
-35.676872 -10.081116 12.995683
-35.676872 -10.081115 10.660415
-32.183495 -32.137314 12.995676
-32.183495 -32.137314 10.660412
-33.701767 -29.157539 12.995676
-33.701767 -29.157539 10.660412
-17.911276 -44.94804 12.995682
-17.911274 -44.948032 10.660419
-20.891045 -43.429771 12.995683
-20.891047 -43.429771 10.660419
1.1651469 -46.923119 12.995673
1.1651469 -46.923119 10.660411
-2.137949 -47.446278 12.995668
-2.137949 -47.446278 10.660407
15.394479 -39.672901 12.995681
15.394478 -39.672901 10.660416
16.382736 -0.80203998 49.431026
16.303026 -0.859954 49.193092
16.110754 -0.99964797 49.094284
15.105868 -1.729737 49.094284
14.913598 -1.869433 49.193092
14.833882 -1.927348 49.431026
14.754169 -1.9852639 49.668961
14.561897 -2.1249559 49.767765
14.16944 -2.410095 49.767765
13.977168 -2.549788 49.669231
13.897454 -2.607703 49.431576
13.902207 -2.604249 43.466663
17.223156 -0.19144 43.46656
17.22315 -0.191442 49.431576
17.14344 -0.249357 49.669231
16.951168 -0.38905099 49.767765
16.654724 -0.60443002 49.767765
16.462452 -0.744124 49.668961
20.195509 -8.285017 49.431026
20.101799 -8.315465 49.193085
19.875771 -8.3889055 49.09428
18.694458 -8.7727385 49.09428
18.46843 -8.846179 49.193085
18.374722 -8.876627 49.431026
18.281012 -8.907074 49.668961
18.054983 -8.9805174 49.767761
17.593618 -9.1304226 49.767761
17.36759 -9.2038631 49.669231
17.273884 -9.2343121 49.431572
17.27947 -9.2324953 43.46666
21.183477 -7.964005 43.466557
21.183475 -7.9640069 49.431572
21.089766 -7.9944549 49.669231
20.863735 -8.0678997 49.767761
20.515247 -8.1811295 49.767761
20.289217 -8.25457 49.668961
21.509304 -16.579967 49.431026
21.410774 -16.579967 49.193085
21.173111 -16.579964 49.09428
19.931007 -16.579967 49.09428
19.69335 -16.579967 49.193089
19.594816 -16.579967 49.431026
19.496283 -16.579967 49.668961
19.258623 -16.579967 49.767765
18.773518 -16.579967 49.767765
18.535856 -16.579967 49.669231
18.437325 -16.579967 49.431568
18.443201 -16.579964 43.466663
22.548113 -16.579967 43.466557
22.548113 -16.579969 49.431568
22.449583 -16.579967 49.669231
22.211924 -16.579967 49.767765
21.845499 -16.579967 49.767765
21.607836 -16.579967 49.668961
17.569916 -11.640657 49.431488
17.575596 -11.639431 43.466579
17.975294 -14.200119 49.431488
17.981075 -14.199526 43.466579
17.320875 -11.680101 49.431244
17.326555 -11.678876 43.466331
17.726254 -14.239563 49.431244
17.732037 -14.238972 43.466331
13.897453 -2.6077039 49.065891
17.273882 -9.2343121 49.065887
18.437325 -16.579967 49.065887
17.569914 -11.640657 49.065807
17.97529 -14.200119 49.065807
17.320873 -11.6801 49.065559
17.726252 -14.239563 49.065559
13.902205 -2.6042509 43.13047
17.22315 -0.191443 43.130367
17.279469 -9.2324972 43.130466
21.183475 -7.9640069 43.130363
18.443199 -16.579967 43.130466
22.548113 -16.579967 43.130367
17.575594 -11.639434 43.130386
17.981071 -14.199528 43.130386
17.326551 -11.678877 43.130142
17.732033 -14.238972 43.130138
16.822794 -11.758989 49.430779
16.828474 -11.757763 43.46587
17.228174 -14.31845 49.430779
17.233955 -14.317859 43.465866
16.822792 -11.758989 49.065098
17.228172 -14.31845 49.065094
16.82847 -11.757766 43.129677
17.233953 -14.317862 43.129677
14.708724 -12.093823 49.051819
14.706931 -12.045422 43.086906
15.1141 -14.653285 49.051815
15.127357 -14.69987 43.086906
14.708721 -12.093823 48.686134
15.1141 -14.653285 48.686134
14.706927 -12.045423 42.750717
15.127353 -14.699872 42.750717
11.720239 -12.567154 46.365112
11.712141 -12.478935 40.4002
12.125619 -15.126616 46.365112
12.145178 -15.213016 40.4002
11.720239 -12.567154 45.999428
12.125615 -15.126616 45.999428
11.712137 -12.478935 40.064011
12.145174 -15.213018 40.064011
8.4827185 -13.079926 45.416656
8.4681234 -12.950696 39.451744
8.8880968 -15.639388 45.416656
8.9141531 -15.766802 39.451744
8.4827185 -13.079926 45.050972
8.888093 -15.639388 45.050972
8.4681196 -12.950699 39.115551
8.9141474 -15.766802 39.115551
5.5351748 -13.546772 45.031162
6.763073 -13.187229 39.06625
5.9405532 -16.106234 45.031158
7.2214589 -16.081352 39.066246
5.5351748 -13.546772 44.665478
5.9405522 -16.106232 44.665478
6.7630692 -13.187229 38.730057
7.2214551 -16.081352 38.730057
4.9508271 -13.62244 45.035072
6.1938 -13.283137 39.010719
5.3605471 -16.195427 45.024261
6.6551709 -16.180538 38.998596
4.9510221 -13.623731 44.619553
5.3607421 -16.196716 44.608746
6.1939611 -13.28421 38.675941
6.6553311 -16.181612 38.663818
-5.3337111 -16.579977 45.533432
4.6583872 -16.579983 45.029144
5.296351 -16.579983 45.029144
5.2963529 -16.579983 44.626957
6.587534 -16.579981 39.014576
6.587534 -16.579981 38.681149
6.0461979 -16.579981 38.681149
2.7500701 -10.706774 45.029144
3.266196 -10.331787 45.029144
3.266196 -10.331787 44.626957
4.3107829 -9.5728474 39.014576
4.3107829 -9.5728474 38.681149
3.8728321 -9.8910408 38.681149
4.1693411 -13.492251 45.029144
4.7760811 -13.295109 45.029144
4.7760811 -13.295109 44.626957
6.0040669 -12.896111 39.014572
6.0040669 -12.896111 38.681149
5.489224 -13.063395 38.681149
2.9612291 8.9492521 49.431034
2.9307809 8.8555441 49.1931
2.8573389 8.6295147 49.094288
2.4735091 7.448205 49.094288
2.400069 7.2221742 49.1931
2.3696201 7.1284652 49.431034
2.3391719 7.0347571 49.668968
2.2657311 6.8087282 49.767773
2.1158249 6.3473649 49.767773
2.0423839 6.121335 49.669239
2.0119359 6.027626 49.43158
2.013751 6.033216 43.466667
3.282239 9.9372215 43.466568
3.282239 9.9372206 49.43158
3.251792 9.8435097 49.669239
3.17835 9.6174831 49.767773
3.065119 9.2689915 49.767773
2.991678 9.042963 49.668968
10.444208 5.136488 49.43103
10.386292 5.0567751 49.193092
10.246599 4.864501 49.094288
9.5165071 3.859617 49.094288
9.3768148 3.667346 49.193092
9.3188972 3.587631 49.43103
9.2609844 3.50792 49.668964
9.1212902 3.3156469 49.767773
8.8361521 2.923188 49.767773
8.6964588 2.730917 49.669239
8.638545 2.6512029 49.431576
8.6419964 2.655956 43.466667
11.054804 5.9769039 43.466568
11.054806 5.976902 49.431576
10.996888 5.8971901 49.669239
10.857195 5.704916 49.767773
10.641817 5.408473 49.767773
10.502122 5.2162018 49.668968
10.292455 0.87843198 49.431496
10.296328 0.88276201 43.466583
12.124825 -0.95394099 49.431496
12.129156 -0.95006502 43.466583
10.114161 0.70014 49.431255
10.118035 0.70446801 43.466343
11.946532 -1.1322351 49.431248
11.950862 -1.128358 43.466343
2.011935 6.027626 49.065895
8.6385441 2.6512029 49.065895
10.292455 0.87843102 49.065815
12.124825 -0.953942 49.065807
10.114161 0.70013797 49.065567
11.946531 -1.132236 49.065567
2.013751 6.0332122 43.130478
3.282238 9.9372177 43.130375
8.6419945 2.655952 43.130474
11.054801 5.9769011 43.130371
10.296327 0.88275898 43.130394
12.129153 -0.950068 43.13039
10.118033 0.70446599 43.130146
11.950861 -1.128361 43.130146
9.7575741 0.34355101 49.43079
9.7614479 0.347882 43.465878
11.589946 -1.48882 49.43079
11.594275 -1.484944 43.465878
9.7575731 0.34355101 49.065102
11.589944 -1.4888231 49.065102
9.7614479 0.34787899 43.129684
11.594274 -1.484946 43.129681
8.2440653 -1.169955 49.051823
8.2141657 -1.13185 43.086914
10.076441 -3.0023291 49.051823
10.114541 -3.0322249 43.086914
8.2440653 -1.169956 48.686142
10.076438 -3.0023291 48.686142
8.2141638 -1.131853 42.750725
10.11454 -3.0322289 42.750721
6.104547 -3.3094721 46.365116
6.0461431 -3.2428629 40.400208
7.9369221 -5.1418452 46.365116
8.0035295 -5.2002501 40.400208
6.104547 -3.3094721 45.999435
7.9369178 -5.1418462 45.999435
6.0461411 -3.2428651 40.064014
8.0035295 -5.200253 40.064014
3.7867379 -5.6272821 45.416664
3.6989729 -5.5313139 39.451752
5.619113 -7.4596548 45.41666
5.7150822 -7.547421 39.451752
3.7867379 -5.6272821 45.05098
5.6191101 -7.4596572 45.05098
3.698972 -5.5313148 39.115559
5.7150812 -7.5474248 39.115559
1.676532 -7.7374921 45.031162
2.4585879 -6.724874 39.066257
3.5089049 -9.5698652 45.031162
4.5305519 -8.7968359 39.066254
1.676532 -7.7374921 44.665482
3.5089021 -9.5698652 44.665482
2.4585869 -6.7248769 38.730061
4.530551 -8.7968388 38.730061
1.248261 -8.1421785 45.03508
2.0544109 -7.1370769 39.010723
3.0920949 -9.9829407 45.024265
4.1307182 -9.2099361 38.9986
1.249179 -8.1431093 44.619556
3.0930121 -9.9838715 44.608749
2.055172 -7.1378498 38.675945
4.1314788 -9.2107086 38.663822
-2.2459741 -7.0769272 45.029148
-2.0488319 -6.4701862 45.029148
-2.0488319 -6.4701862 44.626961
-1.649835 -5.2421989 39.014576
-1.649835 -5.2421989 38.681152
-1.817118 -5.757041 38.681152
0.53950298 -8.4961996 45.029148
0.91448897 -7.9800749 45.029148
0.91448897 -7.9800749 44.626961
1.673426 -6.9354892 39.014576
1.673426 -6.9354882 38.681152
1.355237 -7.3734388 38.681152
-13.628665 8.9492455 49.431034
-13.598218 8.8555374 49.1931
-13.524777 8.629508 49.094299
-13.140944 7.4481969 49.094292
-13.067502 7.222168 49.1931
-13.037055 7.128459 49.431034
-13.006608 7.03475 49.668968
-12.933167 6.8087211 49.76778
-12.783259 6.3473592 49.76778
-12.709819 6.1213288 49.669247
-12.67937 6.0276208 49.431583
-12.681187 6.0332098 43.466675
-13.949676 9.9372139 43.466572
-13.949676 9.937212 49.431583
-13.919228 9.843504 49.669247
-13.845786 9.6174765 49.76778
-13.732554 9.2689857 49.76778
-13.659114 9.0429554 49.668968
-5.3337178 10.263041 49.431034
-5.3337188 10.164508 49.1931
-5.3337169 9.9268475 49.094292
-5.3337169 8.684741 49.094292
-5.3337178 8.4470816 49.1931
-5.3337178 8.3485479 49.431034
-5.3337188 8.2500172 49.668968
-5.3337169 8.0123577 49.767773
-5.3337178 7.5272508 49.767773
-5.3337178 7.2895918 49.669247
-5.3337169 7.1910601 49.431583
-5.3337169 7.1969352 43.466675
-5.3337188 11.301851 43.466572
-5.3337188 11.301849 49.431583
-5.3337188 11.203319 49.669247
-5.3337178 10.965655 49.76778
-5.3337178 10.599231 49.767773
-5.3337178 10.36157 49.668968
-2.9536681 6.729002 49.431503
-2.9530771 6.7347822 43.466591
-0.39420599 6.3236222 49.431503
-0.39298099 6.3293028 43.466591
-2.993113 6.47996 49.431255
-2.992522 6.4857421 43.466347
-0.43364999 6.0745811 49.431255
-0.43242499 6.0802641 43.466343
-12.67937 6.0276208 49.065903
-5.3337169 7.1910591 49.065895
-2.9536691 6.7290001 49.065815
-0.394207 6.3236208 49.065815
-2.993113 6.479959 49.065575
-0.43364999 6.0745788 49.065575
-12.681186 6.033206 43.130482
-13.949673 9.937211 43.130383
-5.3337159 7.1969318 43.130478
-5.3337188 11.301848 43.130375
-2.9530771 6.7347789 43.130398
-0.39298099 6.3292999 43.130394
-2.992521 6.4857392 43.13015
-0.43242601 6.0802598 43.13015
-3.072001 5.9818802 49.43079
-3.0714099 5.9876618 43.465881
-0.51253903 5.5765009 49.43079
-0.51131397 5.5821838 43.465881
-3.072001 5.9818778 49.065109
-0.51253903 5.576499 49.065109
-3.071409 5.987659 43.129684
-0.51131302 5.5821791 43.129684
-3.4068379 3.8678091 49.051823
-3.453424 3.881063 43.086918
-0.84737599 3.46243 49.051823
-0.798976 3.4606409 43.086914
-3.4068379 3.8678069 48.686146
-0.84737599 3.4624281 48.686146
-3.453424 3.8810599 42.750725
-0.79897499 3.4606359 42.750725
-3.880167 0.879327 46.36512
-3.9665699 0.89888698 40.400211
-1.3207051 0.473948 46.36512
-1.232487 0.46585 40.400211
-3.880167 0.879327 45.999435
-1.3207051 0.47394499 45.999435
-3.9665689 0.89888299 40.064018
-1.232486 0.46584699 40.064014
-4.392941 -2.358196 45.416664
-4.5203528 -2.332139 39.451752
-1.833477 -2.763572 45.416664
-1.704248 -2.778167 39.451752
-4.39294 -2.358196 45.05098
-1.833479 -2.763576 45.05098
-4.5203528 -2.3321431 39.115562
-1.704248 -2.7781701 39.115559
-4.8597841 -5.305737 45.031166
-4.822288 -4.0268321 39.066257
-2.3003211 -5.7111168 45.031166
-1.928165 -4.4852142 39.066257
-4.8597841 -5.305737 44.665482
-2.300323 -5.7111211 44.665482
-4.822288 -4.026834 38.730061
-1.928164 -4.485218 38.730061
-4.9683928 -5.8848681 45.03508
-4.9069872 -4.5978799 39.010723
-2.394727 -6.290297 45.024273
-2.0088241 -5.0544348 38.9986
-4.967104 -5.8850799 44.619556
-2.3934381 -6.2905102 44.608749
-4.9059172 -4.5980549 38.675949
-2.0077541 -5.0546131 38.663826
-8.4214287 -7.0769248 45.029152
-8.6185703 -6.470181 45.029152
-8.6185703 -6.4701819 44.626965
-9.0175676 -5.2421932 39.01458
-9.0175676 -5.2421942 38.681152
-8.8502855 -5.7570372 38.681152
-5.333703 -6.587873 45.029148
-5.333703 -5.9499111 45.029148
-5.333703 -5.9499111 44.626961
-5.3337021 -4.6587281 39.01458
-5.3337021 -4.6587281 38.681152
-5.3337021 -5.2000661 38.681152
20.195517 -24.874918 49.431023
20.101809 -24.844469 49.193089
19.87578 -24.771029 49.094284
18.694466 -24.387197 49.094284
18.468437 -24.313755 49.193089
18.374729 -24.283306 49.431023
18.281019 -24.252857 49.668957
18.054991 -24.179419 49.767765
17.593626 -24.02951 49.767765
17.367599 -23.956072 49.669235
17.273891 -23.925625 49.431576
17.279478 -23.927439 43.466663
21.183487 -25.195927 43.466557
21.183483 -25.195929 49.431576
21.089773 -25.16548 49.669235
20.863745 -25.092037 49.767765
20.515255 -24.978809 49.767765
20.289225 -24.905365 49.668957
16.38275 -32.357903 49.431023
16.303036 -32.299988 49.193089
16.110765 -32.16029 49.094284
15.105883 -31.430201 49.094284
14.91361 -31.290506 49.193089
14.833897 -31.232592 49.431023
14.754182 -31.174673 49.668957
14.561911 -31.034985 49.767765
14.169453 -30.749849 49.767765
13.97718 -30.610151 49.669235
13.897467 -30.552238 49.431576
13.902221 -30.555689 43.466663
17.223167 -32.968498 43.466557
17.223164 -32.968494 49.431572
17.143452 -32.91058 49.669235
16.95118 -32.770889 49.767765
16.654737 -32.555511 49.767765
16.462463 -32.415813 49.668957
16.09897 -26.0464 49.431488
16.104288 -26.04875 43.466579
14.922515 -28.355326 49.431488
14.927542 -28.358246 43.466579
15.87431 -25.931929 49.431248
15.879624 -25.934278 43.466335
14.697853 -28.240854 49.431248
14.702878 -28.243774 43.466335
17.27389 -23.925625 49.065887
13.897466 -30.552238 49.065887
16.09897 -26.0464 49.065807
14.922515 -28.355326 49.065807
15.874309 -25.931929 49.065559
14.69785 -28.240854 49.065559
17.279476 -23.927439 43.130474
21.183483 -25.195927 43.130367
13.902217 -30.555687 43.13047
17.223162 -32.968494 43.130363
16.104284 -26.04875 43.13039
14.927538 -28.358246 43.13039
15.879622 -25.934277 43.130142
14.702875 -28.243774 43.130142
15.424984 -25.702986 49.430782
15.4303 -25.705336 43.465874
14.248528 -28.011909 49.430782
14.253554 -28.014832 43.465874
15.424983 -25.702986 49.065102
14.248527 -28.011909 49.065102
15.430296 -25.705336 43.129681
14.253549 -28.014832 43.129681
13.517855 -24.731256 49.051823
13.544853 -24.691042 43.08691
12.341397 -27.040176 49.051823
12.324739 -27.085655 43.08691
13.517852 -24.731251 48.686138
12.341395 -27.040176 48.686138
13.54485 -24.691042 42.750717
12.324734 -27.085655 42.750717
10.821904 -23.357597 46.365112
10.867207 -23.281469 40.400204
9.6454487 -25.666525 46.365112
9.610487 -25.747919 40.400204
10.821904 -23.357597 45.999432
9.6454458 -25.666523 45.999428
10.867202 -23.281469 40.064011
9.6104822 -25.747919 40.064011
7.9012928 -21.869473 45.41666
7.9654441 -21.756348 39.451748
6.7248392 -24.178396 45.41666
6.6710248 -24.296791 39.451748
7.9012942 -21.869473 45.050976
6.7248378 -24.178396 45.050976
7.9654422 -21.756348 39.115559
6.6710229 -24.296791 39.115559
5.2422771 -20.514637 45.031162
6.447 -20.945499 39.066254
4.0658212 -22.823563 45.031162
5.1167212 -23.55633 39.066254
5.2422771 -20.514637 44.665478
4.0658202 -22.823557 44.665478
6.4469962 -20.945499 38.730061
5.1167159 -23.556324 38.730061
4.7250519 -20.232382 45.035072
5.9300752 -20.688482 39.010719
3.5441611 -22.554802 45.024265
4.6002822 -23.303717 38.998596
4.724452 -20.233541 44.619556
3.5435579 -22.555958 44.608749
5.9295759 -20.689447 38.675945
4.599782 -23.30468 38.663822
2.7500629 -22.453194 45.029144
3.266187 -22.828178 45.029144
3.266187 -22.828178 44.626957
4.3107738 -23.587116 39.014576
4.3107748 -23.587116 38.681149
3.872824 -23.268927 38.681149
4.1693401 -19.667709 45.029144
4.7760811 -19.864853 45.029144
4.7760811 -19.864853 44.626957
6.0040669 -20.263849 39.014576
6.0040669 -20.263849 38.681149
5.489224 -20.096565 38.681149
-27.050175 -0.80205202 49.431034
-26.970459 -0.85996598 49.1931
-26.778189 -0.99966002 49.094299
-25.773304 -1.729751 49.094299
-25.581032 -1.869444 49.1931
-25.501318 -1.927358 49.431034
-25.421604 -1.985275 49.668972
-25.229332 -2.1249681 49.76778
-24.836876 -2.4101059 49.767776
-24.644602 -2.5497999 49.669247
-24.56489 -2.6077161 49.431583
-24.569645 -2.60426 43.466675
-27.890591 -0.191452 43.466572
-27.890591 -0.19145299 49.431587
-27.810875 -0.249369 49.66925
-27.618605 -0.389061 49.76778
-27.322159 -0.604442 49.76778
-27.129887 -0.74413401 49.668972
-21.111647 5.1364722 49.431038
-21.053732 5.056757 49.1931
-20.914036 4.8644862 49.094299
-20.183945 3.859601 49.094299
-20.044252 3.667331 49.1931
-19.986336 3.587615 49.431034
-19.928421 3.5079019 49.668972
-19.788727 3.3156309 49.76778
-19.50359 2.923172 49.76778
-19.363897 2.730902 49.669247
-19.305981 2.6511879 49.431587
-19.309435 2.6559429 43.466675
-21.722244 5.9768872 43.466572
-21.722244 5.9768858 49.431587
-21.664328 5.8971729 49.66925
-21.524633 5.7048998 49.767784
-21.309254 5.4084568 49.76778
-21.169561 5.216186 49.668972
-17.108889 3.6763339 49.431503
-17.111809 3.6813581 43.466595
-14.799965 4.8527889 49.431503
-14.802315 4.8581071 43.466595
-16.994417 3.4516699 49.431255
-16.997339 3.456696 43.466347
-14.685493 4.6281271 49.431255
-14.687842 4.6334429 43.466347
-24.564888 -2.6077149 49.065903
-19.305979 2.6511879 49.065903
-17.108889 3.676332 49.065823
-14.799964 4.852787 49.065823
-16.994417 3.451669 49.065575
-14.685493 4.6281252 49.065575
-24.569641 -2.6042621 43.130482
-27.890587 -0.19145399 43.130379
-19.309431 2.655941 43.130482
-21.722244 5.9768858 43.130383
-17.111807 3.681355 43.130398
-14.802312 4.8581028 43.130398
-16.997335 3.4566929 43.130157
-14.68784 4.6334419 43.130157
-16.765476 3.002346 49.430798
-16.768396 3.0073709 43.465885
-14.456551 4.1788011 49.43079
-14.4589 4.1841192 43.465881
-16.765474 3.0023439 49.065109
-14.45655 4.1787992 49.065109
-16.768393 3.0073681 43.129692
-14.458898 4.1841159 43.129692
-15.793745 1.0952131 49.05183
-15.839224 1.078554 43.086922
-13.484819 2.2716701 49.05183
-13.444612 2.298672 43.086922
-15.793743 1.095212 48.68615
-13.484819 2.2716689 48.68615
-15.839222 1.078552 42.750729
-13.444609 2.2986691 42.750729
-14.42009 -1.600736 46.365124
-14.501488 -1.635697 40.400211
-12.111166 -0.42427799 46.36512
-12.035035 -0.378977 40.400211
-14.420091 -1.600736 45.999439
-12.111164 -0.424281 45.999439
-14.501484 -1.6357009 40.064018
-12.035033 -0.37897801 40.064018
-12.931963 -4.521347 45.416668
-13.050358 -4.5751591 39.451756
-10.62304 -3.344888 45.416664
-10.509912 -3.280735 39.451756
-12.931963 -4.521347 45.050983
-10.623038 -3.344892 45.050983
-13.050355 -4.57516 39.115562
-10.50991 -3.2807369 39.115562
-11.577126 -7.1803608 45.031166
-12.298513 -6.1236668 39.066257
-9.2682009 -6.0039058 45.031166
-9.6876869 -4.7933798 39.066257
-11.577126 -7.1803608 44.665485
-9.2682009 -6.0039091 44.665482
-12.298511 -6.1236682 38.730064
-9.687685 -4.7933831 38.730064
-11.324588 -7.7127271 45.035084
-12.031382 -6.6354389 39.010723
-9.0041428 -6.5279651 45.024273
-9.4183617 -5.301301 38.998604
-11.32342 -7.712142 44.61956
-9.0029755 -6.52738 44.608753
-12.030412 -6.6349521 38.675949
-9.4173908 -5.300817 38.663826
-13.417483 -10.706758 45.029152
-13.933609 -10.331771 45.029152
-13.933609 -10.331771 44.626965
-14.978195 -9.572834 39.01458
-14.978195 -9.572834 38.681156
-14.540246 -9.8910208 38.681156
-11.206912 -8.4961948 45.029152
-11.581899 -7.9800701 45.029152
-11.581899 -7.9800701 44.626965
-12.340836 -6.935482 39.01458
-12.340836 -6.935482 38.681156
-12.022646 -7.3734331 38.681156
-32.176727 -16.579983 49.431038
-32.078197 -16.579983 49.193096
-31.840534 -16.579983 49.094296
-30.598431 -16.579983 49.094296
-30.360769 -16.579983 49.193096
-30.262241 -16.579983 49.431038
-30.163706 -16.579983 49.668972
-29.926046 -16.579983 49.767776
-29.440941 -16.579983 49.767776
-29.203279 -16.579983 49.66925
-29.10475 -16.579983 49.431587
-29.110624 -16.579983 43.466675
-33.215542 -16.579983 43.466572
-33.215542 -16.579983 49.431587
-33.117008 -16.579983 49.66925
-32.879345 -16.579983 49.767784
-32.512924 -16.579983 49.767776
-32.275265 -16.579983 49.668972
-30.862942 -8.2850304 49.431038
-30.769236 -8.3154774 49.1931
-30.543203 -8.3889179 49.094299
-29.361891 -8.7727518 49.094299
-29.135862 -8.8461924 49.1931
-29.042154 -8.8766403 49.431034
-28.948444 -8.9070883 49.668972
-28.722414 -8.9805288 49.767776
-28.261055 -9.1304359 49.767776
-28.035027 -9.2038774 49.669243
-27.941315 -9.2343225 49.431583
-27.946903 -9.2325048 43.466675
-31.85091 -7.9640198 43.466572
-31.850908 -7.9640198 49.431587
-31.757202 -7.9944692 49.66925
-31.53117 -8.0679083 49.767776
-31.18268 -8.1811399 49.767776
-30.956652 -8.2545824 49.668972
-26.766396 -7.1135459 49.431503
-26.771711 -7.111196 43.466591
-25.589941 -4.8046198 49.431503
-25.594965 -4.8017001 43.466591
-26.541733 -7.2280178 49.431255
-26.54705 -7.225666 43.466347
-25.365274 -4.9190941 49.431255
-25.370304 -4.916173 43.466347
-29.104748 -16.579983 49.065899
-27.941311 -9.2343245 49.065903
-26.766394 -7.1135449 49.065819
-25.589939 -4.8046222 49.065819
-26.541731 -7.2280159 49.065575
-25.365273 -4.9190941 49.065575
-29.110622 -16.579983 43.130482
-33.215538 -16.579983 43.130383
-27.946899 -9.2325068 43.130482
-31.850908 -7.9640198 43.130379
-26.771708 -7.111196 43.130398
-25.594965 -4.8016992 43.130398
-26.547045 -7.225667 43.130154
-25.3703 -4.9161711 43.130154
-26.092405 -7.4569602 49.430794
-26.097721 -7.4546099 43.465881
-24.915953 -5.148036 49.43079
-24.920979 -5.145113 43.465881
-26.092407 -7.4569612 49.065109
-24.915951 -5.148036 49.065109
-26.097721 -7.4546099 43.129692
-24.920975 -5.145113 43.129692
-24.185278 -8.4286928 49.05183
-24.212278 -8.4689007 43.086918
-23.008821 -6.1197672 49.05183
-22.992163 -6.0742879 43.086918
-24.185276 -8.4286928 48.686146
-23.008818 -6.1197681 48.686146
-24.212275 -8.4689026 42.750729
-22.992161 -6.0742879 42.750729
-21.489326 -9.8023453 46.365124
-21.53463 -9.8784752 40.400211
-20.312874 -7.493423 46.36512
-20.277912 -7.4120221 40.400211
-21.489326 -9.8023453 45.999439
-20.312872 -7.493423 45.999439
-21.534628 -9.8784742 40.064018
-20.277906 -7.4120221 40.064018
-18.568718 -11.290472 45.416668
-18.63287 -11.403596 39.451756
-17.392262 -8.9815483 45.416664
-17.338449 -8.8631516 39.451756
-18.568718 -11.290472 45.050983
-17.392258 -8.9815483 45.050983
-18.632866 -11.403596 39.115562
-17.338446 -8.8631506 39.115562
-15.909698 -12.645307 45.031166
-17.114424 -12.214441 39.066257
-14.733243 -10.336382 45.031166
-15.784144 -9.6036148 39.066257
-15.909698 -12.645307 44.665485
-14.733242 -10.336385 44.665482
-17.114422 -12.214441 38.730064
-15.784141 -9.6036148 38.730064
-15.392475 -12.927562 45.035084
-16.597498 -12.471459 39.010723
-14.211583 -10.605144 45.024273
-15.267706 -9.856225 38.998604
-15.391873 -12.9264 44.61956
-14.210982 -10.603983 44.608753
-16.597 -12.470495 38.675949
-15.267206 -9.8552637 38.663826
-15.325811 -16.579964 45.029152
-15.963776 -16.579964 45.029152
-15.963777 -16.579964 44.626961
-17.254959 -16.579964 39.01458
-17.254959 -16.579962 38.681156
-16.713621 -16.579962 38.681156
-14.836763 -13.492234 45.029152
-15.443504 -13.295092 45.029152
-15.443504 -13.295092 44.626961
-16.67149 -12.896092 39.01458
-16.67149 -12.896092 38.681156
-16.156649 -13.063372 38.681156
-27.050161 -32.357922 49.431034
-26.970451 -32.300007 49.193096
-26.778175 -32.160313 49.094296
-25.773293 -31.43022 49.094296
-25.58102 -31.290527 49.193096
-25.501308 -31.232609 49.43103
-25.421595 -31.174696 49.668968
-25.229322 -31.035002 49.767776
-24.836864 -30.749865 49.767776
-24.644592 -30.61017 49.669243
-24.564878 -30.552254 49.43158
-24.569635 -30.55571 43.466675
-27.890579 -32.968517 43.466572
-27.890577 -32.968517 49.431587
-27.810863 -32.910603 49.669247
-27.618593 -32.770908 49.767776
-27.322149 -32.555531 49.767776
-27.129877 -32.415836 49.668968
-30.86293 -24.874939 49.431038
-30.769222 -24.844488 49.193096
-30.543192 -24.771048 49.094296
-29.361879 -24.387215 49.094296
-29.135853 -24.313776 49.193096
-29.042141 -24.283327 49.431038
-28.948435 -24.25288 49.668972
-28.722406 -24.179436 49.767776
-28.261042 -24.029531 49.767776
-28.035013 -23.956089 49.669243
-27.941303 -23.92564 49.431587
-27.946894 -23.927454 43.466675
-31.850901 -25.195946 43.466572
-31.850901 -25.195946 49.431587
-31.757187 -25.165497 49.669247
-31.53116 -25.092058 49.76778
-31.182671 -24.978825 49.76778
-30.95664 -24.905382 49.668972
-28.237335 -21.519295 49.431499
-28.243019 -21.520521 43.466595
-28.642715 -18.959833 49.431499
-28.648499 -18.960423 43.466591
-27.988297 -21.479851 49.431259
-27.993979 -21.481075 43.466347
-28.393677 -18.920389 49.431255
-28.399458 -18.920982 43.466347
-24.564878 -30.552254 49.065899
-27.941303 -23.92564 49.065899
-28.237335 -21.519295 49.065819
-28.642714 -18.959833 49.065819
-27.988297 -21.479851 49.065571
-28.393675 -18.920389 49.065571
-24.569632 -30.555708 43.130478
-27.890575 -32.968517 43.130379
-27.946892 -23.927454 43.130478
-31.850895 -25.195946 43.130383
-28.243017 -21.520515 43.130398
-28.648495 -18.960423 43.130398
-27.993975 -21.481075 43.130154
-28.399452 -18.920977 43.130154
-27.490213 -21.400961 49.430794
-27.495897 -21.402185 43.465881
-27.895594 -18.841499 49.430794
-27.901379 -18.842093 43.465881
-27.490211 -21.400961 49.065105
-27.895592 -18.841499 49.065109
-27.495892 -21.402185 43.129692
-27.901373 -18.842089 43.129688
-25.376144 -21.066128 49.051834
-25.374355 -21.114531 43.086922
-25.781523 -18.506664 49.051826
-25.794779 -18.460081 43.086922
-25.376143 -21.066128 48.686146
-25.781523 -18.506664 48.686146
-25.374352 -21.114527 42.750725
-25.794777 -18.460079 42.750725
-22.387661 -20.592798 46.365124
-22.379566 -20.681015 40.400215
-22.793041 -18.033337 46.365124
-22.812601 -17.946932 40.400211
-22.387661 -20.592798 45.999439
-22.793039 -18.033337 45.999439
-22.379562 -20.681015 40.064022
-22.812597 -17.946932 40.064022
-19.150141 -20.080025 45.416664
-19.135548 -20.209255 39.451756
-19.555521 -17.520563 45.416664
-19.581577 -17.393148 39.451756
-19.150141 -20.080025 45.05098
-19.555517 -17.520563 45.050983
-19.135544 -20.209251 39.115562
-19.581573 -17.393147 39.115562
-16.202599 -19.61318 45.031166
-17.430498 -19.972721 39.066257
-16.607977 -17.053717 45.031166
-17.888884 -17.078598 39.066257
-16.2026 -19.61318 44.665485
-16.607975 -17.053717 44.665485
-17.430496 -19.972721 38.730064
-17.888882 -17.078596 38.730064
-15.61825 -19.537512 45.03508
-16.861225 -19.87681 39.010723
-16.027973 -16.964525 45.024273
-17.322598 -16.979412 38.998608
-15.618446 -19.536219 44.61956
-16.028168 -16.963232 44.608753
-16.861387 -19.87574 38.675949
-17.322758 -16.978338 38.66383
-13.417496 -22.453182 45.029152
-13.93362 -22.828171 45.029152
-13.93362 -22.828171 44.626961
-14.978208 -23.587109 39.01458
-14.978208 -23.587109 38.681156
-14.540258 -23.268917 38.681156
-14.836764 -19.667702 45.029152
-15.443505 -19.864841 45.029152
-15.443505 -19.864841 44.626961
-16.671494 -20.26384 39.01458
-16.671494 -20.26384 38.681156
-16.156651 -20.096558 38.681156
-13.628653 -42.109215 49.43103
-13.598205 -42.015503 49.193096
-13.524764 -41.789474 49.094296
-13.140932 -40.608166 49.094296
-13.067492 -40.382137 49.193096
-13.037044 -40.288425 49.43103
-13.006596 -40.194721 49.668964
-12.933154 -39.968685 49.767773
-12.783248 -39.507328 49.767773
-12.709807 -39.2813 49.669243
-12.67936 -39.187588 49.43158
-12.681177 -39.193176 43.466671
-13.949664 -43.097183 43.466568
-13.949663 -43.097179 49.431583
-13.919215 -43.003468 49.669239
-13.845773 -42.777447 49.767773
-13.732542 -42.428955 49.767773
-13.659101 -42.202923 49.668968
-21.111633 -38.296452 49.43103
-21.053717 -38.216736 49.193096
-20.914024 -38.024464 49.094296
-20.183931 -37.019577 49.094296
-20.044241 -36.827312 49.193096
-19.986322 -36.747597 49.43103
-19.928408 -36.667881 49.668968
-19.788715 -36.475609 49.767776
-19.503576 -36.083153 49.767776
-19.363884 -35.890877 49.669243
-19.305969 -35.811161 49.43158
-19.309425 -35.815918 43.466671
-21.722233 -39.136864 43.466568
-21.722227 -39.136864 49.431583
-21.664312 -39.057148 49.669243
-21.52462 -38.86488 49.767776
-21.309242 -38.568436 49.767776
-21.169546 -38.37616 49.668964
-20.959877 -34.038395 49.431499
-20.963755 -34.042725 43.466591
-22.79225 -32.20602 49.431499
-22.796583 -32.2099 43.466591
-20.781584 -33.8601 49.431252
-20.785463 -33.864433 43.466347
-22.613956 -32.027729 49.431252
-22.61829 -32.031601 43.466347
-12.67936 -39.187588 49.065899
-19.305967 -35.811161 49.065899
-20.959875 -34.038395 49.065819
-22.792248 -32.20602 49.065819
-20.781582 -33.8601 49.065571
-22.613956 -32.027729 49.065571
-12.681175 -39.193172 43.130478
-13.949663 -43.097179 43.130375
-19.309423 -35.815914 43.130478
-21.722229 -39.136864 43.130375
-20.963755 -34.042721 43.130398
-22.796581 -32.209896 43.130398
-20.785461 -33.864426 43.130154
-22.61829 -32.031601 43.130154
-20.424999 -33.503517 49.430786
-20.428877 -33.507843 43.465881
-22.25737 -31.671143 49.430786
-22.261703 -31.675016 43.465881
-20.424997 -33.503517 49.065105
-22.25737 -31.671143 49.065105
-20.428875 -33.507839 43.129688
-22.261702 -31.675014 43.129688
-18.911489 -31.990005 49.051826
-18.881594 -32.028111 43.086918
-20.743864 -30.157633 49.051826
-20.781969 -30.127735 43.086918
-18.911488 -31.990005 48.686146
-20.74386 -30.157633 48.686146
-18.88159 -32.028107 42.750725
-20.781967 -30.127731 42.750725
-16.771973 -29.850491 46.365124
-16.71357 -29.917097 40.400211
-18.604347 -28.018118 46.365124
-18.670958 -27.959711 40.400211
-16.771973 -29.850491 45.999439
-18.604343 -28.018118 45.999439
-16.713568 -29.917095 40.064018
-18.670956 -27.959709 40.064022
-14.454165 -27.532679 45.416664
-14.366401 -27.628649 39.451756
-16.286537 -25.700308 45.416664
-16.382509 -25.612541 39.451756
-14.454165 -27.532679 45.05098
-16.286535 -25.700306 45.05098
-14.366399 -27.628645 39.115562
-16.382509 -25.612539 39.115559
-12.343958 -25.422468 45.031166
-13.126015 -26.435085 39.066257
-14.176332 -23.590096 45.031166
-15.197981 -24.363127 39.066257
-12.343958 -25.422468 44.665485
-14.176329 -23.590096 44.665485
-13.126015 -26.435085 38.730064
-15.197979 -24.363125 38.730064
-11.915687 -25.017782 45.03508
-12.72184 -26.022886 39.010723
-13.759521 -23.177021 45.024273
-14.798144 -23.950026 38.998604
-11.916604 -25.016853 44.61956
-13.760438 -23.176092 44.608753
-12.722601 -26.022114 38.675949
-14.798906 -23.949253 38.66383
-8.4214506 -26.083035 45.029152
-8.6185932 -26.689774 45.029152
-8.6185932 -26.689774 44.626961
-9.0175915 -27.917759 39.01458
-9.0175924 -27.917759 38.681156
-8.8503094 -27.402916 38.681156
-11.206928 -24.663761 45.029152
-11.581914 -25.179886 45.029152
-11.581915 -25.179886 44.626961
-12.340854 -26.224474 39.01458
-12.340854 -26.224474 38.681156
-12.022664 -25.786522 38.681156
2.9612451 -42.109207 49.431026
2.9307959 -42.015499 49.193089
2.857357 -41.789467 49.094284
2.4735229 -40.608154 49.094284
2.4000821 -40.382126 49.193089
2.3696351 -40.288422 49.43103
2.3391869 -40.19471 49.668964
2.2657461 -39.968681 49.767769
2.1158409 -39.507317 49.767769
2.0423989 -39.281288 49.669235
2.01195 -39.18758 49.431572
2.0137651 -39.193169 43.466663
3.282254 -43.097176 43.466564
3.282254 -43.097176 49.431572
3.251806 -43.003464 49.669235
3.1783659 -42.777435 49.767769
3.065135 -42.428947 49.767769
2.991693 -42.202915 49.668961
-5.333704 -43.423 49.43103
-5.333704 -43.324471 49.193092
-5.333704 -43.086811 49.094292
-5.3337049 -41.844704 49.094288
-5.333704 -41.60704 49.193096
-5.333704 -41.508507 49.43103
-5.333704 -41.409981 49.668964
-5.3337049 -41.172318 49.767773
-5.333704 -40.687214 49.767773
-5.333704 -40.449554 49.669239
-5.3337049 -40.351025 49.43158
-5.3337059 -40.356895 43.466671
-5.333704 -44.461811 43.466568
-5.333704 -44.461807 49.431583
-5.333704 -44.363281 49.669239
-5.3337049 -44.125618 49.767773
-5.3337049 -43.759193 49.767773
-5.333704 -43.521534 49.668964
-7.7137542 -39.888966 49.431499
-7.7143459 -39.894741 43.466587
-10.273216 -39.483582 49.431499
-10.274442 -39.489262 43.466587
-7.6743088 -39.639923 49.431252
-7.674902 -39.645702 43.466343
-10.233772 -39.234539 49.431252
-10.234998 -39.240227 43.466343
2.0119491 -39.18758 49.065891
-5.3337049 -40.351021 49.065899
-7.7137532 -39.888962 49.065815
-10.273216 -39.483582 49.065815
-7.6743088 -39.639919 49.065571
-10.233771 -39.234539 49.065571
2.0137639 -39.193161 43.130474
3.2822521 -43.097168 43.130371
-5.3337069 -40.356892 43.130478
-5.3337049 -44.461807 43.130375
-7.7143469 -39.894741 43.130398
-10.274442 -39.489262 43.130398
-7.674902 -39.645699 43.13015
-10.234998 -39.240219 43.13015
-7.5954208 -39.141842 49.430786
-7.596014 -39.147625 43.465878
-10.154883 -38.736462 49.430786
-10.156109 -38.742142 43.465881
-7.5954208 -39.141838 49.065105
-10.154883 -38.736462 49.065105
-7.596014 -39.147617 43.129688
-10.15611 -38.742142 43.129688
-7.2605839 -37.027771 49.051826
-7.2139988 -37.041023 43.086918
-9.8200474 -36.622387 49.051826
-9.8684483 -36.620602 43.086918
-7.2605839 -37.027771 48.686146
-9.8200464 -36.622387 48.686146
-7.2140002 -37.041019 42.750725
-9.8684483 -36.620594 42.750725
-6.7872558 -34.039288 46.36512
-6.7008548 -34.058842 40.400211
-9.3467188 -33.633904 46.36512
-9.4349365 -33.625813 40.400208
-6.7872558 -34.039288 45.999435
-9.3467178 -33.633904 45.999439
-6.7008548 -34.058842 40.064018
-9.4349365 -33.625805 40.064018
-6.2744832 -30.801765 45.416664
-6.1470718 -30.827818 39.451756
-8.8339462 -30.396387 45.416664
-8.9631758 -30.381792 39.451756
-6.2744842 -30.801765 45.05098
-8.8339453 -30.396385 45.05098
-6.1470718 -30.827816 39.115562
-8.9631777 -30.38179 39.115562
-5.8076401 -27.854223 45.031166
-5.8451371 -29.133125 39.066257
-8.3671017 -27.448843 45.031166
-8.7392597 -28.674747 39.066257
-5.8076401 -27.854223 44.665482
-8.3670998 -27.448841 44.665482
-5.8451381 -29.133125 38.730061
-8.7392607 -28.67474 38.730064
-5.6990299 -27.275091 45.03508
-5.760438 -28.562078 39.010723
-8.2726955 -26.869663 45.024273
-8.6586008 -28.105522 38.998604
-5.7003198 -27.274879 44.61956
-8.2739859 -26.869448 44.608753
-5.761508 -28.561901 38.675949
-8.6596708 -28.105343 38.66383
-2.2459919 -26.083035 45.029144
-2.0488501 -26.689775 45.029144
-2.0488501 -26.689775 44.626957
-1.649855 -27.917759 39.014576
-1.649855 -27.917763 38.681149
-1.817137 -27.402922 38.681149
-5.3337212 -26.572083 45.029152
-5.3337212 -27.210051 45.029152
-5.3337221 -27.210051 44.626961
-5.3337231 -28.501232 39.01458
-5.3337231 -28.501232 38.681156
-5.333724 -27.959894 38.681156
10.444226 -38.296429 49.431023
10.386312 -38.216717 49.193089
10.246617 -38.024445 49.094284
9.5165272 -37.019562 49.094284
9.3768339 -36.827286 49.193089
9.3189173 -36.747574 49.431023
9.2610025 -36.667862 49.668957
9.1213083 -36.47559 49.767765
8.8361712 -36.083126 49.767765
8.6964769 -35.890858 49.669231
8.6385612 -35.811142 49.431572
8.6420135 -35.815899 43.466663
11.054823 -39.136845 43.466557
11.054823 -39.136845 49.431572
10.996908 -39.057129 49.669231
10.857214 -38.864861 49.767765
10.641835 -38.568417 49.767765
10.502141 -38.376144 49.668957
6.4414711 -36.836288 49.431488
6.4443898 -36.841312 43.466579
4.1325459 -38.012745 49.431488
4.1348939 -38.018063 43.466579
6.3270001 -36.611629 49.431244
6.3299189 -36.616653 43.466335
4.018075 -37.788086 49.431244
4.0204239 -37.793404 43.466335
8.6385612 -35.811142 49.065887
6.4414692 -36.836288 49.065807
4.132545 -38.012745 49.065807
6.3269982 -36.611629 49.065559
4.018075 -37.788082 49.065559
8.6420107 -35.815899 43.130466
11.05482 -39.136845 43.130363
6.444387 -36.841312 43.130386
4.134892 -38.018063 43.130386
6.329916 -36.61665 43.130142
4.020421 -37.793396 43.130142
6.0980582 -36.162304 49.430782
6.100976 -36.167328 43.46587
3.7891331 -37.338757 49.430782
3.791481 -37.344078 43.46587
6.0980558 -36.162304 49.065094
3.7891331 -37.338757 49.065094
6.1009731 -36.167328 43.129681
3.791477 -37.34407 43.129681
5.1263261 -34.255169 49.051819
5.1718049 -34.23851 43.086906
2.8174019 -35.431625 49.051819
2.7771921 -35.45863 43.086906
5.1263251 -34.255169 48.686134
2.8174019 -35.431625 48.686134
5.171802 -34.238506 42.750717
2.777189 -35.458622 42.750717
3.752671 -31.559221 46.365112
3.8340671 -31.52426 40.400204
1.443747 -32.73568 46.365112
