# .PCD v0.7 - Point Cloud Data file format
VERSION 0.7
FIELDS x y z
SIZE 4 4 4
TYPE F F F
COUNT 1 1 1
WIDTH 1587
HEIGHT 1
VIEWPOINT 0 0 0 1 0 0 0
POINTS 1587
DATA ascii
19.08448 -9.0115356 23.676601
21.384478 -10.386742 18.077374
19.163244 -9.0520897 18.077374
21.457262 -10.437244 24.012793
19.084484 -9.0115318 24.012794
23.07271 -7.5770531 18.660145
23.181084 -7.648941 24.625057
20.851471 -6.2424011 18.660147
20.737122 -6.1804619 24.625057
23.07271 -7.5770531 19.025829
20.851475 -6.2423973 19.025829
23.181084 -7.6489372 24.961248
20.737122 -6.1804543 24.96125
24.60973 -5.0190201 19.045643
24.095877 -6.1907578 25.010551
22.388493 -3.6843681 19.045645
21.584206 -4.6815929 25.010553
24.60973 -5.0190201 19.411327
22.388496 -3.6843681 19.411327
24.095879 -6.1907539 25.346746
21.584206 -4.681591 25.346746
24.927376 -4.5227451 19.041729
24.388325 -5.6930199 25.066086
22.692989 -3.1827278 19.05254
21.872223 -4.1840324 25.078207
24.926258 -4.5220661 19.457251
22.691874 -3.182045 19.46806
24.387402 -5.6924553 25.400862
21.8713 -4.1834698 25.412985
28.575527 -4.7110291 19.047661
28.531025 -5.3474388 19.047661
28.531023 -5.3474388 19.449848
28.44096 -6.6354752 25.062231
28.44096 -6.6354752 25.395655
28.478718 -6.095459 25.395655
25.529434 -4.0077782 19.047661
25.290449 -4.5992889 19.047661
25.290449 -4.5992889 19.449848
24.806767 -5.7964516 25.062231
24.806767 -5.7964516 25.395657
25.009552 -5.2945328 25.395657
43.497189 -17.507439 14.645775
43.444973 -17.423874 14.883711
43.319031 -17.222328 14.982516
42.66082 -16.168968 14.982516
42.534878 -15.967419 14.883711
42.482666 -15.883862 14.645776
42.43045 -15.800301 14.407841
42.304508 -15.598751 14.309034
42.047443 -15.187359 14.309034
41.921501 -14.985813 14.407566
41.869286 -14.902252 14.645226
41.872402 -14.907234 20.610138
44.047676 -18.388397 20.610237
44.047672 -18.388397 14.645226
43.995461 -18.30484 14.407565
43.869522 -18.103291 14.309033
43.675346 -17.792545 14.309034
43.549404 -17.591 14.40784
35.766476 -20.788937 14.645777
35.742638 -20.693329 14.883712
35.685143 -20.46273 14.982517
35.384651 -19.257523 14.982518
35.327156 -19.02692 14.883712
35.303318 -18.931313 14.645777
35.279484 -18.835712 14.407842
35.221985 -18.605106 14.309036
35.10463 -18.134411 14.309036
35.047131 -17.903816 14.407567
35.023293 -17.808205 14.645228
35.024715 -17.813908 20.610138
36.017792 -21.79689 20.610241
36.017788 -21.796886 14.645227
35.99395 -21.701279 14.407567
35.936455 -21.47068 14.309035
35.847809 -21.115143 14.309035
35.790314 -20.884537 14.407842
32.602161 -17.935658 14.64531
32.602985 -17.941414 20.61022
30.020653 -18.161507 14.645311
30.020847 -18.16732 20.610222
32.580185 -17.684471 14.645555
32.581013 -17.690228 20.610466
29.998682 -17.910324 14.645556
29.998863 -17.916134 20.610466
41.869286 -14.902252 15.01091
35.023293 -17.808205 15.010911
32.602161 -17.935658 15.010994
30.020655 -18.161507 15.010994
32.580185 -17.684471 15.011239
29.998682 -17.910324 15.01124
41.872398 -14.907234 20.946331
44.047672 -18.388397 20.946432
35.024715 -17.813908 20.946331
36.017788 -21.796883 20.946434
32.602985 -17.941406 20.946413
30.020842 -18.16732 20.946415
32.581013 -17.690228 20.946657
29.998865 -17.91613 20.946659
32.536236 -17.182102 14.64602
32.537056 -17.187855 20.610928
29.954729 -17.407959 14.646021
29.954916 -17.413765 20.610928
32.536236 -17.182102 15.011703
29.954731 -17.407955 15.011703
32.53706 -17.187851 20.947123
29.954912 -17.413765 20.947124
32.349686 -15.049824 15.024981
32.398094 -15.051414 20.989891
29.768179 -15.275681 15.024982
29.720783 -15.285648 20.989891
32.349686 -15.049824 15.390664
29.768181 -15.275677 15.390666
32.398094 -15.051411 21.326082
29.720781 -15.285645 21.326086
32.085976 -12.035606 17.711689
32.174545 -12.03368 23.676598
29.504467 -12.261459 17.711689
29.416912 -12.274944 23.6766
32.085976 -12.035606 18.077374
29.504471 -12.261456 18.077374
32.174541 -12.03368 24.012791
29.416912 -12.27494 24.012793
31.800289 -8.7702007 18.660145
31.93022 -8.7646561 24.625055
29.218784 -8.9960556 18.660145
29.089863 -9.0131588 24.625055
31.800289 -8.7702007 19.025829
29.218782 -8.9960499 19.025829
31.930218 -8.7646523 24.961248
29.089859 -9.0131531 24.961248
31.540188 -5.7972717 19.045643
31.813202 -7.0472603 25.010553
28.958683 -6.0231247 19.045643
28.894157 -7.3026466 25.010551
31.540188 -5.7972717 19.411325
28.958685 -6.0231228 19.411327
31.813202 -7.0472603 25.346745
28.894154 -7.3026428 25.346745
31.505468 -5.2090683 19.041729
31.757236 -6.4726868 25.066086
28.910168 -5.4383087 19.052538
28.834709 -6.7308178 25.078205
31.504164 -5.2091732 19.457249
28.908867 -5.4384155 19.46806
31.756157 -6.4727707 25.400862
28.83363 -6.7309036 25.412983
34.567551 -3.2170582 19.047659
34.905621 -3.7580833 19.047659
34.905621 -3.7580833 19.449846
35.589844 -4.8530693 25.062229
35.589844 -4.8530693 25.395655
35.302975 -4.3939896 25.395655
31.689852 -4.4385681 19.047659
31.844193 -5.0575829 19.047659
31.844193 -5.0575829 19.449846
32.156555 -6.3104134 25.062231
32.156555 -6.3104134 25.395657
32.025597 -5.7851543 25.395657
54.160969 -4.7988358 14.645777
54.069611 -4.7619228 14.883712
53.849255 -4.6728935 14.982518
52.69759 -4.207592 14.982518
52.477238 -4.1185627 14.883712
52.38588 -4.0816517 14.645777
52.294525 -4.0447426 14.407842
52.074173 -3.9557152 14.309036
51.624386 -3.7739868 14.309035
51.40403 -3.6849594 14.407567
51.312672 -3.6480484 14.645228
51.318127 -3.6502533 20.610138
55.124134 -5.1879787 20.610241
55.124134 -5.1879787 14.645227
55.032776 -5.1510677 14.407566
54.81242 -5.0620384 14.309034
54.472675 -4.9247704 14.309035
54.252323 -4.835743 14.407842
49.835495 -11.99762 14.645773
49.760021 -11.934288 14.883709
49.577961 -11.781521 14.982514
48.626457 -10.983116 14.982515
48.444397 -10.830349 14.883709
48.368912 -10.767014 14.645774
48.293438 -10.70368 14.407839
48.111378 -10.550915 14.309033
47.739761 -10.239094 14.309032
47.557701 -10.086327 14.407564
47.482227 -10.022997 14.645226
47.486725 -10.02677 20.610134
50.631275 -12.665359 20.610237
50.631271 -12.665356 14.645225
50.555794 -12.60202 14.407563
50.373734 -12.449257 14.309031
50.093037 -12.213722 14.309032
49.910976 -12.060955 14.407839
45.598404 -11.549213 14.645308
45.602451 -11.553383 20.610218
43.64267 -13.249298 14.645308
43.64624 -13.253891 20.610218
45.43298 -11.358915 14.645553
45.437027 -11.363083 20.610462
43.477249 -13.059006 14.645554
43.48082 -13.063595 20.610462
51.312672 -3.6480484 15.010912
47.48222 -10.022991 15.010908
45.5984 -11.549206 15.010991
43.64267 -13.249298 15.010991
45.43298 -11.358915 15.011236
43.477249 -13.059006 15.011236
51.318115 -3.6502476 20.946331
55.124134 -5.1879787 20.946432
47.486725 -10.026772 20.946327
50.631271 -12.665356 20.94643
45.602448 -11.553379 20.946411
43.646233 -13.253887 20.946411
45.437027 -11.363085 20.946655
43.480812 -13.063591 20.946655
45.102135 -10.978323 14.646017
45.106186 -10.982494 20.610928
43.146408 -12.678413 14.646018
43.149975 -12.683002 20.610928
45.102135 -10.978321 15.0117
43.146408 -12.678413 15.011701
45.106182 -10.982492 20.947121
43.149971 -12.683002 20.947121
43.697891 -9.3629246 15.024979
43.737991 -9.3357563 20.989891
41.742165 -11.063013 15.02498
41.709682 -11.09894 20.989891
43.697891 -9.3629246 15.390662
41.742165 -11.063013 15.390663
43.737991 -9.3357563 21.326082
41.709682 -11.09894 21.326082
41.712833 -7.0793724 17.711685
41.783356 -7.0257607 23.676596
39.757103 -8.7794647 17.711687
39.694199 -8.8418388 23.676596
41.712833 -7.0793724 18.07737
39.757103 -8.7794647 18.07737
41.783348 -7.0257549 24.012789
39.694199 -8.8418388 24.012791
39.562351 -4.6055279 18.660145
39.664207 -4.5246735 24.625053
37.606625 -6.3056202 18.660145
37.512375 -6.3952332 24.625053
39.562351 -4.6055279 19.025826
37.606621 -6.3056183 19.025827
39.664207 -4.5246696 24.961246
37.512375 -6.3952332 24.961248
37.604485 -2.3532619 19.045641
38.560081 -3.2040482 25.01055
35.648754 -4.0533524 19.045641
36.348633 -5.1264362 25.010551
37.604485 -2.3532619 19.411325
35.648754 -4.0533447 19.411325
38.560081 -3.2040482 25.346743
36.348625 -5.1264305 25.346743
37.230656 -1.8978024 19.041727
38.177078 -2.7721043 25.066084
35.265759 -3.6087379 19.052536
35.964432 -4.6987572 25.078203
37.229664 -1.8986549 19.457249
35.264763 -3.6095886 19.468056
38.176254 -2.77281 25.400858
35.963604 -4.6994629 25.412981
38.53706 1.5136185 19.047661
39.128571 1.2746315 19.047661
39.128571 1.2746315 19.449848
40.325733 0.79094505 25.062231
40.325733 0.79094505 25.395655
39.823814 0.99373436 25.395655
36.926937 -1.1660748 19.047657
37.415649 -1.5761509 19.047657
37.415649 -1.5761509 19.449844
38.404751 -2.4061089 25.062229
38.404751 -2.4061089 25.395655
37.990059 -2.0581417 25.395655
56.050175 3.3842697 14.64578
55.951889 3.39114 14.883716
55.714802 3.4077225 14.982521
54.475727 3.4943657 14.982521
54.238644 3.5109444 14.883716
54.14035 3.5178204 14.64578
54.042057 3.5246925 14.407845
53.804977 3.5412693 14.309039
53.321049 3.5751114 14.309039
53.083973 3.5916862 14.407571
52.98568 3.5985603 14.645231
52.991543 3.5981483 20.610142
57.08646 3.3118057 20.610243
57.086456 3.3118057 14.64523
56.988167 3.3186798 14.40757
56.75108 3.3352585 14.309038
56.385551 3.360817 14.309038
56.148468 3.3773956 14.407845
52.358723 1.2565384 14.645313
52.364449 1.2555466 20.610224
51.775791 -1.2684097 14.645314
51.78138 -1.2700291 20.610226
52.113037 1.3132629 14.645559
52.118771 1.3122654 20.61047
51.530113 -1.2116909 14.645559
51.535698 -1.2133083 20.61047
52.98568 3.5985603 15.010915
52.358723 1.2565384 15.010997
51.775791 -1.2684097 15.010997
52.113037 1.3132629 15.011242
51.530106 -1.2116871 15.011242
52.991539 3.5981483 20.946333
57.086456 3.3118057 20.946436
52.364449 1.2555447 20.946415
51.781372 -1.270031 20.946415
52.118767 1.3122635 20.946661
51.535686 -1.2133083 20.946663
51.621674 1.4267044 14.646023
51.627407 1.425705 20.610933
51.03875 -1.0982494 14.646024
51.044331 -1.0998688 20.610933
51.621674 1.4267025 15.011706
51.03875 -1.0982494 15.011706
51.627403 1.4257069 20.947124
51.044323 -1.099865 20.947124
49.53611 1.9081917 15.024985
49.552582 1.953743 20.989895
48.953178 -0.61675644 15.024985
48.948021 -0.66491699 20.989895
49.53611 1.9081917 15.390668
48.953178 -0.61675644 15.390668
49.552582 1.9537392 21.326086
48.948021 -0.66491699 21.326088
46.587929 2.5888348 17.711693
46.613468 2.6736603 23.676601
46.004997 0.063882828 17.711693
45.990768 -0.023553848 23.676601
46.587929 2.5888348 18.077375
46.004997 0.063882828 18.077377
46.613464 2.6736641 24.012794
45.990765 -0.023555756 24.012794
43.394062 3.3261967 18.660149
43.42894 3.4514809 24.625057
42.811134 0.80124474 18.660149
42.78756 0.67334938 24.625057
43.394062 3.3261967 19.025833
42.811127 0.80124664 19.025833
43.428936 3.4514809 24.96125
42.78756 0.67334938 24.961252
40.486263 3.9975128 19.045647
41.759438 3.8708954 25.010555
39.903336 1.4725628 19.045647
41.100288 1.0157967 25.010555
40.486263 3.9975128 19.411329
39.903332 1.4725647 19.411329
41.759434 3.8708973 25.346748
41.100288 1.0157967 25.346748
39.916119 4.1462574 19.041733
41.19569 3.9952221 25.06609
39.332153 1.6071396 19.052544
40.538078 1.1359653 25.078211
39.915817 4.1449852 19.457253
39.331844 1.6058693 19.468063
41.195438 3.9941692 25.400864
40.53783 1.1349125 25.412987
39.240311 4.5597153 19.047665
39.876717 4.5152159 19.047663
39.876717 4.5152159 19.449852
41.164757 4.4251404 25.062235
41.164757 4.4251413 25.39566
40.624737 4.462904 25.39566
35.695347 12.911125 18.543373
29.969566 15.224494 18.543373
33.015656 14.521247 18.543375
23.977547 13.730522 18.543373
26.855244 14.952029 18.543371
20.008036 8.9998522 18.543373
21.618156 11.679541 18.543373
38.967842 7.6740351 18.543373
37.74633 10.551739 18.543371
19.577248 2.8394394 18.543373
19.30479 5.9537563 18.543373
22.849739 -2.3976517 18.543373
20.798752 -0.038261414 18.543373
28.575527 -4.7110291 18.543371
25.529434 -4.0077782 18.543369
34.567551 -3.2170582 18.543369
31.689852 -4.4385681 18.543369
38.53706 1.5136185 18.543371
36.926937 -1.1660748 18.543369
39.240311 4.5597153 18.543375
33.535545 15.807999 32.756119
30.06638 16.608921 32.756119
26.519508 16.298613 32.756119
23.242125 14.907449 32.756119
20.55504 12.571606 32.756119
18.721287 9.5197334 32.756119
17.920364 6.0505638 32.756119
18.230667 2.5036964 32.756119
19.621824 -0.77368927 32.756119
21.957672 -3.4607754 32.756119
25.009556 -5.2945366 32.756119
28.478722 -6.095459 32.756119
32.025597 -5.7851563 32.756119
35.302975 -4.3939896 32.756119
37.990067 -2.0581455 32.756115
39.823818 0.99373055 32.756115
40.624741 4.4629021 32.756115
40.31443 8.0097752 32.756115
38.923264 11.287165 32.756115
36.587418 13.974244 32.756115
30.128933 32.976254 18.710148
30.128929 32.97625 14.930387
40.654251 30.546295 18.710148
40.654251 30.546295 14.930387
46.258503 27.178925 18.710146
46.258503 27.178925 14.930386
13.672255 28.185671 18.710144
13.672253 28.185669 14.930385
23.615705 32.406418 18.710144
23.615702 32.406418 14.930385
3.1743565 14.637014 18.710144
3.1743565 14.637012 14.930385
8.7378855 23.896288 18.710144
8.7378855 23.896286 14.930384
53.345371 19.026424 18.710144
53.345375 19.026419 14.930384
55.900009 13.008061 18.710144
55.900009 13.008061 14.930384
2.6450729 -2.4945927 18.710146
2.6450768 -2.4945927 14.930386
1.7036057 8.2664757 18.710144
1.7036057 8.2664757 14.930385
12.286585 -16.665451 18.710144
12.286585 -16.665451 14.930385
5.1997128 -8.5129471 18.710146
5.1997147 -8.512949 14.930386
28.416162 -22.462784 18.71014
28.416161 -22.462784 14.930383
17.890848 -20.032825 18.710144
17.890848 -20.032825 14.930384
44.872841 -17.672207 18.71014
44.872845 -17.672203 14.93038
34.929394 -21.89296 18.710142
34.929394 -21.89296 14.930382
55.370739 -4.1235466 18.71014
55.370739 -4.1235466 14.930382
49.807209 -13.38282 18.710138
49.807209 -13.38282 14.930379
56.841492 2.246994 18.710144
56.841492 2.2469902 14.930385
29.961401 32.96244 18.542049
29.961399 32.962437 15.098483
40.798771 30.46044 18.542051
40.798771 30.46044 15.098484
46.114845 27.26622 18.542049
46.114845 27.26622 15.098483
13.544839 28.076023 18.542049
13.544839 28.076023 15.098481
23.783087 32.421906 18.542049
23.783089 32.421906 15.09848
3.1357231 14.473413 18.542049
3.1357269 14.473412 15.098481
8.8641996 24.0072 18.542049
8.8641996 24.0072 15.09848
53.411823 18.872017 18.542046
53.411827 18.872017 15.09848
55.835106 13.163124 18.542046
55.835106 13.163124 15.09848
2.7099819 -2.6496544 18.542049
2.7099819 -2.6496544 15.098482
1.7406025 8.4304523 18.542049
1.7406025 8.4304523 15.09848
12.430241 -16.752743 18.542049
12.430239 -16.752747 15.09848
5.1332588 -8.3585415 18.542049
5.1332588 -8.3585415 15.098482
28.583691 -22.448975 18.542046
28.583691 -22.448975 15.098478
17.746326 -19.946972 18.542049
17.746328 -19.946968 15.09848
45.000259 -17.562565 18.542042
45.000259 -17.562557 15.098476
34.762009 -21.908443 18.542046
34.762009 -21.90844 15.098478
55.40937 -3.9599457 18.542046
55.409367 -3.9599419 15.098479
49.680893 -13.493736 18.542042
49.680893 -13.493736 15.098475
56.804497 2.0830154 18.542049
56.804497 2.0830135 15.09848
29.855698 33.206299 18.458002
29.855694 33.206295 15.18253
41.000679 30.633282 18.458004
41.000671 30.633278 15.182532
46.172668 27.525637 18.458
46.172665 27.525639 15.18253
13.315985 28.21118 18.458
13.315983 28.211178 15.182529
23.844841 32.680416 18.458
23.844839 32.680416 15.182529
2.8711357 14.44824 18.458
2.8711357 14.448238 15.182528
8.7622089 24.25264 18.458
8.762208 24.252638 15.182528
53.676765 18.893175 18.457998
53.676765 18.893169 15.182528
56.034367 13.339011 18.457998
56.034367 13.339011 15.182528
2.5107212 -2.8255405 18.458
2.5107212 -2.8255405 15.182529
1.5138264 8.569067 18.458
1.5138245 8.569068 15.182528
12.37242 -17.012161 18.458
12.372416 -17.012165 15.182529
4.8683186 -8.3796978 18.458
4.8683205 -8.3796959 15.18253
28.689394 -22.692829 18.457996
28.689394 -22.692833 15.182527
17.54442 -20.119812 18.458
17.544418 -20.119812 15.182528
45.229115 -17.69772 18.457994
45.229115 -17.697716 15.182524
34.700256 -22.166954 18.457996
34.700256 -22.166954 15.182527
55.673962 -3.9347725 18.457996
55.673965 -3.9347744 15.182527
49.782887 -13.73917 18.457993
49.782883 -13.73917 15.182523
57.031277 1.9444008 18.457998
57.031273 1.9444008 15.182528
28.510841 36.041565 18.188488
28.510841 36.041565 15.452043
43.452324 32.592056 18.188492
43.45232 32.592056 15.452047
46.751183 30.609901 18.18849
46.751183 30.609901 15.452045
10.561444 29.71447 18.188492
10.561445 29.71447 15.452045
24.676924 35.706139 18.188484
24.676924 35.706139 15.452039
-0.24094391 14.045352 18.188488
-0.24094391 14.045352 15.452044
7.6569033 27.189585 18.18849
7.6569023 27.189583 15.452044
56.811523 19.036814 18.188484
56.811523 19.036814 15.452041
58.315281 15.49419 18.188484
58.315281 15.49419 15.452042
0.22980881 -4.9807148 18.188478
0.2298069 -4.9807186 15.452033
-1.1066818 10.295422 18.188488
-1.1066818 10.295422 15.452043
11.793903 -20.096428 18.188484
11.793902 -20.096432 15.452038
1.7335548 -8.5233364 18.18848
1.7335567 -8.5233383 15.452034
30.034246 -25.528099 18.188484
30.034246 -25.528099 15.45204
15.092773 -22.07859 18.18848
15.092773 -22.07859 15.452037
47.98365 -19.201004 18.188475
47.98365 -19.201004 15.452031
33.868168 -25.192673 18.188484
33.868168 -25.192673 15.45204
58.786045 -3.5318871 18.188478
58.786045 -3.5318871 15.452036
50.888199 -16.676117 18.188475
50.888195 -16.676117 15.45203
59.651787 0.21803856 18.188482
59.651779 0.21804237 15.452039
28.419788 36.117966 18.104439
28.419788 36.117966 15.536091
43.56765 32.620815 18.104443
43.56765 32.620811 15.536096
46.722427 30.725231 18.104443
46.722427 30.725231 15.536094
10.442873 29.722761 18.104443
10.442873 29.722761 15.536094
24.753328 35.797192 18.104437
24.753328 35.797192 15.536087
-0.34174347 13.982365 18.104439
-0.34174347 13.982363 15.536091
7.6651936 27.308157 18.104443
7.6651936 27.308157 15.536093
56.92173 18.992289 18.104435
56.92173 18.992289 15.536089
58.359806 15.604399 18.104435
58.359806 15.604397 15.536089
0.18527985 -5.0909233 18.104431
0.18528175 -5.0909252 15.536081
-1.1696682 10.396225 18.104439
-1.1696682 10.396225 15.536091
11.822656 -20.211761 18.104435
11.822659 -20.211765 15.536086
1.6233501 -8.4788094 18.104431
1.6233521 -8.4788094 15.536081
30.125298 -25.6045 18.104435
30.125294 -25.6045 15.536087
14.977444 -22.107342 18.104433
14.977444 -22.107342 15.536085
48.102226 -19.209293 18.104427
48.102226 -19.209293 15.536079
33.791763 -25.28373 18.104435
33.791763 -25.283726 15.536088
58.886848 -3.4688988 18.104431
58.886848 -3.4688988 15.536084
50.879906 -16.794693 18.104427
50.879906 -16.794693 15.536078
59.714767 0.11724472 18.104435
59.714764 0.11724472 15.536087
32.282288 32.825676 18.717939
32.282284 32.825676 14.938179
38.652817 31.354927 18.717941
38.652817 31.354927 14.93818
47.912098 25.791393 18.717937
47.912098 25.791393 14.938177
15.50286 29.329561 18.717937
15.50286 29.329561 14.938176
21.521212 31.884201 18.717936
21.521212 31.884201 14.938175
3.9829865 16.638443 18.717937
3.9829865 16.638443 14.938176
7.3503571 22.242691 18.717937
7.3503561 22.242691 14.938176
52.201488 20.857025 18.717934
52.201485 20.857025 14.938175
56.422234 10.913572 18.717934
56.422226 10.913573 14.938176
2.122858 -0.40010071 18.717937
2.122858 -0.40010071 14.938177
1.5530281 6.1131201 18.717937
1.55303 6.113122 14.938176
10.632994 -15.277924 18.717937
10.632992 -15.277924 14.938176
6.3435993 -10.343557 18.717937
6.3436031 -10.343555 14.938177
26.262812 -22.31221 18.717934
26.26281 -22.31221 14.938174
19.892277 -20.841454 18.717934
19.892273 -20.841457 14.938175
43.042236 -18.816101 18.717932
43.042236 -18.816097 14.938172
37.02388 -21.370739 18.717934
37.02388 -21.370739 14.938173
54.562107 -6.1249752 18.717932
54.562107 -6.1249752 14.938173
51.19474 -11.729227 18.71793
51.19474 -11.729225 14.93817
56.992065 4.4003487 18.717937
56.992065 4.4003487 14.938176
32.446262 32.788681 18.549843
32.446262 32.788681 15.106276
38.48922 31.393559 18.549843
38.48922 31.393559 15.106277
48.02301 25.665079 18.549843
48.02301 25.665079 15.106274
15.657265 29.396015 18.549839
15.657265 29.396015 15.106273
21.36615 31.819294 18.549839
21.36615 31.819294 15.106272
4.0688419 16.782965 18.549841
4.0688419 16.782963 15.106273
7.2630625 22.099037 18.549839
7.2630615 22.099037 15.106272
52.091843 20.984446 18.549839
52.091835 20.984442 15.106272
56.437714 10.746193 18.549839
56.43771 10.746192 15.106272
2.1073704 -0.23271561 18.549841
2.1073704 -0.23271561 15.106273
1.5668411 5.945591 18.549839
1.566843 5.94559 15.106272
10.522078 -15.151611 18.549839
10.522078 -15.151611 15.106273
6.453249 -10.470974 18.549839
6.4532509 -10.47097 15.106274
26.098835 -22.275215 18.549839
26.098831 -22.275215 15.106271
20.055876 -20.880089 18.549839
20.055874 -20.880089 15.106271
42.887833 -18.882557 18.549835
42.887833 -18.882553 15.106269
37.178944 -21.305832 18.549835
37.178944 -21.305832 15.10627
54.476257 -6.2694969 18.549835
54.476257 -6.2694969 15.106269
51.282036 -11.585573 18.549835
51.282028 -11.585569 15.106268
56.978256 4.5678797 18.549839
56.978249 4.5678825 15.106273
32.685677 33.078445 18.381748
32.685677 33.078442 15.274371
38.401058 31.758945 18.381748
38.401062 31.758945 15.274372
48.38702 25.75878 18.381744
48.38702 25.75878 15.27437
15.680638 29.771164 18.381744
15.680639 29.771164 15.274368
21.080057 32.06308 18.381744
21.080057 32.063084 15.274368
3.8672447 17.100203 18.381744
3.8672447 17.100203 15.274369
6.8883095 22.128103 18.381744
6.8883095 22.128103 15.274368
52.235287 21.331875 18.381741
52.235283 21.331875 15.274368
56.787277 10.608039 18.381741
56.78727 10.608038 15.274368
1.7578087 -0.094564438 18.381744
1.7578087 -0.094564438 15.274369
1.2465782 5.7488308 18.381744
1.2465782 5.7488308 15.274368
10.158069 -15.245312 18.381744
10.158069 -15.245312 15.274369
6.309803 -10.818401 18.381744
6.3098001 -10.818399 15.27437
25.859421 -22.56498 18.381741
25.859419 -22.56498 15.274367
20.144032 -21.245476 18.381741
20.144032 -21.245476 15.274367
42.864464 -19.257706 18.381739
42.86446 -19.257698 15.274364
37.465042 -21.549622 18.381741
37.465042 -21.549622 15.274366
54.677853 -6.5867367 18.381741
54.677853 -6.5867367 15.274365
51.656784 -11.614639 18.381737
51.656784 -11.614639 15.274364
57.298519 4.764637 18.381741
57.298515 4.7646389 15.274368
34.512836 35.761944 18.079742
34.512836 35.76194 15.576382
37.935184 34.971828 18.079746
37.935184 34.971828 15.576385
51.442539 26.855799 18.079739
51.442539 26.855799 15.576377
15.581522 33.016129 18.079731
15.581522 33.016129 15.576367
18.814672 34.388523 18.079731
18.814672 34.388523 15.576367
1.879715 19.667179 18.079727
1.879715 19.667179 15.576365
3.6887169 22.677864 18.079729
3.6887169 22.677864 15.576365
53.746864 24.204988 18.079735
53.746864 24.204987 15.576374
59.904053 9.6995573 18.079725
59.904053 9.6995564 15.576365
-1.3589668 0.8139267 18.079729
-1.3589668 0.8139267 15.576365
-1.6650887 4.3129272 18.079727
-1.6650887 4.3129272 15.576365
7.1025505 -16.342323 18.079729
7.1025524 -16.342327 15.576366
4.7982197 -13.691513 18.079731
4.7982197 -13.691513 15.576367
24.032259 -25.24847 18.079723
24.032259 -25.24847 15.576365
20.609905 -24.458359 18.079723
20.609905 -24.458359 15.576364
42.963577 -22.502674 18.079731
42.963573 -22.502666 15.576369
39.730423 -23.875061 18.079731
39.730423 -23.875061 15.576371
56.665382 -9.153717 18.079721
56.665379 -9.1537132 15.576363
54.85638 -12.164402 18.079716
54.85638 -12.164402 15.576358
60.210182 6.2005482 18.079727
60.210182 6.200551 15.576368
34.613636 35.824924 17.995697
34.613636 35.824921 15.66043
37.872196 35.072632 17.995697
37.872196 35.072632 15.660432
51.561111 26.847507 17.995689
51.561111 26.847507 15.660425
15.626049 33.126339 17.995684
15.626049 33.126335 15.660416
18.704466 34.433048 17.995684
18.704466 34.433048 15.660417
1.8509617 19.782511 17.995678
1.8509617 19.782511 15.660413
3.5733852 22.649107 17.99568
3.5733871 22.649109 15.660413
53.755154 24.323563 17.995686
53.755157 24.323559 15.660422
59.99511 9.6231546 17.995678
59.995098 9.6231594 15.660414
-1.4500237 0.89032936 17.995682
-1.4500237 0.89032936 15.660413
-1.7414932 4.2218704 17.995678
-1.7414932 4.2218704 15.660413
6.9839754 -16.334038 17.995682
6.9839754 -16.334038 15.660415
4.7899313 -13.810089 17.995682
4.7899303 -13.810085 15.660415
23.931458 -25.311455 17.995676
23.931458 -25.311455 15.660412
20.672892 -24.559158 17.995676
20.672892 -24.559158 15.660412
42.919052 -22.612877 17.995682
42.919044 -22.612873 15.660419
39.84063 -23.91959 17.995682
39.84063 -23.91959 15.660419
56.694138 -9.2690449 17.995674
56.694138 -9.2690449 15.660411
54.97171 -12.135643 17.995668
54.97171 -12.135643 15.660407
60.286587 6.291604 17.995682
60.286583 6.2916031 15.660416
31.14502 32.034363 54.431026
31.138145 31.936075 54.193092
31.121567 31.698994 54.094284
31.03492 30.459913 54.094284
31.018345 30.22283 54.193092
31.011471 30.124538 54.431026
31.004599 30.026245 54.668961
30.988018 29.789165 54.767765
30.954182 29.305241 54.767765
30.937603 29.068161 54.669231
30.930729 28.969868 54.431576
30.931137 28.975731 48.466663
31.217484 33.070648 48.46656
31.217482 33.070641 54.431576
31.210609 32.972351 54.669231
31.194031 32.735271 54.767765
31.168472 32.36974 54.767765
31.151894 32.132656 54.668961
39.328114 30.145151 54.431026
39.291203 30.053793 54.193085
39.202175 29.833439 54.09428
38.736874 28.681778 54.09428
38.647842 28.461422 54.193085
38.610935 28.370068 54.431026
38.57402 28.278709 54.668961
38.484997 28.058353 54.767761
38.303268 27.60857 54.767761
38.214241 27.388216 54.669231
38.177334 27.296862 54.431572
38.179531 27.302309 48.46666
39.717258 31.108322 48.466557
39.717258 31.108318 54.431572
39.680347 31.01696 54.669231
39.59132 30.796602 54.767761
39.454056 30.456863 54.767761
39.365025 30.236506 54.668961
46.526905 25.819685 54.431026
46.463573 25.744205 54.193085
46.310802 25.562149 54.09428
45.512398 24.61064 54.09428
45.359634 24.428583 54.193089
45.296295 24.353102 54.431026
45.23296 24.27762 54.668961
45.080196 24.095562 54.767765
44.768375 23.723949 54.767765
44.615612 23.541891 54.669231
44.552277 23.466412 54.431568
44.556049 23.470917 48.466663
47.194641 26.615458 48.466557
47.194641 26.615456 54.431568
47.131306 26.53998 54.669231
46.978542 26.357922 54.767765
46.743008 26.077225 54.767765
46.59024 25.895164 54.668961
40.210987 25.976866 54.431488
40.213699 25.982006 48.466579
42.43222 24.642212 54.431488
42.435482 24.647022 48.466579
40.08112 25.760735 54.431244
40.083832 25.765873 48.466331
42.302353 24.426083 54.431244
42.305618 24.430893 48.466331
30.930729 28.969868 54.065891
38.17733 27.29686 54.065887
44.552277 23.466412 54.065887
40.210983 25.976864 54.065807
42.432217 24.64221 54.065807
40.08112 25.760735 54.065559
42.302353 24.426083 54.065559
30.931137 28.975727 48.13047
31.217484 33.070641 48.130367
38.179531 27.302307 48.130466
39.717258 31.108318 48.130363
44.556053 23.470913 48.130466
47.194641 26.615458 48.130367
40.213699 25.982002 48.130386
42.435478 24.647018 48.130386
40.083832 25.765871 48.130142
42.305618 24.430889 48.130138
39.821392 25.328476 54.430779
39.824104 25.333614 48.46587
42.042625 23.993824 54.430779
42.045891 23.998634 48.465866
39.821392 25.328472 54.065098
42.042625 23.993824 54.065094
39.824104 25.333611 48.129677
42.045891 23.998631 48.129677
38.718994 23.493776 54.051819
38.680763 23.523514 48.086906
40.940224 22.159122 54.051815
40.984432 22.139332 48.086906
38.71899 23.493774 53.686134
40.940224 22.159122 53.686134
38.680759 23.523512 47.750717
40.984432 22.139328 47.750717
37.160622 20.900211 51.365112
37.087837 20.950714 45.4002
39.381859 19.565561 51.365112
39.460617 19.525009 45.4002
37.160622 20.900211 50.999428
39.381855 19.565559 50.999428
37.087837 20.950712 45.064011
39.460617 19.525003 45.064011
35.472389 18.090525 50.416656
35.364014 18.162413 44.451744
37.693626 16.755873 50.416656
37.807976 16.693932 44.451744
35.472389 18.090525 50.050972
37.693623 16.755869 50.050972
35.364014 18.162407 44.115551
37.807976 16.693928 44.115551
33.935371 15.532492 50.031162
34.449223 16.704226 44.06625
36.156605 14.19784 50.031158
36.960896 15.195065 44.066246
33.935371 15.532492 49.665478
36.156601 14.197841 49.665478
34.449219 16.704224 43.730057
36.960892 15.195062 43.730057
33.617725 15.036218 50.035072
34.156769 16.20649 44.010719
35.852112 13.696198 50.024261
36.672874 14.697506 43.998596
33.618839 15.035537 49.619553
35.853226 13.695518 49.608746
34.157696 16.205923 43.675941
36.673798 14.696939 43.663818
29.272556 5.2567368 50.533432
35.695358 12.911123 50.029144
36.105431 13.399832 50.029144
36.105434 13.399834 49.626957
36.935387 14.388937 44.014576
36.935387 14.388937 43.681149
36.587425 13.974249 43.681149
29.969574 15.224494 50.029144
30.014078 15.860907 50.029144
30.014078 15.860907 49.626957
30.104145 17.148943 44.014576
30.104145 17.148943 43.681149
30.066385 16.608923 43.681149
33.015663 14.521248 50.029144
33.25465 15.112759 50.029144
33.25465 15.112759 49.626957
33.738335 16.309921 44.014572
33.738335 16.309921 43.681149
33.535545 15.808001 43.681149
15.047916 28.020901 54.431034
15.100129 27.937344 54.1931
15.22607 27.735794 54.094288
15.884285 26.682432 54.094288
16.010227 26.480885 54.1931
16.062441 26.397324 54.431034
16.114655 26.313765 54.668968
16.240595 26.112217 54.767773
16.497662 25.700823 54.767773
16.623604 25.499275 54.669239
16.675819 25.415716 54.43158
16.672703 25.4207 48.466667
14.497429 28.901863 48.466568
14.497431 28.901863 54.43158
14.549645 28.818302 54.669239
14.675585 28.616756 54.767773
14.869761 28.306011 54.767773
14.995703 28.104464 54.668968
22.778629 31.302399 54.43103
22.802465 31.206795 54.193092
22.859962 30.976192 54.094288
23.160456 29.770981 54.094288
23.217951 29.540382 54.193092
23.241787 29.444775 54.43103
23.265623 29.349173 54.668964
23.32312 29.11857 54.767773
23.440477 28.647873 54.767773
23.497972 28.417274 54.669239
23.521811 28.321671 54.431576
23.520388 28.32737 48.466667
22.527317 32.310349 48.466568
22.527321 32.310352 54.431576
22.551155 32.214745 54.669239
22.608652 31.984142 54.767773
22.697298 31.628605 54.767773
22.754791 31.398003 54.668968
25.942945 28.449123 54.431496
25.942116 28.454872 48.466583
28.524448 28.674973 54.431496
28.524263 28.680782 48.466583
25.96492 28.197937 54.431255
25.964094 28.203688 48.466343
28.546425 28.423786 54.431248
28.546238 28.429596 48.466343
16.675817 25.415714 54.065895
23.521811 28.321669 54.065895
25.942945 28.449123 54.065815
28.524448 28.674973 54.065807
25.96492 28.197937 54.065567
28.546425 28.423786 54.065567
16.672705 25.420696 48.130478
14.497432 28.901861 48.130375
23.52039 28.327366 48.130474
22.527317 32.310349 48.130371
25.94212 28.45487 48.130394
28.524265 28.680779 48.13039
25.964094 28.203686 48.130146
28.54624 28.429594 48.130146
26.008873 27.695566 54.43079
26.008045 27.701317 48.465878
28.590376 27.921417 54.43079
28.590191 27.927227 48.465878
26.008873 27.695564 54.065102
28.590378 27.921415 54.065102
26.008047 27.701315 48.129684
28.590191 27.927223 48.129681
26.195421 25.563288 54.051823
26.147011 25.564877 48.086914
28.776928 25.789141 54.051823
28.824322 25.79911 48.086914
26.195421 25.563288 53.686142
28.776928 25.789139 53.686142
26.147013 25.564873 47.750725
28.824324 25.799107 47.750721
26.459129 22.549067 51.365116
26.370564 22.547142 45.400208
29.040638 22.774921 51.365116
29.128193 22.788403 45.400208
26.459129 22.549067 50.999435
29.040634 22.774918 50.999435
26.370564 22.547138 45.064014
29.128195 22.788401 45.064014
26.744816 19.283663 50.416664
26.614887 19.278118 44.451752
29.326324 19.509516 50.41666
29.455244 19.526619 44.451752
26.744816 19.283663 50.05098
29.326324 19.509514 50.05098
26.614887 19.278116 44.115559
29.455246 19.526615 44.115559
27.004917 16.310734 50.031162
26.731903 17.560722 44.066257
29.586422 16.536587 50.031162
29.650949 17.816107 44.066254
27.004917 16.310734 49.665482
29.586422 16.536583 49.665482
26.731903 17.560719 43.730061
29.650951 17.816105 43.730061
27.039637 15.722532 50.03508
26.787868 16.986145 44.010723
29.634937 15.951772 50.024265
29.710396 17.244282 43.9986
27.040939 15.722637 49.619556
29.636238 15.951876 49.608749
26.78895 16.986233 43.675945
29.711475 17.244366 43.663822
23.977556 13.730523 50.029148
23.639486 14.271548 50.029148
23.639486 14.271548 49.626961
22.955265 15.366532 44.014576
22.955265 15.366532 43.681152
23.242128 14.907452 43.681152
26.855251 14.952031 50.029148
26.700914 15.571046 50.029148
26.700914 15.571046 49.626961
26.38855 16.823872 44.014576
26.38855 16.823872 43.681152
26.519512 16.298616 43.681152
4.3841438 15.312302 54.431034
4.4754982 15.275391 54.1931
4.6958542 15.186361 54.094299
5.8475132 14.721063 54.094292
6.0678692 14.632032 54.1931
6.1592264 14.595121 54.431034
6.2505817 14.55821 54.668968
6.4709368 14.469181 54.76778
6.9207201 14.28746 54.76778
7.1410761 14.198428 54.669247
7.2324314 14.161519 54.431583
7.2269831 14.16372 48.466675
3.4209747 15.701447 48.466572
3.4209747 15.701446 54.431583
3.512331 15.664536 54.669247
3.7326851 15.575508 54.76778
4.0724297 15.438242 54.76778
4.2927856 15.349211 54.668968
8.7096071 22.511091 54.431034
8.7850866 22.447754 54.1931
8.9671459 22.294991 54.094292
9.9186554 21.49658 54.094292
10.100712 21.343815 54.1931
10.176193 21.280479 54.431034
10.251672 21.217144 54.668968
10.433731 21.064381 54.767773
10.805344 20.75256 54.767773
10.987401 20.599794 54.669247
11.062881 20.536461 54.431583
11.05838 20.540237 48.466675
7.9138308 23.178825 48.466572
7.9138327 23.178823 54.431583
7.9893112 23.11549 54.669247
8.1713734 22.962723 54.76778
8.4520702 22.72719 54.767773
8.6341286 22.574425 54.668968
12.946704 22.062679 54.431503
12.942656 22.066847 48.466591
14.902433 23.762768 54.431503
14.898869 23.767357 48.466591
13.112127 21.872381 54.431255
13.108077 21.876551 48.466347
15.067856 23.572472 54.431255
15.06429 23.577061 48.466343
7.2324314 14.161519 54.065903
11.062881 20.536461 54.065895
12.946705 22.062675 54.065815
14.902434 23.762766 54.065815
13.112127 21.872379 54.065575
15.067858 23.572468 54.065575
7.2269869 14.163718 48.130482
3.4209785 15.701447 48.130383
11.058384 20.540236 48.130478
7.9138336 23.178823 48.130375
12.942658 22.066845 48.130398
14.898871 23.767355 48.130394
13.10808 21.876549 48.13015
15.064293 23.577059 48.13015
13.44297 21.491789 54.43079
13.438921 21.495958 48.465881
15.398699 23.191877 54.43079
15.395133 23.19647 48.465881
13.442972 21.491787 54.065109
15.398701 23.191877 54.065109
13.438923 21.495958 48.129684
15.395137 23.196466 48.129684
14.847214 19.87639 54.051823
14.807116 19.849222 48.086918
16.802942 21.576479 54.051823
16.835423 21.612406 48.086914
14.847215 19.876389 53.686146
16.802944 21.576479 53.686146
14.807117 19.84922 47.750725
16.835428 21.612404 47.750725
16.832273 17.59284 51.36512
16.761751 17.539225 45.400211
18.788002 19.292929 51.36512
18.85091 19.355303 45.400211
16.832273 17.59284 50.999435
18.788004 19.292927 50.999435
16.761755 17.539223 45.064018
18.850914 19.355301 45.064014
18.982756 15.118993 50.416664
18.880896 15.038138 44.451752
20.938482 16.819084 50.416664
21.03273 16.908699 44.451752
18.982756 15.118994 50.05098
20.938484 16.81908 50.05098
18.880898 15.038136 44.115562
21.032732 16.908697 44.115559
20.94062 12.866728 50.031166
19.985025 13.717515 44.066257
22.896351 14.566816 50.031166
22.196472 15.6399 44.066257
20.94062 12.866728 49.665482
22.896353 14.566813 49.665482
19.985027 13.717514 43.730061
22.196476 15.639898 43.730061
21.314449 12.41127 50.03508
20.368031 13.285569 44.010723
23.279346 14.122208 50.024273
22.580673 15.212223 43.9986
21.315439 12.412121 49.619556
23.280338 14.123058 49.608749
20.368851 13.286277 43.675949
22.581499 15.212929 43.663826
20.008049 8.9998512 50.029152
19.416536 9.2388401 50.029152
19.416536 9.2388401 49.626965
18.219372 9.7225256 44.01458
18.219372 9.7225246 43.681152
18.721292 9.5197353 43.681152
21.618166 11.679543 50.029148
21.129457 12.089617 50.029148
21.129457 12.089617 49.626961
20.140354 12.919575 44.01458
20.140354 12.919575 43.681152
20.555044 12.571609 43.681152
52.03672 19.481373 54.431023
51.953163 19.429161 54.193089
51.751614 19.303219 54.094284
50.69825 18.645002 54.094284
50.4967 18.519062 54.193089
50.413139 18.46685 54.431023
50.329578 18.414637 54.668957
50.128033 18.288692 54.767765
49.716637 18.031628 54.767765
49.515095 17.905685 54.669235
49.431538 17.853474 54.431576
49.436516 17.856586 48.466663
52.917683 20.031862 48.466557
52.917683 20.031858 54.431576
52.834122 19.979643 54.669235
52.632572 19.853704 54.767765
52.321831 19.659527 54.767765
52.120281 19.533587 54.668957
55.318222 11.750655 54.431023
55.222614 11.726816 54.193089
54.992012 11.669325 54.094284
53.786804 11.368834 54.094284
53.556206 11.311338 54.193089
53.460598 11.2875 54.431023
53.36499 11.263664 54.668957
53.134392 11.206166 54.767765
52.6637 11.088807 54.767765
52.433094 11.031314 54.669235
52.337494 11.007476 54.431576
52.343189 11.0089 48.466663
56.326172 12.001967 48.466557
56.326168 12.001968 54.431572
56.230564 11.978131 54.669235
55.999966 11.920634 54.767765
55.644428 11.831988 54.767765
55.413822 11.774493 54.668957
50.300919 15.590223 54.431488
50.306137 15.592786 48.466579
51.313446 13.204858 54.431488
51.318916 13.20683 48.466579
50.068817 15.491704 54.431248
50.074036 15.494266 48.466335
51.081348 13.106337 54.431248
51.086815 13.108309 48.466335
49.431534 17.85347 54.065887
52.337494 11.007475 54.065887
50.300919 15.590223 54.065807
51.313446 13.204858 54.065807
50.068817 15.491704 54.065559
51.081345 13.106335 54.065559
49.436516 17.856586 48.130474
52.917679 20.031858 48.130367
52.343189 11.008899 48.13047
56.326164 12.001967 48.130363
50.306137 15.592783 48.13039
51.318913 13.206827 48.13039
50.074032 15.494264 48.130142
51.086815 13.108307 48.130142
49.604618 15.294662 54.430782
49.609833 15.297224 48.465874
50.617146 12.909297 54.430782
50.622612 12.911268 48.465874
49.604618 15.294662 54.065102
50.617146 12.909296 54.065102
49.609833 15.297221 48.129681
50.622612 12.911264 48.129681
47.634354 14.458331 54.051823
47.620899 14.504863 48.08691
48.646873 12.072968 54.051823
48.671005 12.030974 48.08691
47.634346 14.458333 53.686138
48.646873 12.072968 53.686138
47.620895 14.504861 47.750717
48.671001 12.03097 47.750717
44.849144 13.276084 51.365112
44.819946 13.359723 45.400204
45.861675 10.890717 51.365112
45.90155 10.811617 45.400204
44.849144 13.276084 50.999432
45.861671 10.890717 50.999428
44.819942 13.359719 45.064011
45.90155 10.811613 45.064011
41.831841 11.995316 50.41666
41.786415 12.117172 44.451748
42.844368 9.609951 50.41666
42.900475 9.4926243 44.451748
41.831841 11.995316 50.050976
42.844368 9.6099501 50.050976
41.786415 12.11717 44.115559
42.900475 9.4926233 44.115559
39.084793 10.829262 50.031162
40.189236 11.475181 44.066254
40.097324 8.4438953 50.031162
41.33416 8.7779179 44.066254
39.084793 10.829262 49.665478
40.097317 8.4438992 49.665478
40.189232 11.475178 43.730061
41.334152 8.7779179 43.730061
38.53611 10.614475 50.035072
39.660076 11.2444 44.010719
39.556122 8.2170372 50.024265
40.808685 8.5446796 43.998596
38.536613 10.61327 49.619556
39.556622 8.2158318 49.608749
39.660492 11.243399 43.675945
40.809105 8.5436764 43.663822
38.96785 7.6740351 50.029144
39.586861 7.8283739 50.029144
39.586861 7.8283739 49.626957
40.839691 8.1407375 44.014576
40.839691 8.1407385 43.681149
40.314434 8.0097771 43.681149
37.746338 10.55174 50.029144
38.287369 10.889809 50.029144
38.287369 10.889809 49.626957
39.382347 11.57403 44.014576
39.382347 11.57403 43.681149
38.923267 11.287166 43.681149
3.2268887 -1.2371845 54.431034
3.3224945 -1.2133465 54.1931
3.5530949 -1.1558514 54.094299
4.7583046 -0.85535812 54.094299
4.9889069 -0.79786301 54.1931
5.0845108 -0.77402496 54.431034
5.1801167 -0.75018883 54.668972
5.410718 -0.69269371 54.76778
5.8814116 -0.57533646 54.767776
6.1120148 -0.51784134 54.669247
6.2076187 -0.4940052 54.431583
6.2019148 -0.49542618 48.466675
2.2189331 -1.4884949 48.466572
2.218935 -1.4884968 54.431587
2.3145428 -1.4646568 54.66925
2.5451412 -1.4071617 54.76778
2.9006844 -1.3185139 54.76778
3.1312847 -1.2610207 54.668972
2.4949284 7.1292019 54.431038
2.5932217 7.1223269 54.1931
2.8303032 7.105751 54.094299
4.0693836 7.019105 54.094299
4.3064642 7.0025272 54.1931
4.4047585 6.9956532 54.431034
4.5030479 6.98878 54.668972
4.7401304 6.9722023 54.76778
5.2240543 6.9383621 54.76778
5.461134 6.9217844 54.669247
5.5594263 6.9149122 54.431587
5.5535641 6.9153223 48.466675
1.4586487 7.2016659 48.466572
1.4586487 7.2016649 54.431587
1.556942 7.1947918 54.66925
1.7940254 7.1782141 54.767784
2.1595573 7.1526537 54.76778
2.396637 7.1360741 54.668972
6.1863823 9.2569332 54.431503
6.1806574 9.257925 48.466595
6.7693138 11.781881 54.431503
6.7637291 11.783501 48.466595
6.432066 9.2002125 54.431255
6.4263382 9.2012043 48.466347
7.0149956 11.725163 54.431255
7.0094137 11.72678 48.466347
6.2076187 -0.4940033 54.065903
5.5594282 6.9149132 54.065903
6.1863842 9.2569323 54.065823
6.7693157 11.781881 54.065823
6.4320669 9.2002115 54.065575
7.0149975 11.725161 54.065575
6.2019196 -0.49542618 48.130482
2.2189369 -1.488493 48.130379
5.5535679 6.9153233 48.130482
1.4586487 7.2016649 48.130383
6.1806602 9.257925 48.130398
6.7637348 11.7835 48.130398
6.426342 9.2012062 48.130157
7.0094156 11.726781 48.130157
6.9234285 9.086771 54.430798
6.9177027 9.0877638 48.465885
7.506361 11.611722 54.43079
7.5007763 11.613339 48.465881
6.9234314 9.086771 54.065109
7.5063629 11.611721 54.065109
6.9177065 9.0877647 48.129692
7.5007801 11.613339 48.129692
9.0089941 8.605278 54.05183
8.9925222 8.5597315 48.086922
9.5919247 11.13023 54.05183
9.597085 11.178389 48.086922
9.008997 8.6052799 53.68615
9.5919256 11.130229 53.68615
8.9925251 8.5597324 47.750729
9.5970898 11.178389 47.750729
11.95718 7.9246368 51.365124
11.93164 7.8398104 45.400211
12.540108 10.449589 51.36512
12.554341 10.537026 45.400211
11.957178 7.9246359 50.999439
12.540112 10.449588 50.999439
11.931644 7.8398113 45.064018
12.554344 10.537027 45.064018
15.151047 7.1872759 50.416668
15.116166 7.0619898 44.451756
15.733974 9.7122269 50.416664
15.757547 9.8401241 44.451756
15.151047 7.1872759 50.050983
15.733978 9.7122259 50.050983
15.116169 7.0619926 44.115562
15.75755 9.8401251 44.115562
18.058842 6.5159607 50.031166
16.785667 6.6425753 44.066257
18.641773 9.0409098 50.031166
17.444817 9.4976759 44.066257
18.058842 6.5159607 49.665485
18.641777 9.0409079 49.665482
16.785671 6.6425762 43.730064
17.44482 9.4976749 43.730064
18.628986 6.3672171 50.035084
17.349419 6.5182495 44.010723
19.212959 8.9063311 50.024273
18.007027 9.3775053 43.998604
18.62929 6.3684874 49.61956
19.213263 8.9076014 49.608753
17.349669 6.5193052 43.675949
18.007278 9.378561 43.663826
19.577259 2.8394413 50.029152
18.958244 2.6851025 50.029152
18.958244 2.6851025 49.626965
17.705418 2.3727379 44.01458
17.705418 2.3727379 43.681156
18.230671 2.5037003 43.681156
19.304798 5.9537582 50.029152
18.668386 5.9982605 50.029152
18.668386 5.9982605 49.626965
17.38035 6.0883293 44.01458
17.38035 6.0883293 43.681156
17.920368 6.0505676 43.681156
12.018202 -15.306213 54.431038
12.081535 -15.230732 54.193096
12.234303 -15.048672 54.094296
13.032711 -14.097168 54.094296
13.185476 -13.915108 54.193096
13.24881 -13.83963 54.431038
13.312147 -13.764145 54.668972
13.464911 -13.582088 54.767776
13.776731 -13.210476 54.767776
13.929497 -13.028419 54.66925
13.99283 -12.952942 54.431587
13.989054 -12.957439 48.466675
11.350464 -16.10199 48.466572
11.350464 -16.10199 54.431587
11.413801 -16.026508 54.66925
11.566568 -15.844444 54.767784
11.802099 -15.563751 54.767776
11.954863 -15.381695 54.668972
6.5083838 -8.9679012 54.431038
6.5919418 -8.9156876 54.1931
6.7934904 -8.7897434 54.094299
7.8468571 -8.1315308 54.094299
8.0484047 -8.0055885 54.1931
8.1319628 -7.9533768 54.431034
8.2155228 -7.9011612 54.668972
8.4170723 -7.775219 54.767776
8.8284626 -7.5181541 54.767776
9.0300102 -7.3922157 54.669243
9.1135712 -7.3399982 54.431583
9.1085844 -7.3431091 48.466675
5.6274214 -9.5183849 48.466572
5.6274233 -9.5183849 54.431587
5.7109814 -9.4661751 54.66925
5.912529 -9.340229 54.767776
6.2232761 -9.1460552 54.767776
6.4248238 -9.0201149 54.668972
8.2441835 -5.0767479 54.431503
8.2389679 -5.0793076 48.466591
7.2316542 -2.6913815 54.431503
7.2261887 -2.6933537 48.466591
8.4762859 -4.9782276 54.431255
8.4710655 -4.9807892 48.466347
7.4637594 -2.5928612 54.431255
7.4582882 -2.5948353 48.466347
13.992832 -12.952938 54.065899
9.113574 -7.3399944 54.065903
8.2441845 -5.076746 54.065819
7.231658 -2.6913834 54.065819
8.4762859 -4.9782257 54.065575
7.4637613 -2.5928574 54.065575
13.989056 -12.957436 48.130482
11.350468 -16.101986 48.130383
9.1085892 -7.3431091 48.130482
5.6274233 -9.5183849 48.130379
8.2389698 -5.0793076 48.130398
7.2261877 -2.6933537 48.130398
8.4710703 -4.9807854 48.130154
7.4582911 -2.5948315 48.130154
8.9404869 -4.7811832 54.430794
8.9352684 -4.7837448 48.465881
7.9279575 -2.3958206 54.43079
7.9224892 -2.3977909 48.465881
8.9404869 -4.7811852 54.065109
7.9279594 -2.3958187 54.065109
8.9352684 -4.7837448 48.129692
7.9224911 -2.397789 48.129692
10.910755 -3.9448586 54.05183
10.9242 -3.9913864 48.086918
9.8982277 -1.5594902 54.05183
9.8740969 -1.5174942 48.086918
10.910757 -3.9448566 53.686146
9.8982315 -1.5594883 53.686146
10.924205 -3.9913845 47.750729
9.8740978 -1.5174942 47.750729
13.695959 -2.7626057 51.365124
13.725157 -2.8462448 45.400211
12.683432 -0.37724304 51.36512
12.643547 -0.29813766 45.400211
13.695959 -2.7626057 50.999439
12.683432 -0.37724113 50.999439
13.725158 -2.8462448 45.064018
12.643551 -0.29813385 45.064018
16.713261 -1.4818382 50.416668
16.758682 -1.6036968 44.451756
15.700734 0.90352631 50.416664
15.644627 1.020853 44.451756
16.713261 -1.4818382 50.050983
15.700737 0.90353012 50.050983
16.758686 -1.6036949 44.115562
15.644629 1.0208569 44.115562
19.46031 -0.31578064 50.031166
18.355865 -0.96170044 44.066257
18.447781 2.0695839 50.031166
17.210943 1.7355595 44.066257
19.46031 -0.31578064 49.665485
18.447784 2.069582 49.665482
18.355865 -0.96170044 43.730064
17.210945 1.7355614 43.730064
20.008995 -0.10099792 50.035084
18.885025 -0.73092079 44.010723
18.988981 2.2964401 50.024273
17.736414 1.9687996 43.998604
20.008492 -0.099788666 49.61956
18.98848 2.2976475 49.608753
18.884607 -0.72991943 43.675949
17.736 1.969799 43.663826
22.849747 -2.3976479 50.029152
22.439671 -2.8863564 50.029152
22.439671 -2.8863564 49.626961
21.609715 -3.8754616 44.01458
21.609715 -3.8754597 43.681156
21.95768 -3.4607697 43.681156
20.798763 -0.038261414 50.029152
20.257738 -0.37633133 50.029152
20.257738 -0.37633133 49.626961
19.162752 -1.0605507 44.01458
19.162752 -1.0605507 43.681156
19.62183 -0.77368546 43.681156
27.400097 -21.520897 54.431034
27.406967 -21.422607 54.193096
27.423548 -21.185524 54.094296
27.510191 -19.946445 54.094296
27.526772 -19.709366 54.193096
27.53364 -19.611069 54.43103
27.540516 -19.512779 54.668968
27.557095 -19.275696 54.767776
27.590935 -18.791775 54.767776
27.607513 -18.554691 54.669243
27.614384 -18.456398 54.43158
27.613976 -18.462265 48.466675
27.327631 -22.557178 48.466572
27.327631 -22.557175 54.431587
27.334503 -22.458885 54.669247
27.351082 -22.221806 54.767776
27.376644 -21.856274 54.767776
27.393221 -21.61919 54.668968
19.216999 -19.63168 54.431038
19.253906 -19.540321 54.193096
19.342937 -19.319965 54.094296
19.808237 -18.168304 54.094296
19.897266 -17.947952 54.193096
19.934179 -17.85659 54.431038
19.971087 -17.76524 54.668972
20.060114 -17.544884 54.767776
20.24184 -17.0951 54.767776
20.33087 -16.874744 54.669243
20.367781 -16.783386 54.431587
20.365576 -16.788834 48.466675
18.827848 -20.594849 48.466572
18.827848 -20.594849 54.431587
18.864761 -20.503487 54.669247
18.953793 -20.283134 54.76778
19.091055 -19.94339 54.76778
19.180082 -19.723034 54.668972
18.334126 -15.46339 54.431499
18.331413 -15.468533 48.466595
16.112892 -14.128738 54.431499
16.109627 -14.133545 48.466591
18.463989 -15.247261 54.431259
18.461275 -15.252403 48.466347
16.242756 -13.912609 54.431255
